ply
format ascii 1.0
comment Created by Open3D
element vertex 658
property double x
property double y
property double z
end_header
0.191748 -0.222747 -0.239657
0.243662 -0.201445 -0.278818
0.217035 -0.199899 -0.284625
0.196253 -0.201801 -0.284643
0.177446 -0.201169 -0.28466
0.155901 -0.200742 -0.28468
0.136396 -0.200089 -0.284698
0.116549 -0.201843 -0.284715
0.245206 -0.200486 -0.240235
0.0963512 -0.201188 -0.284734
0.0757933 -0.200522 -0.284752
0.0548655 -0.199844 -0.284771
0.0254671 -0.199834 -0.284797
0.00637239 -0.201439 -0.284815
0.243662 -0.180725 -0.278818
0.217035 -0.181411 -0.284625
-0.0130317 -0.200517 -0.284832
-0.133799 -0.222573 -0.239311
0.196253 -0.180804 -0.284643
0.177446 -0.182346 -0.28466
-0.0327527 -0.19958 -0.28485
-0.0527985 -0.201223 -0.284868
0.155901 -0.181737 -0.28468
-0.0731772 -0.200276 -0.284886
-0.0938972 -0.201953 -0.284905
0.250504 -0.189899 -0.213222
0.136396 -0.180919 -0.284698
-0.115326 -0.20117 -0.28435
0.250462 -0.19725 -0.173796
0.245206 -0.181045 -0.240235
0.116549 -0.180087 -0.284715
0.0963512 -0.181679 -0.284734
-0.135583 -0.200828 -0.281464
0.0757933 -0.180839 -0.284752
0.0548655 -0.182466 -0.284771
0.0254671 -0.182238 -0.284797
-0.165729 -0.201836 -0.264704
0.00637239 -0.181169 -0.284815
0.251448 -0.182883 -0.189436
0.243662 -0.162307 -0.278818
-0.0130317 -0.180082 -0.284832
-0.0327527 -0.181553 -0.28485
0.217035 -0.160613 -0.284625
0.196253 -0.162141 -0.284643
-0.0527985 -0.180452 -0.284868
-0.0731772 -0.18195 -0.284886
0.25276 -0.172811 -0.210255
0.177446 -0.161171 -0.28466
-0.0938972 -0.180833 -0.284905
0.155901 -0.160356 -0.28468
0.136396 -0.161749 -0.284698
-0.115326 -0.179854 -0.28435
-0.135583 -0.181958 -0.281464
0.253032 -0.175887 -0.173795
0.245206 -0.161604 -0.240235
0.116549 -0.160749 -0.284715
0.0963512 -0.16217 -0.284734
0.249142 -0.198686 -0.059335
0.0757933 -0.161156 -0.284752
-0.165729 -0.182348 -0.264704
0.250622 -0.189867 -0.0855823
0.0548655 -0.160123 -0.284771
0.0254671 -0.162129 -0.284797
0.00637239 -0.160898 -0.284815
-0.0130317 -0.162202 -0.284832
0.252122 -0.178297 -0.112186
-0.0327527 -0.160951 -0.28485
-0.0527985 -0.162277 -0.284868
0.243662 -0.141587 -0.278818
0.217035 -0.142125 -0.284625
-0.0731772 -0.161006 -0.284886
-0.0938972 -0.162354 -0.284905
0.196253 -0.141144 -0.284643
0.177446 -0.142348 -0.28466
-0.115326 -0.161202 -0.28435
0.255012 -0.180116 -0.0593294
0.250501 -0.166003 -0.131399
0.155901 -0.141351 -0.28468
-0.135583 -0.160393 -0.281464
0.25283 -0.147361 -0.211361
0.245206 -0.142163 -0.240235
0.136396 -0.140182 -0.284698
0.116549 -0.141411 -0.284715
0.252618 -0.196306 0.0551289
0.0963512 -0.140222 -0.284734
0.0757933 -0.141472 -0.284752
-0.165729 -0.160076 -0.264704
0.0548655 -0.140263 -0.284771
0.0254671 -0.14202 -0.284797
0.252952 -0.165065 -0.0757693
0.250501 -0.154843 -0.131399
0.00637239 -0.140628 -0.284815
-0.0130317 -0.141767 -0.284832
-0.0327527 -0.140349 -0.28485
-0.0527986 -0.141505 -0.284868
0.252265 -0.172023 -0.00414217
-0.0731772 -0.140062 -0.284886
-0.0938972 -0.141235 -0.284905
0.253025 -0.138878 -0.173688
0.24518 -0.122395 -0.269671
0.226146 -0.12082 -0.284617
0.205538 -0.121965 -0.284635
-0.115326 -0.139886 -0.28435
-0.135583 -0.141523 -0.281464
0.250971 -0.195705 0.16959
0.252618 -0.175822 0.0551285
0.186889 -0.120658 -0.284652
0.165528 -0.121821 -0.284671
0.25283 -0.127209 -0.211361
0.14619 -0.120489 -0.284689
0.126515 -0.12154 -0.284706
-0.165729 -0.140589 -0.264704
0.252952 -0.14722 -0.0757693
0.24714 -0.121178 -0.234291
0.106494 -0.120182 -0.284724
0.0861179 -0.121249 -0.284743
0.0653763 -0.122335 -0.284761
0.252153 -0.179788 0.142229
0.0548655 -0.120403 -0.284771
0.0254671 -0.121911 -0.284797
0.253065 -0.160608 0.0455016
0.00637239 -0.120357 -0.284815
-0.0130317 -0.121332 -0.284832
-0.0327527 -0.122323 -0.28485
0.254636 -0.176524 0.169593
0.252265 -0.149515 -0.00414217
-0.0527986 -0.120734 -0.284868
-0.0731772 -0.121736 -0.284886
0.253032 -0.120343 -0.173803
-0.0938972 -0.120116 -0.284905
-0.115326 -0.121235 -0.28435
0.252452 -0.126059 -0.118026
0.243662 -0.102449 -0.278818
-0.135583 -0.119958 -0.281464
0.25245 -0.160235 0.135349
0.251907 -0.111758 -0.196715
0.217035 -0.100527 -0.284625
0.196253 -0.101484 -0.284643
0.177446 -0.102349 -0.28466
-0.165729 -0.121101 -0.264704
0.253208 -0.166511 0.205379
0.252952 -0.126401 -0.0757693
0.155901 -0.100965 -0.28468
0.136396 -0.101842 -0.284698
0.253065 -0.140321 0.0455016
0.255012 -0.125626 -0.059339
0.246922 -0.102019 -0.231307
0.116549 -0.100317 -0.284715
0.0963512 -0.101204 -0.284734
0.0757933 -0.102106 -0.284752
0.0548655 -0.100542 -0.284771
0.0254671 -0.101802 -0.284797
0.253208 -0.154757 0.205379
0.25211 -0.112713 -0.111966
0.00637239 -0.100086 -0.284815
-0.0130317 -0.100897 -0.284832
-0.0327527 -0.101721 -0.28485
0.25245 -0.141817 0.135349
0.253032 -0.101828 -0.173803
-0.0527986 -0.0999624 -0.284868
-0.0731772 -0.100792 -0.284886
-0.0938972 -0.101636 -0.284905
-0.115326 -0.0999188 -0.28435
-0.135583 -0.101088 -0.281464
0.246404 -0.094868 -0.189529
-0.165729 -0.101614 -0.264704
0.253065 -0.120033 0.0455016
0.255012 -0.107463 -0.059339
0.250952 -0.103791 -0.0914292
0.250167 -0.0997224 -0.12581
0.243662 -0.081729 -0.278818
0.217035 -0.0820396 -0.284625
0.254563 -0.131186 0.17144
0.246946 -0.0847728 -0.23163
0.196253 -0.0804871 -0.284643
0.177446 -0.0811736 -0.28466
0.155901 -0.0819598 -0.28468
0.136396 -0.0802754 -0.284698
0.116549 -0.0809788 -0.284715
0.0963512 -0.0816945 -0.284734
0.0757933 -0.0824231 -0.284752
0.25245 -0.119716 0.135349
0.0548655 -0.0806822 -0.284771
0.0254671 -0.081693 -0.284797
0.00637239 -0.0823495 -0.284815
0.251065 -0.103874 0.0199613
-0.0130317 -0.0804622 -0.284832
-0.0327527 -0.0811194 -0.28485
-0.0527986 -0.0817874 -0.284868
-0.0731772 -0.0824665 -0.284886
0.252618 -0.104127 0.0551195
0.249129 -0.0982126 -0.00373191
0.252832 -0.0768253 -0.211401
-0.0938972 -0.080517 -0.284905
-0.115326 -0.0812673 -0.28435
-0.135583 -0.0822183 -0.281464
0.254637 -0.111988 0.169584
0.250038 -0.099354 0.0405868
0.252868 -0.0783014 -0.171058
-0.165729 -0.0821262 -0.264704
0.252908 -0.0771402 -0.12613
0.248882 -0.097729 0.135511
0.252953 -0.0788131 -0.0757895
0.24518 -0.0617801 -0.269671
0.226146 -0.0609853 -0.284617
0.205538 -0.0615631 -0.284635
0.186889 -0.062086 -0.284651
0.245206 -0.0619685 -0.240235
0.165528 -0.0603193 -0.284671
0.14619 -0.0608409 -0.284689
0.126515 -0.0613717 -0.284706
0.106494 -0.0619118 -0.284724
0.0861179 -0.0624614 -0.284743
0.247299 -0.0931967 0.169576
0.253004 -0.0775358 -0.0189947
0.251732 -0.0631772 -0.193939
0.0653763 -0.0605496 -0.284761
0.0548655 -0.060822 -0.284771
0.0254671 -0.0615839 -0.284797
0.00637239 -0.0620788 -0.284815
0.252023 -0.0635143 -0.156896
0.248371 -0.0588033 -0.217753
-0.0130317 -0.0600274 -0.284832
-0.0327527 -0.0605176 -0.28485
-0.0527986 -0.061016 -0.284868
-0.0731772 -0.0615226 -0.284886
-0.0938972 -0.0620377 -0.284905
0.253062 -0.0760835 0.0455801
0.252343 -0.0638854 -0.116107
0.250991 -0.0621421 -0.13961
-0.115326 -0.0599513 -0.28435
-0.135583 -0.0606528 -0.281464
0.253128 -0.0780478 0.119651
0.251265 -0.0624508 -0.0969888
-0.165729 -0.0598547 -0.264704
0.255337 -0.0615998 -0.0658664
0.253204 -0.0764057 0.20548
0.267694 -0.0540327 -0.0870332
0.26565 -0.0528697 -0.106403
0.239444 -0.0424711 -0.282082
0.272065 -0.0534643 -0.0456203
0.2216 -0.0403575 -0.284621
0.200906 -0.0407407 -0.284639
0.182178 -0.0410874 -0.284656
0.160724 -0.0414845 -0.284676
0.141304 -0.041844 -0.284693
0.121543 -0.0422099 -0.284711
0.27311 -0.0542914 0.0247818
0.271709 -0.0510697 -0.0338108
0.249228 -0.0447925 -0.154216
0.245206 -0.0400972 -0.240235
0.101434 -0.0401489 -0.284729
0.0809671 -0.0405061 -0.284747
0.0601327 -0.0408698 -0.284766
0.0415933 -0.0411934 -0.284783
0.0200426 -0.0415696 -0.284802
0.000860244 -0.0419044 -0.28482
-0.0186336 -0.0422447 -0.284837
-0.0384466 -0.0400093 -0.284855
-0.0585867 -0.0403395 -0.284873
-0.079062 -0.0406752 -0.284892
-0.0998811 -0.0410166 -0.28491
-0.11867 -0.0413795 -0.283874
-0.139968 -0.0419567 -0.279514
-0.158046 -0.0399278 -0.2713
0.264329 -0.0400996 -0.0733083
0.258414 -0.0349251 -0.127694
0.266453 -0.0349108 -0.053165
0.262294 -0.030531 -0.0926022
0.260343 -0.0299006 -0.111099
0.268289 -0.0298599 -0.020591
0.24518 -0.0221476 -0.269671
0.226146 -0.0218627 -0.284617
0.205538 -0.0220698 -0.284635
0.186889 -0.0222572 -0.284651
0.165528 -0.0224719 -0.284671
0.245206 -0.0206561 -0.240235
0.14619 -0.0202803 -0.284689
0.126515 -0.0204572 -0.284706
0.106494 -0.0206372 -0.284724
0.0861179 -0.0208205 -0.284743
0.0653763 -0.021007 -0.284761
0.0548655 -0.0211015 -0.284771
0.0254671 -0.0213658 -0.284797
0.00637239 -0.0215375 -0.284815
-0.0130317 -0.021712 -0.284832
-0.0327527 -0.0218894 -0.28485
-0.0527986 -0.0220696 -0.284868
-0.0731772 -0.0222529 -0.284886
-0.0938972 -0.0224392 -0.284905
0.264329 -0.0222776 -0.0733083
0.241925 -0.0201999 -0.162889
-0.115326 -0.0199837 -0.28435
-0.135583 -0.0202176 -0.281464
-0.165729 -0.0208795 -0.264704
0.268287 -0.0110015 -0.0205523
0.262294 -0.010177 -0.0926022
0.260343 -0.00996688 -0.111099
0.258414 -0.00698502 -0.127694
0.266453 -0.00455359 -0.053165
0.264329 -0.00148518 -0.0733083
0.241925 -0.00134667 -0.162889
0.245206 -0.00121508 -0.240235
0.24518 -0.00116567 -0.269671
0.226146 -0.00115067 -0.284617
0.205538 -0.00116158 -0.284635
0.186889 -0.00117144 -0.284651
0.165528 -0.00118274 -0.284671
0.14619 -0.00119297 -0.284689
0.126515 -0.00120337 -0.284706
0.106494 -0.00121396 -0.284724
0.0861179 -0.00122474 -0.284743
0.0653763 -0.00123571 -0.284761
0.0548655 -0.00124127 -0.284771
0.0254671 -0.00125682 -0.284797
0.00637239 -0.00126692 -0.284815
-0.0130317 -0.00127719 -0.284832
-0.0327527 -0.00128762 -0.28485
-0.0527986 -0.00129822 -0.284868
-0.0731772 -0.001309 -0.284886
-0.0938972 -0.00131996 -0.284905
-0.115326 -0.00133226 -0.28435
-0.135583 -0.00134785 -0.281464
-0.165729 -0.00139198 -0.264704
0.27311 0.00493556 0.0247818
0.259341 0.00409572 -0.146318
0.25668 0.010195 -0.0928401
0.25461 0.0100364 -0.106994
0.248014 0.00973243 -0.134943
0.244116 0.0222052 0.23807
0.238428 0.0254049 0.197893
0.249752 0.0194766 -0.0701547
-0.135583 0.0175219 -0.281464
-0.165729 0.0180956 -0.264704
0.242091 0.0221236 -0.0864481
0.245206 0.018226 -0.240235
0.19392 0.0175157 -0.284645
0.165528 0.017741 -0.284671
0.14619 0.0178944 -0.284689
0.126515 0.0180505 -0.284706
0.106494 0.0182094 -0.284724
0.0861179 0.018371 -0.284743
0.0653763 0.0185356 -0.284761
0.0548655 0.018619 -0.284771
0.0254671 0.0188522 -0.284797
0.00637239 0.0190037 -0.284815
-0.0130317 0.0191577 -0.284832
-0.0327527 0.0193142 -0.28485
-0.0527986 0.0194732 -0.284868
-0.0731772 0.0196349 -0.284886
-0.0938972 0.0197993 -0.284905
-0.115326 0.0199838 -0.28435
0.24518 0.0198163 -0.269671
0.226146 0.0195613 -0.284617
0.205538 0.0197467 -0.284635
0.244116 0.0383544 0.23807
0.223967 0.0369184 0.186683
-0.22466 0.0356666 -0.188765
-0.188553 0.0360958 -0.241023
-0.206561 0.0370111 -0.224906
0.238428 0.052764 0.197893
-0.167566 0.0375177 -0.266729
-0.190393 0.0382674 -0.257403
-0.208317 0.0390227 -0.246402
0.244116 0.058541 0.23807
0.223967 0.0563491 0.186683
-0.0441672 0.0375158 -0.28486
-0.0644022 0.0378262 -0.284878
-0.0849749 0.0381417 -0.284897
-0.102884 0.0384165 -0.284913
-0.115326 0.0386353 -0.28435
-0.143473 0.0391038 -0.283619
-0.193273 0.0402343 -0.276134
-0.232728 0.0423221 -0.24572
0.245206 0.0376671 -0.240235
0.114044 0.0375089 -0.284718
0.0861179 0.0379668 -0.284743
0.0668828 0.03806 -0.289028
0.0458698 0.038409 -0.288963
0.0271559 0.0387209 -0.288883
0.00539294 0.0390836 -0.28879
-0.0144201 0.0394611 -0.287797
-0.0440549 0.0395226 -0.295978
-0.0640929 0.0398557 -0.295909
-0.0844803 0.0401954 -0.295824
-0.154085 0.0413626 -0.295389
-0.172605 0.0416511 -0.295697
-0.206455 0.0425613 -0.288903
0.24518 0.0384669 -0.269671
0.226146 0.037972 -0.284617
0.205538 0.0383318 -0.284635
0.186889 0.0386573 -0.284651
0.166645 0.038704 -0.290205
0.14562 0.038936 -0.29266
0.126138 0.0392764 -0.292672
-0.108965 0.0427659 -0.30397
-0.189718 0.044498 -0.298221
0.0854687 0.0420748 -0.298407
-0.0156425 0.0433846 -0.308065
-0.127534 0.0454949 -0.307503
0.195733 0.0424614 -0.296051
0.170388 0.0421696 -0.308755
0.151153 0.0427077 -0.306171
0.132129 0.0430772 -0.306233
0.110331 0.0435001 -0.306312
0.0566501 0.0443049 -0.310317
0.0359386 0.0447232 -0.310128
0.014955 0.0451299 -0.31021
-0.212186 0.0498282 -0.306342
0.244116 0.0787275 0.23807
0.238428 0.0762146 0.197893
0.223967 0.0757798 0.186683
-0.0931958 0.0491838 -0.319724
-0.18862 0.0511273 -0.320191
-0.227968 0.0530774 -0.30284
-0.0427344 0.0502914 -0.324332
-0.0648514 0.0507687 -0.324386
-0.11083 0.0518092 -0.323797
-0.149182 0.0526376 -0.323879
-0.169697 0.0530214 -0.324785
0.0905613 0.0499252 -0.321271
0.219494 0.0504406 -0.304448
0.146334 0.0506247 -0.325127
0.125363 0.0511195 -0.325203
0.106426 0.0515536 -0.32544
0.0509053 0.0526831 -0.328032
0.0313606 0.05302 -0.329748
0.0103939 0.0535784 -0.328982
-0.131321 0.057027 -0.32811
-0.0163874 0.0566961 -0.328111
0.244116 0.098914 0.23807
0.238428 0.0957568 0.197893
0.223967 0.0952105 0.186683
0.245206 0.0595383 -0.240235
0.24569 0.107517 0.291887
0.24518 0.0594488 -0.269671
0.18887 0.0564458 -0.322535
0.169746 0.0565104 -0.327824
0.0659744 0.0592787 -0.328279
-0.209845 0.0670227 -0.324983
-0.169979 0.067517 -0.336371
-0.190418 0.0683373 -0.333609
0.237853 0.0625262 -0.289154
-0.0826932 0.0675053 -0.336511
-0.0950499 0.0680235 -0.334803
-0.148375 0.0693496 -0.33729
-0.22901 0.0742702 -0.309478
0.213112 0.0623277 -0.322805
0.000224084 0.0676011 -0.334963
-0.0386731 0.0686179 -0.336628
-0.0596448 0.0691235 -0.337971
0.24408 0.119178 0.238836
0.238428 0.115299 0.197893
0.245685 0.128609 0.291989
0.216687 0.118351 0.182664
0.144544 0.0675343 -0.336339
0.117133 0.068323 -0.337298
-0.24677 0.0839159 -0.300018
0.0456868 0.0726945 -0.339721
0.0256922 0.0733404 -0.339931
0.245206 0.0789794 -0.240235
0.0962022 0.0734279 -0.338187
0.24518 0.0780994 -0.269671
0.231443 0.0737164 -0.312977
-0.119334 0.0830083 -0.341202
-0.220427 0.0881457 -0.32747
0.243647 0.140473 0.248155
0.077488 0.0784766 -0.339524
-0.0166376 0.0815197 -0.342994
-0.18518 0.0875763 -0.343963
0.161063 0.0776194 -0.339392
-0.138774 0.0880763 -0.346402
-0.15867 0.088726 -0.347238
0.238346 0.142849 0.199429
0.216614 0.141758 0.183655
0.202287 0.0784677 -0.337285
0.18054 0.079316 -0.337235
-0.0650376 0.087601 -0.347226
-0.093641 0.0889005 -0.345661
0.218773 0.0805136 -0.332902
0.00272524 0.0875431 -0.345337
-0.0432578 0.0890928 -0.347558
-0.248981 0.102608 -0.305222
0.238255 0.0869632 -0.293464
0.239238 0.162267 0.257589
0.22365 0.158053 0.191469
0.245206 0.0984205 -0.240235
0.238462 0.0880596 -0.318556
0.136173 0.0884963 -0.347664
0.0350749 0.0925611 -0.349716
0.0151407 0.093389 -0.349926
-0.105874 0.0993675 -0.344199
0.237971 0.16342 0.206504
0.0569236 0.0939716 -0.349092
-0.0233683 0.0980534 -0.345168
-0.214283 0.107904 -0.334794
-0.22537 0.109181 -0.329136
0.237177 0.180592 0.298991
0.245181 0.0990797 -0.269682
0.116327 0.0934354 -0.349948
0.0773932 0.0980329 -0.345824
-0.15834 0.107524 -0.355326
-0.182431 0.10925 -0.35112
0.226692 0.175295 0.203349
-0.0940693 0.107867 -0.349269
-0.134069 0.109219 -0.352855
0.181868 0.0977672 -0.344056
0.16242 0.0985066 -0.345361
-0.0529654 0.107608 -0.35384
-0.07466 0.108676 -0.353707
-0.248981 0.124498 -0.305222
0.238338 0.193891 0.275674
0.237055 0.185847 0.22375
0.221588 0.0988556 -0.338297
0.201275 0.0989194 -0.344307
0.100755 0.102702 -0.35184
0.00271228 0.10775 -0.350487
0.240109 0.192295 0.240082
0.23899 0.105997 -0.301355
0.239311 0.198997 0.256123
0.245208 0.117858 -0.240255
-0.22537 0.127597 -0.329136
0.128821 0.107547 -0.353685
0.0340961 0.112621 -0.353088
-0.208837 0.127957 -0.337574
0.214324 0.201571 0.215014
0.245181 0.11773 -0.269682
0.239071 0.108702 -0.324856
0.0619003 0.114032 -0.349398
-0.0247856 0.119012 -0.347421
-0.113035 0.123248 -0.350319
-0.187604 0.127559 -0.348457
-0.157221 0.127644 -0.352974
0.220391 0.213723 0.240581
0.0821919 0.118041 -0.345868
-0.132505 0.129086 -0.351048
-0.248981 0.143651 -0.305222
0.0179493 0.152883 -0.184723
-0.062645 0.127558 -0.351166
-0.0853964 0.129096 -0.349791
0.17116 0.11754 -0.345064
0.152439 0.117727 -0.349959
-0.0442882 0.129019 -0.350413
0.223758 0.117764 -0.33882
0.102723 0.122664 -0.350764
0.00742605 0.128473 -0.349705
-0.250929 0.187185 -0.134054
-0.219794 0.14777 -0.331982
0.19098 0.122505 -0.346601
0.130315 0.127536 -0.351
0.0589662 0.132529 -0.348126
0.040285 0.133259 -0.350313
-0.013664 0.13791 -0.343677
-0.216136 0.181553 -0.185465
-0.111644 0.143098 -0.348224
-0.185391 0.147826 -0.347458
0.245183 0.138708 -0.269701
0.24494 0.133829 -0.294198
0.239161 0.127884 -0.325782
-0.153148 0.147684 -0.350627
-0.174035 0.14905 -0.350389
-0.0944238 0.147649 -0.344463
-0.129108 0.149204 -0.347767
0.0869667 0.137957 -0.345906
-0.0697334 0.147651 -0.348471
-0.0253638 0.148584 -0.341445
-0.0535701 0.14902 -0.34828
0.15822 0.13755 -0.346341
0.00601456 0.147703 -0.346815
0.186572 0.137845 -0.346024
0.109112 0.142501 -0.349
-0.206452 0.198692 -0.189248
-0.195486 0.16556 -0.338767
0.223653 0.139176 -0.337973
0.238301 0.167878 -0.21432
0.0316952 0.152669 -0.34771
-0.0129308 0.158681 -0.334889
-0.169563 0.167546 -0.344675
0.238435 0.163567 -0.244437
0.238228 0.152535 -0.293177
0.131819 0.147662 -0.348296
0.0697136 0.154398 -0.338198
0.0507799 0.15398 -0.346029
-0.128951 0.168252 -0.339842
-0.149287 0.168757 -0.344042
-0.212736 0.178421 -0.32145
0.238896 0.147877 -0.32304
-0.0837667 0.167596 -0.339257
-0.095164 0.169489 -0.334625
0.0864097 0.157901 -0.337516
-0.055161 0.167537 -0.340957
-0.033872 0.16963 -0.335572
-0.192693 0.213746 -0.199386
0.237809 0.168638 -0.263883
0.176335 0.157629 -0.338219
0.162598 0.159157 -0.336286
0.00919256 0.170679 -0.337425
-0.161086 0.206901 -0.24243
-0.186365 0.188246 -0.327048
-0.0149138 0.177793 -0.325754
-0.114078 0.185054 -0.327665
-0.166056 0.187639 -0.333611
0.211127 0.158988 -0.339179
0.0425607 0.172552 -0.338214
-0.0856464 0.185427 -0.327252
-0.114438 0.194507 -0.300052
-0.129273 0.188984 -0.326818
-0.148928 0.189121 -0.33248
0.237458 0.185895 -0.233138
0.0667496 0.174928 -0.330336
-0.186614 0.19918 -0.314724
0.23384 0.167565 -0.315227
0.136352 0.169136 -0.339915
-0.0262832 0.187619 -0.319344
-0.0566831 0.187635 -0.328888
0.117277 0.17347 -0.337781
0.0854055 0.178726 -0.327654
0.00683418 0.185367 -0.326959
-0.0175731 0.19331 -0.304147
-0.0948758 0.198745 -0.307685
-0.125488 0.206504 -0.287542
-0.129523 0.200094 -0.313446
-0.116441 0.21365 -0.267679
-0.00307855 0.195078 -0.311634
0.172277 0.177807 -0.329202
0.0770236 0.192923 -0.303374
0.0664057 0.190404 -0.316047
0.0273257 0.190951 -0.326371
-0.0204637 0.208892 -0.275094
-0.072308 0.203443 -0.311635
-0.100121 0.214505 -0.279499
0.239152 0.195162 -0.252723
0.190537 0.177679 -0.33197
0.0459872 0.192877 -0.322105
-0.0379255 0.205556 -0.302287
0.238875 0.184451 -0.30012
0.0166144 0.20008 -0.313927
-0.0398405 0.218608 -0.264881
0.238347 0.195216 -0.269868
0.150404 0.188148 -0.322862
0.105029 0.192708 -0.320936
0.0746376 0.208695 -0.273517
0.207372 0.183777 -0.328212
0.130243 0.191358 -0.325863
0.0843503 0.206437 -0.287217
0.0564872 0.204424 -0.303113
0.170318 0.194999 -0.308406
0.0360278 0.210885 -0.303992
0.103875 0.207846 -0.301196
0.216524 0.195327 -0.315727
0.157905 0.21063 -0.28275
0.141602 0.205288 -0.305877
0.115266 0.20758 -0.306485
0.196903 0.198895 -0.317399
0.229768 0.204068 -0.297304
0.168392 0.209487 -0.298863
0.192033 0.213263 -0.301486
0.212432 0.213465 -0.301593
