ply
format ascii 1.0
comment Created by Open3D
element vertex 1667
property double x
property double y
property double z
end_header
-0.173311 0.19675 -0.281329
0.157509 -0.0805381 -0.301921
0.0459369 0.19675 0.150813
0.034489 0.19675 -0.263161
-0.0588796 0.19675 -0.197509
-0.170139 0.0819787 -0.223553
0.0282942 0.0525165 0.397372
0.167409 0.164644 0.0014401
-0.13506 0.0608929 -0.146258
0.149085 0.183249 0.0362266
-0.155619 0.183249 -0.101902
0.0317794 0.184262 -0.0502899
-0.167409 0.116873 -0.186228
0.0283574 0.183249 0.159199
0.130454 0.19675 -0.128226
-0.0262626 0.18856 -0.198016
0.0326788 0.19675 0.234887
0.178482 0.184599 0.099568
0.147795 0.183249 -0.0544545
0.0488611 0.19675 -0.320179
0.0730736 0.19675 0.176594
0.173133 0.19675 -0.0289979
0.17551 0.102965 -0.386878
-0.142707 0.19675 0.188982
-0.161995 0.039318 -0.146258
0.159034 0.0867252 0.398272
0.17551 -0.148506 -0.39144
0.101953 0.19675 -0.218068
-0.0887066 -0.0230728 -0.371271
-0.1184 0.183396 -0.0204887
0.161891 -0.111517 0.0634098
0.0431258 0.186908 -0.141234
0.0710332 0.183249 -0.22142
-0.155168 0.139683 -0.371271
-0.167409 -0.0398661 -0.159515
0.131512 0.167521 0.393951
0.0119661 0.19675 0.254124
-0.157509 -0.146556 0.383929
0.167409 -0.0987283 0.180134
-0.0119746 0.186245 0.416732
0.0395593 -0.00816924 -0.371271
0.0378733 0.058276 -0.393173
0.0267099 0.180426 0.0815769
0.0156279 0.189002 -0.213218
-0.157688 0.160915 -0.112037
-0.167409 0.0235853 -0.284322
0.133168 0.19675 0.0932155
-0.157509 0.165726 -0.0907631
-0.187818 0.19675 0.413981
-0.158023 0.165042 -0.278952
0.157509 0.178882 -0.0131684
0.105701 0.173567 0.317369
-0.0138318 0.0230973 0.393817
0.154499 0.193217 -0.358095
0.167409 -0.0367944 -0.189457
-0.157509 -0.0818458 -0.00483504
-0.00979263 0.183249 0.152082
0.167409 0.16138 -0.121143
0.193969 0.192742 -0.0285077
0.0263683 0.19675 -0.082774
0.0149888 0.190851 -0.276772
0.164525 -0.0755151 -0.301692
-0.0314517 0.183249 0.312029
-0.0497479 -0.00495796 -0.391919
-0.045879 0.168731 -0.371271
0.117799 0.192651 -0.338666
-0.157509 0.174789 0.188376
-0.167409 0.149935 -0.275827
0.0884296 0.19675 -0.336558
-0.111571 0.190773 -0.274082
-0.164009 -0.0755151 0.0364167
-0.0360399 0.19675 -0.0612766
0.00471326 0.19675 0.0544088
0.048947 0.188438 -0.193828
-0.167409 -0.0761647 0.29081
-0.167409 -0.0742282 -0.234604
-0.0347103 0.19675 -0.362041
-0.167409 -0.0596937 -0.269819
-0.0668623 0.188254 -0.187494
0.157509 -0.0867097 -0.349956
0.00291779 0.19675 -0.341448
0.167409 0.102277 -0.20811
-0.155253 -0.0193045 -0.371271
-0.0392992 0.183249 -0.118534
0.173329 0.183249 0.212441
-0.11313 0.143591 -0.146258
0.136822 0.18847 -0.194935
0.15062 0.137025 -0.396757
0.155443 0.19675 -0.161069
0.159307 0.0475685 -0.398272
-0.082691 0.183249 0.025446
0.112351 0.10666 -0.371271
-0.167409 -0.0981345 0.276641
0.136355 0.183217 -0.371271
-0.0521743 0.19675 0.0205821
-0.167409 -0.0890062 -0.184356
0.164301 0.0513637 -0.371271
-0.104336 0.184599 -0.40873
-0.167409 -0.106976 -0.296297
0.0890384 0.183249 0.246803
-0.0660273 0.19675 0.398835
-0.0227703 0.183249 -0.000518858
0.167409 -0.0258431 -0.35729
-0.178727 0.19675 -0.128436
0.033201 0.19675 -0.168369
-0.152226 0.183249 -0.366357
-0.167409 0.0270009 -0.368838
-0.0197658 0.183249 -0.2134
-0.0942388 0.19675 -0.330686
-0.0366955 0.19675 -0.181026
-0.167409 -0.0627576 -0.34928
0.167409 -0.0862369 0.269103
0.151229 0.182212 0.0201903
-0.0507473 0.181683 0.0383756
0.13383 0.185363 -0.0881207
0.133051 -0.0380833 -0.146258
-0.0534249 0.19675 -0.288779
0.0162461 -0.108491 -0.392334
-0.0294978 0.192961 -0.349317
-0.0628352 0.178785 0.138009
0.0661051 0.19675 -0.147108
-0.0901311 0.188125 -0.416732
0.0550607 0.19675 0.314978
-0.184778 0.184599 0.408606
-0.113544 0.136333 -0.146258
-0.0704931 0.182314 0.0166771
0.1681 0.183249 -0.259185
0.157509 0.175411 0.20204
0.0937931 -0.0294365 -0.146258
-0.157509 0.0966534 0.393549
-0.187047 0.19675 -0.172794
-0.157509 0.176824 0.291848
0.159407 0.147247 0.129051
0.167409 0.154347 0.0788193
-0.167409 0.176163 -0.154154
-0.175062 -0.124401 0.398272
-0.167763 0.0318466 -0.311032
0.167409 0.0449469 -0.336551
0.157509 -0.080782 -0.214628
-0.158028 0.157997 -0.0371665
0.174671 0.183249 0.244931
-0.168606 0.183249 -0.0832168
0.078023 -6.558e-05 -0.371271
-0.123268 0.190119 -0.251617
-0.026271 0.19675 -0.365436
-0.078139 0.120838 -0.146258
0.140097 0.0596717 -0.146258
0.116523 0.19675 0.147895
-0.143888 0.0969412 -0.371271
-0.17551 0.145375 -0.387831
0.148766 -0.0205185 -0.371271
0.0721884 0.188797 -0.206178
0.169875 0.19675 0.350504
-0.0362804 0.179056 0.128692
0.159517 0.183249 0.387111
-0.0278658 0.174718 0.277788
-0.0663394 0.183249 0.0991358
0.188801 0.19675 0.156354
-0.167409 0.0509931 -0.366207
-0.137423 0.188342 -0.190532
-0.164497 -0.0755151 0.181888
0.167409 0.165363 0.0849144
0.15214 -0.0130745 -0.146258
-0.0139315 0.183871 -0.0368384
-0.157509 -0.0801495 -0.193573
-0.132918 0.0334054 -0.146258
0.167409 0.0906627 -0.232118
0.157509 0.153181 0.181973
-0.0400176 0.173732 0.311693
-0.170749 0.0883932 -0.200525
-0.157509 0.173461 -0.320278
-0.193969 0.185261 -0.0668421
-0.158333 0.183249 0.274414
-0.167409 0.000800085 -0.356139
0.0977461 0.183249 0.32693
-0.167409 -0.0880896 0.18667
0.0122431 0.183249 -0.136541
0.0326711 0.19675 -0.0592779
0.0512998 0.181188 -0.371271
-0.104674 -0.0586434 -0.371271
0.000629067 0.19675 -0.113419
-0.18302 0.184599 -0.347577
0.162008 0.127705 -0.146258
-0.0104234 0.193107 -0.354315
0.0736968 0.183249 -0.308496
-0.166364 -0.111517 -0.0186645
-0.170309 0.114791 0.371271
0.168354 0.0592703 0.371271
0.157356 0.193582 -0.370653
0.083968 0.19675 -0.0974903
0.108132 0.183249 -0.316601
-0.182061 0.19675 -0.387966
0.174153 0.19675 -0.15128
-0.0971809 0.19675 0.405588
-0.174564 0.19675 0.000938416
0.193969 0.194942 0.347216
0.0167691 -0.102878 0.39411
0.0972999 0.19675 0.125793
0.0412671 0.182434 0.0125611
0.0404725 0.19675 -0.415012
0.0702433 0.172705 0.347004
0.159678 0.147247 0.00632435
0.11939 0.183249 0.0259407
0.17266 -0.0123987 -0.398272
0.167409 -0.101871 -0.329895
0.141 0.174434 0.287564
0.167409 -0.0941303 -0.0521437
-0.136232 0.185847 -0.104756
-0.0629444 0.183249 -0.0415178
0.157509 -0.106117 0.134734
0.17551 -0.0742911 -0.390697
0.110893 -0.0164506 -0.146258
0.167409 0.140861 -0.312701
0.157509 -0.0798445 0.0228247
-0.0262524 0.183249 0.352864
0.135892 0.175641 0.246084
0.166113 -0.152923 0.398272
-0.157657 -0.0755151 0.00570907
-0.0564486 0.103763 -0.371271
-0.00357647 0.19675 0.361984
0.170438 0.102521 0.371271
0.108767 0.183249 0.154435
0.12444 0.183249 -0.273735
0.082322 0.183249 -0.217382
0.142356 0.183249 0.346506
0.167409 0.177915 -0.0965625
-0.0295383 0.183249 0.0111424
-0.079231 0.19675 0.0319536
-0.0226899 0.19675 0.0795767
0.157509 -0.161123 0.382294
-0.0490391 0.186621 -0.131368
0.0785743 0.19675 -0.240873
0.128807 -0.0710967 -0.371271
-0.151819 0.19675 -0.317594
-0.176637 0.19675 0.0976197
-0.00197368 0.177465 0.183367
-0.0842907 0.192407 -0.330247
0.190409 0.184599 0.238309
0.157509 -0.0823812 -0.150856
0.115787 0.183249 0.275683
0.00599292 0.183249 0.213647
-0.157509 0.167144 0.285719
0.068124 0.182907 -0.371271
-0.157509 -0.07837 0.0833781
-0.1297 0.176314 0.222941
0.0424726 0.171754 -0.371271
-0.0337242 0.183249 0.311639
-0.112587 0.19675 -0.306064
-0.160894 0.19675 0.262425
-0.146653 0.183249 0.396086
0.14082 0.19675 0.100416
0.00347142 0.184987 -0.0751858
0.157509 -0.102238 -0.353034
0.167409 -0.0164144 -0.210692
0.0909103 0.183249 -0.372354
0.0364651 0.19675 -0.211745
0.170357 -0.127896 -0.398272
-0.0592397 0.183249 0.315428
-0.0554357 0.183249 0.165983
-0.120578 0.0784073 -0.146258
-0.124081 0.19675 -0.0847262
0.0120321 0.183249 0.28394
0.138279 0.181898 0.0309783
-0.0826178 0.183249 0.22705
-0.167409 0.00570807 -0.223247
-0.18711 0.19675 -0.106322
0.140311 0.183249 0.293128
0.167409 0.165714 -0.261996
-0.0485811 0.180704 0.0720474
-0.119056 0.19675 -0.00429961
-0.167409 0.160183 -0.347491
-0.193969 0.192558 -0.269876
-0.159119 0.147247 0.326138
0.162577 0.183249 0.367906
-0.171909 0.0878504 -0.300792
-0.157509 -0.079186 -0.390322
0.167409 -0.0143629 -0.20059
-0.167409 -0.08372 -0.243642
-0.146115 -0.0769843 0.397793
-0.0639433 0.188621 -0.200126
-0.139388 0.19675 0.0265797
-0.017444 -0.10246 0.395924
-0.152892 0.174664 0.279658
-0.167409 0.113144 -0.29585
0.167409 -0.0914754 0.290785
-0.0637527 0.19675 -0.268569
-0.157509 0.174282 0.377607
-0.109439 0.183249 -0.335403
-0.0823956 0.183249 0.181375
-0.143768 0.183249 -0.15967
0.053658 0.19675 -0.31681
-0.0596477 0.0468353 -0.146258
-0.0108492 0.0250917 -0.393743
-0.100535 0.161326 -0.392819
0.137599 0.19675 0.394141
-0.157509 -0.0761052 -0.312286
0.0246344 0.19675 -0.149937
0.0978087 0.183249 0.276424
0.158527 -0.0755151 -0.289212
-0.157169 0.159469 -0.371271
0.157509 -0.0840018 0.224511
0.0768055 0.11383 -0.371271
-0.126972 0.19675 -0.282306
0.121165 0.183249 0.203401
-0.163346 0.147247 -0.0256269
0.159532 -0.111517 0.354083
0.104776 0.180439 0.0811504
-0.102427 0.19675 -0.183259
-0.127311 0.177542 0.180734
-0.0817458 0.183249 -0.291992
-0.142833 0.183249 -0.104476
-0.025685 0.172156 0.365874
0.168393 -0.0145925 0.398272
-0.0565549 0.19675 0.296358
0.0704447 0.0591121 -0.371271
-0.0735113 0.178955 0.132159
0.164116 0.19675 0.267297
0.167409 -0.0863131 0.0865065
-0.157509 -0.191107 0.388965
-0.0608074 0.19675 0.327619
-0.0559364 0.183249 -0.161374
0.157509 -0.111265 -0.369241
-0.157509 -0.102193 -0.218428
0.148995 -0.104562 -0.394957
-0.17551 0.0579329 -0.376917
0.0500057 -0.0740923 -0.146258
0.157509 0.161797 -0.18341
0.177919 0.19675 -0.187957
-0.0331313 0.183249 -0.100227
0.167409 0.179597 -0.306032
0.167409 0.0700357 -0.343479
0.0498709 0.183249 0.0234317
-0.0359872 0.19675 0.207796
-0.179939 0.19675 0.196165
0.00196699 0.0259651 0.393363
-0.0106364 0.183249 -0.0761197
-0.119873 0.183249 0.0698044
-0.157509 0.160234 0.0239768
0.157509 0.154231 0.109887
0.0139921 0.183249 0.0342868
-0.185228 0.19675 0.131798
-0.162649 -0.0785104 0.398272
-0.177658 0.184599 -0.117067
0.157509 0.180729 0.11527
0.0499994 0.183249 -0.0446248
-0.167409 0.110391 -0.317411
-0.17551 -0.134285 0.394609
0.172412 -0.19675 -0.376112
0.167409 0.165393 0.259535
-0.191601 0.184599 -0.119884
-0.132521 0.183249 -0.0362169
-0.0514802 0.19675 0.149369
-0.167409 -0.0793308 0.351931
0.0905881 0.183249 0.169226
-0.014427 0.173133 0.332296
0.0629307 0.183249 -0.0439701
0.140858 0.176304 0.223275
0.150056 0.19675 0.331299
-0.0951756 0.19675 -0.344599
-0.158323 -0.192502 -0.396281
0.0332832 0.19675 0.310893
-0.0499275 0.19675 0.19526
0.0143668 0.190173 -0.253455
-0.157509 0.176056 -0.0177643
-0.15548 0.19675 0.153023
0.159837 -0.138527 0.371271
0.105473 0.19675 0.251613
0.0555844 0.183249 0.120367
0.010225 0.188263 -0.187825
-0.158701 0.19675 -0.38001
0.118753 0.19675 0.00776786
-0.162445 0.183249 0.301543
-0.028017 0.182187 0.021044
-0.145984 0.185796 -0.103013
-0.167409 0.119186 -0.36627
0.00878312 0.19675 0.0831875
-0.157695 0.168211 -0.363332
-0.158389 0.19675 0.402628
-0.17551 -0.0563738 0.391151
0.0636149 0.183249 0.188955
-0.17551 0.0762516 0.395242
0.157509 -0.119398 0.375567
-0.192456 0.19675 -0.188758
-0.157509 -0.103717 0.383747
-0.167409 -0.0765704 -0.159349
-0.167409 -0.0842839 -0.357319
-0.0835688 0.183249 0.250519
-0.167409 0.0227004 -0.181813
0.167409 0.171323 -0.0684262
0.193969 0.189089 -0.401041
0.0867676 -0.0420917 -0.146258
-0.0937621 0.176284 0.223958
0.0363609 0.183249 -0.259325
-0.0765608 0.183249 -0.0579686
0.0284249 0.19675 -0.349804
0.0494408 0.183249 0.18273
-0.00114855 0.173552 0.317875
0.165404 -0.111517 -0.332011
0.157509 -0.0789553 -0.0197726
-0.126457 0.19675 -0.362718
0.0385514 0.19675 0.303427
-0.11834 -0.0348586 -0.371271
0.140138 0.056693 -0.146258
-0.167409 -0.082461 0.0202494
-0.0374632 0.183249 0.331233
-0.00512565 0.000625106 -0.371271
-0.141895 0.19675 -0.0635494
-0.0654602 0.183249 0.104106
0.0766963 0.184599 0.407299
-0.157509 0.168087 0.179554
-0.136007 0.187935 -0.176525
0.0260637 -0.102865 -0.394145
-0.184231 0.19675 -0.312378
0.0884503 0.19675 -0.355374
-0.105116 0.183249 -0.124054
-0.166118 0.148673 -0.323479
-0.166582 -0.0755151 0.133822
-0.159764 -0.111517 0.258767
-0.17551 -0.0647588 -0.378224
-0.171054 -0.0294313 -0.254557
0.0340465 0.172854 0.34187
-0.105624 0.162272 -0.371271
-0.174396 0.19675 0.13304
-0.0623939 0.118194 -0.146258
0.182526 0.19675 0.185908
0.150304 -0.00760542 -0.371271
0.0660841 0.183249 -0.394823
0.128086 0.19675 0.0816332
0.172335 -0.0256134 -0.371271
-0.151892 0.183249 0.0243331
-0.121688 0.00940729 -0.371271
-0.193969 0.194213 -0.293995
0.146799 -0.0372171 -0.146258
-0.0504758 0.188428 -0.193476
0.0674647 0.181892 0.0311948
0.0674982 0.183249 0.0803244
-0.0214732 0.183249 0.154779
0.167409 -0.101527 -0.101938
0.0917523 0.184599 0.407913
0.0515817 0.0624969 -0.371271
-0.0831751 0.182974 -0.0060108
-0.166024 -0.0233167 -0.398272
0.137522 0.186814 -0.137989
-0.0146529 0.183249 0.0887707
-0.0052036 0.173105 0.333252
-0.0524333 0.19675 -0.0377228
-0.159327 0.151644 -0.371271
0.0632975 0.19675 -0.219131
-0.0857009 0.173728 0.311835
-0.0122869 0.19675 0.240065
-0.157509 0.182237 -0.0727112
-0.134489 0.19675 0.279825
-0.154994 0.183249 0.0999035
-0.141589 0.19675 0.205489
0.0193776 -0.0600556 -0.146258
-0.117377 0.104848 -0.371271
0.169364 0.19675 0.142927
-0.169622 -0.0755151 0.151779
-0.155461 0.179342 -0.371271
0.157509 0.179044 -0.346273
-0.0481769 0.190681 -0.270926
-0.162051 0.102539 0.398272
0.12316 0.19675 0.00134856
0.0484877 0.19675 0.115997
0.0600082 0.183249 0.362267
-0.0817 0.19675 0.24952
-0.157509 -0.102778 -0.316115
-0.0592952 0.180481 0.0797133
-0.172032 0.19675 -0.37431
0.0698094 0.185843 -0.104607
-0.0803051 0.183249 -0.289013
0.00655869 -0.0414006 -0.146258
0.167409 0.156632 -0.286362
0.13131 0.17776 0.173248
-0.167409 -0.109035 -0.19122
0.167409 0.0601818 -0.272426
0.166562 -0.116492 -0.398272
-0.0179374 0.111416 -0.146258
0.0996335 0.183249 -0.038906
0.167409 0.109549 -0.149562
0.157509 0.166776 -0.05187
-0.0697409 0.173698 0.312882
-0.0320301 0.183249 0.219858
-0.167409 0.154918 0.360479
0.0221865 0.183249 -0.00986113
0.0145286 0.19675 0.268631
-0.152011 0.189178 -0.219259
-0.0713094 0.19675 0.390732
0.167409 -0.054791 -0.243602
-0.167409 0.0105287 -0.348283
0.0633867 0.176877 0.203586
-0.181282 0.19675 -0.0627928
-0.084428 0.181756 0.0358837
0.0563514 0.183249 0.27602
-0.107855 0.110674 -0.146258
0.144582 0.181731 0.0367347
0.154857 0.178592 0.144641
0.17551 0.0121583 -0.397177
-0.0978626 0.183249 0.187984
-0.00647049 0.175989 0.234104
-0.157509 -0.111253 -0.0321277
-0.0155606 0.111026 -0.371271
0.157509 -0.104207 0.249471
-0.0911665 0.19675 -0.267745
0.167409 0.116579 -0.215123
-0.127286 0.183249 0.100512
0.184804 0.184599 -0.00390211
-0.109425 0.19675 0.283637
0.0754431 0.19675 -0.243356
0.132399 0.183249 -0.134121
-0.167409 -0.101976 -0.176749
0.157509 0.116124 -0.373552
-0.181998 0.184599 -0.112235
0.163692 -0.0157328 -0.371271
-0.0152883 0.19675 -0.258883
0.109789 0.190824 -0.275852
0.157509 -0.0870901 -0.25888
0.167409 -0.110895 0.000406384
0.112919 0.185964 -0.108785
0.0232623 0.183249 -0.293647
-0.167409 0.128171 -0.284694
-0.0264291 0.19675 -0.246481
-0.0970962 0.183249 -0.181401
-0.036728 0.183249 -0.065636
0.0260382 0.186647 0.416732
0.0825914 0.187799 -0.171849
0.192432 0.184599 0.0106991
-0.167409 0.164801 -0.290232
-0.0813481 0.183249 -0.313838
0.112883 0.19675 -0.234461
0.0511381 0.180527 0.0781106
-0.159632 0.183249 -0.204286
-0.157984 -0.185658 -0.398272
-0.132723 -0.068152 0.394785
0.105507 0.183249 0.254442
-0.193969 0.190071 -0.259448
-0.0396097 0.072051 -0.371271
0.189497 0.19675 0.0932634
0.0534553 0.19675 -0.156701
-0.160849 0.183249 -0.303655
-0.11129 0.183249 -0.370193
-0.136053 0.183249 0.365157
-0.135603 0.161506 0.399032
0.167068 -0.0194663 -0.398272
-0.157509 -0.0766191 -0.072897
-0.077246 0.19675 -0.333032
-0.0527285 -0.0445739 -0.371271
0.157509 0.172029 -0.143725
-0.0885763 0.183249 0.298693
0.130516 0.18968 -0.23651
0.100443 0.0250538 -0.146258
-0.157509 -0.0959339 0.0532209
0.157509 0.182996 -0.381334
0.0976014 0.177423 0.184821
0.134177 0.189305 -0.223615
0.167409 -0.0318556 -0.335673
0.0240313 0.175125 0.263822
0.132398 0.183249 0.339344
0.157509 -0.0826405 0.248494
0.0933713 0.190369 -0.260204
-0.162131 0.149263 -0.0447171
0.0413541 0.19675 0.353943
0.167409 0.158146 0.36927
-0.0331493 0.184445 -0.0565497
0.0714768 0.183249 0.329046
0.157509 -0.0905193 -0.00531038
-0.157509 -0.0758343 -0.273216
0.157509 0.0541467 -0.384397
-0.0855871 0.191332 -0.293305
0.158324 0.183249 0.0915044
0.12516 0.19675 -0.300258
-0.167409 0.183248 -0.243507
0.157509 0.127149 -0.383714
-0.078964 0.183249 -0.183098
0.0546674 0.183249 0.174131
0.00793964 0.18615 -0.115171
0.156683 0.19675 -0.259453
-0.0799955 0.19675 -0.348405
0.157509 -0.0130016 -0.396454
0.188106 0.19675 -0.408222
-0.171788 0.0819787 -0.281658
-0.183177 0.19675 -0.173837
-0.137964 0.19675 -0.126849
0.167409 0.0125093 -0.191257
0.165337 0.19675 -0.0159691
0.104099 0.124076 -0.371271
-0.0834877 0.19675 0.0569255
-0.157509 -0.0415456 0.380802
0.153617 0.19675 0.157093
0.116536 0.18238 0.0144134
0.143186 0.180372 0.0834359
0.067694 0.188803 -0.371271
-0.0132701 0.124887 -0.146258
-0.0824124 0.183249 0.260069
0.124191 0.176719 0.209033
-0.132983 0.0615733 -0.146258
0.0654266 0.0977925 -0.146258
-0.0500515 0.19675 0.40934
0.157509 0.176012 0.314207
-0.0651535 0.19675 -0.218341
-0.13499 0.130712 -0.146258
0.101647 0.102421 -0.371271
-0.00790735 0.19675 -0.390286
0.130529 0.183249 0.221128
0.180336 0.19675 0.0746052
-0.167409 0.15557 -0.192066
0.0632574 0.19675 -0.0596399
0.0850499 0.183249 -0.194092
-0.0542524 0.162165 -0.392255
-0.189784 0.19675 0.238901
-0.16032 -0.0287297 -0.146258
-0.125535 0.19675 -0.102744
-0.145141 0.183249 -0.136227
-0.0693992 -0.0150155 -0.394479
-0.157509 -0.0761411 -0.316741
0.167409 -0.109134 -0.0185823
-0.157509 -0.106942 0.389598
0.127732 0.19675 0.00539748
-0.17551 0.0551395 -0.37513
-0.120018 0.183249 -0.219518
-0.0618753 0.183249 0.00769468
-0.0938318 0.183249 -0.106652
-0.172346 0.0647854 -0.371271
0.0808065 0.00681835 -0.146258
-0.185501 0.184599 -0.332416
-0.10115 0.19675 0.0892149
-0.11437 0.183249 -0.279198
-0.174696 -0.192688 -0.373851
0.111689 0.183249 0.0810731
-0.167409 0.0466934 -0.216488
0.108373 0.188513 -0.196419
0.155972 -0.028979 -0.371271
0.00612314 0.179087 0.127619
0.165916 -0.147746 0.398272
-0.0397603 0.19675 0.373144
-0.160409 0.150826 0.0307803
0.157509 0.155731 0.0317011
-0.167409 0.155291 -0.20722
-0.169886 0.0883932 -0.288632
-0.171223 -0.149283 -0.371271
-0.0852977 -0.109778 0.393531
0.164756 -0.089719 0.371271
-0.17551 -0.13312 0.386733
0.147813 0.127839 -0.393542
0.157509 0.152969 0.0551778
-0.157509 -0.11139 -0.216813
-0.10265 0.19675 0.322161
-0.0109506 0.19675 0.125091
0.102541 0.19675 0.0722513
0.157509 0.15756 0.067529
-0.157426 0.183249 0.310367
0.164377 0.103522 -0.398272
-0.167409 0.148603 -0.239289
-0.116851 0.0643643 -0.146258
-0.147442 0.129414 -0.371271
-0.157509 -0.110328 -0.278388
0.158605 -0.116595 0.371271
0.0429557 0.180463 0.0803137
-0.157509 -0.0889872 -0.0179567
0.17551 -0.13285 0.380515
0.116517 0.191085 0.416732
-0.00164085 0.19675 -0.0127501
-0.167962 -0.104117 0.398272
0.0649635 0.19675 0.0718377
0.17551 -0.0103548 0.376209
0.112604 0.183249 0.241726
0.0639629 0.19675 0.00845682
0.157509 -0.0936242 -0.379844
0.01214 0.183249 -0.0376471
0.077385 0.183249 -0.106762
0.167409 0.149197 -0.234503
-0.175702 0.184599 0.101204
0.0480618 0.19675 0.290062
0.167409 -0.0794776 0.0736953
-0.164311 0.19675 0.348158
-0.00360242 0.18533 -0.0869991
0.148786 0.19675 -0.141632
0.066424 -0.0690012 -0.371271
-0.0608464 0.0794623 -0.146258
0.157509 -0.0830555 -0.0640742
0.0281251 0.183249 -0.221826
0.157509 0.169102 0.166654
-0.117108 0.183249 -0.271041
-0.157509 -0.0841138 0.368502
-0.0966778 0.193196 -0.357369
-0.161151 0.0952749 0.371271
0.17551 0.101843 0.377322
-0.167409 -0.103477 0.0574678
0.167426 -0.00940358 -0.371271
-0.113701 0.183249 0.135363
0.147112 0.173309 0.32625
0.0299058 0.183249 -0.245565
0.056903 0.19675 -0.122515
0.145676 0.188682 -0.202199
0.134862 0.17623 0.225812
0.0732227 0.177564 0.179968
-0.193969 0.188387 0.272357
0.1075 0.19675 -0.332539
-0.0359049 0.188122 -0.182976
0.17551 -0.175899 0.396837
-0.167409 0.0944798 -0.317977
0.0514075 0.183249 0.17939
0.0424132 0.19675 0.0264083
-0.171909 -0.028832 -0.273089
0.161281 -0.111517 -0.131453
-0.0953264 0.19675 0.159575
-0.178953 0.184599 0.396533
-0.158678 -0.0755151 0.0861917
-0.052646 0.183249 0.330909
0.193969 0.192071 0.216855
0.137137 0.183249 -0.145788
0.163589 0.112723 0.371271
0.158266 0.0030296 0.398272
-0.0102465 0.183249 -0.342074
-0.10477 0.19675 -0.16142
0.00826573 0.184599 -0.410116
0.0395546 0.183249 0.32416
-0.104492 0.183249 -0.260799
0.0782673 0.189904 -0.244219
-0.0503538 0.183249 0.303989
0.0283943 0.19675 -0.140202
0.0105861 0.183249 0.235038
0.172218 0.159719 0.398272
0.0528789 0.183249 -0.124291
-0.151397 0.0938 -0.146258
0.128828 0.0311582 -0.146258
0.126626 0.19675 0.0631333
-0.164678 -0.167196 -0.371271
0.174625 -0.0803514 0.371271
0.169896 0.19675 -0.354278
0.167409 0.157974 -0.349646
0.0951621 0.0690583 -0.146258
0.0509748 0.183249 -0.379806
-0.0134163 0.19675 -0.332396
0.0418938 0.190085 -0.250434
0.167409 -0.0642762 -0.255943
-0.00714673 0.142217 -0.371271
0.107126 0.183249 0.241368
-0.167409 -0.0917275 -0.0785943
-0.167409 0.0217252 -0.262416
-0.0370056 -0.0724702 -0.371271
-0.171909 0.141753 -0.341899
-0.0669063 -0.0186161 0.391887
0.157509 0.16565 0.369679
0.108508 0.183249 0.00978827
0.167409 -0.0724199 -0.220499
-0.0258661 0.186921 -0.14167
0.16118 0.159963 -0.328786
-0.140097 0.184599 0.400364
0.14608 0.192204 -0.323277
0.0291591 0.19675 -0.188899
-0.160046 -0.111517 -0.147043
-0.0279722 0.025113 -0.146258
0.0482231 0.0910595 -0.371271
0.125023 0.134762 -0.371271
0.0387714 0.172078 0.368561
0.0996599 0.177706 0.175092
0.150494 0.114945 -0.371271
0.172761 0.19675 -0.254208
-0.117455 0.183249 0.0346878
-0.163666 0.183249 -0.0530621
-0.16299 -0.153724 -0.398272
-0.107673 0.19675 -0.371041
-0.147361 0.19675 0.378037
0.167409 -0.0563238 -0.191964
-0.0831439 0.186471 -0.126223
0.0443242 0.177691 0.175593
0.167409 -0.0326153 -0.230766
0.167409 0.0533138 -0.303769
-0.167409 0.176421 0.299668
0.189813 0.184599 0.0490709
0.127779 -0.0152487 -0.371271
-0.158153 0.147365 0.318916
0.167409 -0.110209 -0.0191669
-0.157509 -0.106885 0.211814
0.157509 0.149415 0.214172
0.0407163 0.19675 -0.221267
0.0522073 0.184599 0.413507
-0.0738972 -0.0341152 -0.146258
0.187544 0.184599 0.131547
-0.00217115 0.19675 0.105964
-0.17551 0.017224 0.3865
0.174057 -0.19225 0.396167
0.157509 0.175968 0.308694
-0.157509 -0.0815295 -0.316527
0.0156094 0.19675 -0.340203
0.15935 0.147247 0.211765
-0.152439 0.19675 -0.274441
-0.167409 0.0370761 -0.204974
-0.0589436 0.0592127 -0.371271
0.134727 0.164434 -0.371271
0.167409 0.0527581 -0.199665
0.0306817 0.0478047 -0.146258
-0.157509 -0.109332 -0.227868
0.0320039 0.19675 0.165936
0.17551 -0.173592 0.380759
0.00263387 -0.0319124 -0.146258
0.175099 -0.0808999 -0.398272
-0.135346 0.19675 -0.276724
-0.0210221 0.190965 -0.280691
0.171111 0.183249 -0.118344
-0.162055 0.157628 -0.326561
0.157509 0.170525 -0.0969384
-0.155664 0.189348 -0.225111
-0.167409 0.102283 -0.195372
0.0510674 0.183249 -0.182708
-0.114179 0.186205 -0.117081
0.0139841 0.0422955 0.397948
-0.0264909 0.183249 0.190181
0.167409 0.147076 -0.254926
-0.157509 -0.103882 0.0173273
-0.177847 0.19675 -0.325119
-0.158954 0.19675 -0.265495
-0.176155 0.19675 0.0801126
-0.158158 0.19675 0.396535
-0.146348 0.0685152 -0.146258
0.0928912 0.189277 -0.222673
-0.160564 0.183249 -0.27885
0.0869405 0.180889 0.0656707
-0.161688 0.15966 -0.368893
-0.174767 -0.0755151 -0.131008
-0.125023 0.19675 0.00951132
-0.0178238 -0.0434929 -0.371271
0.0967895 0.186789 -0.13713
-0.162094 -0.107133 0.398272
0.0984277 0.181321 0.0508156
0.0782876 0.183249 -0.227749
-0.172372 0.19675 0.0573474
0.0517939 0.19675 0.0709352
-0.110994 0.183249 -0.00931108
-0.0877327 0.183249 -0.338336
0.167409 -0.0758182 0.366127
0.0440683 0.19675 -0.179678
-0.109464 0.184064 -0.0434558
0.106687 0.19675 0.300069
0.164891 0.0118275 0.371271
0.0902781 0.189724 -0.23802
-0.160505 0.158678 -0.246359
0.167409 0.0436351 -0.333405
-0.0773511 0.19675 -0.100875
0.0554297 0.0646111 -0.371271
-0.165922 -0.19675 -0.382185
-0.167409 0.13553 -0.326578
0.167409 -0.032239 -0.204272
0.0820852 0.170464 -0.371271
0.0170512 0.0399207 0.391839
-0.157936 -0.111517 0.204132
0.114198 0.19675 -0.301391
0.0795363 0.183128 -0.0112903
-0.140639 0.183249 -0.0484253
-0.0863949 0.173435 0.321893
-0.13488 -0.0106025 -0.146258
-0.0512096 0.183249 -0.324202
0.167409 -0.0667016 -0.167945
0.167759 0.0394598 -0.398272
0.0912703 0.19675 -0.337903
0.0246865 0.0282663 -0.146258
0.147711 0.18457 -0.0608593
-0.168599 -0.0755151 -0.112591
-0.0110857 0.183249 0.0202135
0.0943264 0.19675 0.0720596
0.0164422 0.190605 -0.268312
0.167409 0.0339808 -0.219104
0.0715323 0.182087 0.0245037
0.157509 0.16973 0.130283
0.157509 -0.0912146 -0.228764
-0.0568868 0.168009 -0.395896
-0.111175 0.184599 0.410996
-0.139782 0.19675 -0.330768
0.0430138 0.183249 0.184587
0.0501358 0.12275 -0.146258
-0.157843 -0.0748575 -0.371271
-0.124879 0.176785 0.206759
-0.184478 0.184599 -0.0421411
0.0495138 0.0380386 -0.146258
-0.157509 0.172554 -0.215315
0.17551 0.010647 -0.37543
-0.167409 0.149384 -0.0709556
0.168408 0.146056 0.371271
0.180991 0.184599 0.0821486
-0.000988513 0.177068 0.371271
-0.167409 0.100841 -0.309942
-0.104132 0.178045 0.16345
0.157509 -0.10989 -0.186184
0.129556 0.182363 0.0150073
-0.136518 0.183249 0.384136
0.167409 0.0341483 -0.154164
0.130952 0.183249 -0.203372
0.131276 0.17888 0.134726
0.167409 0.0799248 -0.197655
-0.0513913 0.19675 -0.19562
-0.113556 0.19675 -0.35367
-0.0963631 0.183249 0.158056
-0.0543842 0.19675 -0.131097
-0.150197 0.19675 -0.214318
0.0669074 0.183249 0.107517
0.17551 -0.0350668 0.393802
-0.0788598 0.179108 0.126902
-0.0753385 0.183249 0.271813
0.18573 0.184599 0.403472
0.167409 0.0904707 -0.296175
0.0656878 0.0777122 -0.393376
-0.131352 0.183249 0.384746
-0.151402 0.19675 -0.383526
0.167409 -0.0857895 -0.368646
0.13957 0.19675 0.329282
-0.0272583 0.1787 0.140937
0.157509 0.140169 0.377776
-0.0800013 0.19675 -0.173961
-0.110827 0.183249 0.102196
-0.0608751 0.183249 -0.321871
0.157509 0.0265676 -0.391735
-0.16989 -0.0755151 0.0515352
0.035495 0.183249 0.16672
0.167409 -0.107795 -0.201111
0.0974459 0.0330346 -0.146258
0.172794 0.177998 -0.398272
-0.0805673 0.189057 -0.215117
-0.014467 0.186209 -0.1172
-0.0546644 0.183249 0.128173
0.0211215 0.179322 0.119548
0.157509 -0.100717 0.0795803
-0.162006 -0.196349 -0.372085
0.0558139 0.19675 -0.210149
-0.17551 0.135278 0.385807
-0.0813025 0.19675 -0.0635568
0.172758 -0.0474536 -0.371271
-0.00809497 -0.0092753 -0.146258
0.157509 -0.169675 0.392841
-0.17382 0.183249 0.275572
-0.163328 -0.026695 0.398272
0.134065 0.179946 0.0980853
-0.127792 0.18621 -0.117228
0.167409 0.157115 -0.314215
-0.0924724 0.0142297 -0.371271
0.158211 0.19675 -0.179625
0.00439058 0.192096 -0.319573
-0.14975 0.183249 0.247073
0.132236 0.0845051 -0.146258
-0.157509 -0.0849404 0.162718
-0.0518567 0.182889 -0.00308993
-0.11118 0.183249 0.135672
0.178582 0.19675 -0.0994646
0.0803681 0.183249 -0.345984
-0.0751107 0.191353 -0.294013
-0.17551 0.00720822 -0.373867
-0.17551 0.170916 0.389334
0.101291 0.000713983 -0.371271
-0.0479532 0.179875 0.100545
-0.167409 0.148778 -0.352267
0.0609987 0.183249 -0.039962
0.108196 0.177064 0.197165
0.167409 0.122178 -0.282517
-0.11534 0.178736 0.139671
0.167409 0.176321 -0.0824298
0.120337 -0.0336292 -0.371271
-0.0891097 -0.110109 -0.394073
-0.0995236 0.19675 -0.0692179
0.157509 -0.151008 -0.394414
-0.154297 0.183249 0.251708
-0.130722 0.186849 -0.139217
0.0964173 0.183249 -0.147975
-0.0124116 0.184233 -0.0492695
0.0526537 0.176708 0.209391
-0.167122 0.19675 0.0936239
-0.00674471 0.0513582 -0.146258
-0.159732 -0.0755151 -0.25265
0.167409 0.0473181 -0.156602
0.193969 0.189602 -0.00762612
0.159248 0.19675 0.216741
0.189612 0.19675 0.0491107
-0.167409 0.130678 -0.326719
0.165222 0.0457959 -0.398272
-0.122644 0.0169796 -0.371271
0.157509 -0.0781956 0.255654
0.167409 0.0828335 -0.326764
0.134809 0.183249 0.130547
0.129738 0.174539 0.283964
-0.165436 0.147247 0.0564216
-0.162379 0.183249 0.0210192
-0.0399338 -0.0701048 -0.371271
-0.157509 -0.1883 0.383255
-0.167409 0.001446 -0.255791
0.00910262 0.187741 -0.169867
0.161423 -0.111517 0.166998
-0.00368295 0.183249 -0.0119556
-0.159947 -0.0755151 0.237963
0.00940661 0.182403 0.0136412
0.157509 0.167196 -0.133683
-0.179578 0.19675 0.269327
0.00114377 0.19675 0.193941
-0.17551 -0.0567146 0.391097
0.139738 0.174187 0.296044
-0.185556 0.19675 0.267792
0.167409 -0.0867439 -0.200949
-0.111537 0.183249 0.021567
0.141899 0.183249 0.278648
0.17551 0.0170454 0.372239
-0.0636592 -0.0204298 0.395165
0.110478 0.177743 0.173819
0.0162542 0.0888801 -0.371271
-0.137251 -0.108091 0.392168
-0.161964 -0.111517 0.226289
0.104728 0.19675 -0.340101
-0.0494243 -0.110515 0.395579
0.100714 0.185804 -0.103297
0.0763152 0.19675 0.0290274
-0.0687124 0.19675 -0.323963
0.0231299 0.183249 0.300272
0.0660912 0.187633 -0.166143
0.180171 0.19675 -0.0567058
-0.170677 0.19675 -0.0948884
0.157509 -0.0981272 -0.0497259
-0.123384 -0.0600264 0.392737
-0.0840742 0.19675 0.115469
-0.17551 0.00714107 -0.398063
-0.0455966 0.183249 0.385592
-0.0488566 0.187075 -0.146976
0.131191 0.183249 -0.080647
0.159942 -0.111517 -0.0654864
-0.0868748 0.17896 0.131975
-0.157509 0.162192 -0.0218603
0.178892 0.184599 -0.312388
-0.157509 0.00467159 -0.388907
0.0567725 0.19675 -0.012987
-0.167409 -0.0325483 -0.277843
-0.167308 0.147247 0.0506725
0.000858033 0.19675 -0.358985
0.182848 0.19675 -0.0219611
0.0481442 -0.105764 0.391903
0.17551 0.0853172 0.385923
-0.149523 0.167188 0.394956
0.157509 0.159186 0.342284
0.153939 0.183249 0.211829
-0.167409 -0.0763796 0.061825
0.175953 0.19675 -0.411862
-0.17551 0.155877 0.390801
-0.157509 -0.108 -0.335537
0.0860565 0.19675 -0.414472
0.165241 0.183249 -0.332053
0.189741 0.19675 0.125579
-0.167409 -0.0563116 -0.363104
0.0459114 0.183249 0.283304
0.193969 0.190164 -0.221549
0.0649123 0.19675 0.165783
-0.160616 0.154116 -0.0978977
0.0839651 0.191898 -0.312769
-0.170839 -0.130354 0.398272
0.167409 0.178589 -0.272369
0.0850797 0.183249 -0.275118
-0.0222328 0.183249 0.00115865
-0.151222 0.183249 0.0736815
0.0643471 0.183249 -0.247616
0.155576 -0.0475758 -0.146258
0.165543 -0.111517 -0.0776369
-0.0732011 0.183249 0.0252568
-0.167966 -0.0755151 -0.0252446
-0.0175628 0.19675 -0.286611
-0.00439216 0.19675 -0.30249
0.175762 0.184599 0.0713289
0.116579 0.183249 -0.148973
-0.126997 0.183249 0.278236
0.0149523 0.145374 -0.146258
0.166919 0.19675 -0.366612
-0.167409 0.0761228 -0.227268
-0.182372 0.19675 0.180846
-0.151287 0.173343 0.325077
0.157856 0.153686 -0.213335
0.0678995 0.183249 -0.141024
-0.059581 0.19675 -0.19908
0.103269 0.19675 -0.329945
0.0621056 0.159928 -0.395974
0.034379 0.19675 0.125174
-0.0139851 0.19675 0.183579
-0.0675576 0.19675 0.363131
0.0491481 0.174844 0.273481
-0.0231405 0.183249 0.350441
0.167577 0.183249 -0.320045
0.133911 0.19675 -0.343915
0.16493 0.19675 -0.304716
0.167409 5.79096e-05 -0.165402
-0.14191 0.0988341 -0.371271
-0.062893 -0.0453573 -0.371271
0.192056 0.184599 -0.245983
0.157509 -0.127787 0.379922
0.0274829 0.18466 -0.063963
0.0716555 -0.0414624 -0.146258
0.157509 -0.0933447 0.277404
-0.125931 0.098753 -0.146258
0.0608225 0.183249 -0.00641158
0.167409 0.165386 -0.180394
0.157509 -0.0988872 0.238868
-0.0159433 0.173837 0.308095
-0.109343 0.183249 -0.182772
0.139302 0.19675 -0.0723681
0.135886 0.173431 0.322034
-0.100571 0.19675 -0.300258
0.104172 0.18948 -0.229651
0.166845 0.19675 -0.141744
-0.157509 -0.10072 -0.293029
0.140834 0.183249 0.342385
0.167409 -0.0907956 -0.143921
0.176437 0.184599 -0.261827
-0.0738125 0.187985 -0.17824
0.132367 0.19675 0.316004
0.161082 -0.0755151 0.328664
0.157509 -0.0879853 0.303634
0.157509 -0.0978712 0.194913
-0.167409 0.172478 0.200694
-0.00589556 0.183249 0.375679
0.091508 0.183789 -0.0340127
0.157509 0.171484 0.200934
-0.167409 -0.0505959 -0.285988
0.167409 0.0161789 -0.327729
-0.0476106 0.0399226 -0.371271
-0.0959048 0.19675 0.300757
-0.167409 -0.0315172 -0.200473
0.109246 0.0051491 -0.146258
0.011809 0.184599 -0.409856
0.157509 0.147571 -0.135206
0.187678 0.184599 -0.161161
0.0075352 0.183249 -0.305405
-0.0906058 0.19675 0.030801
0.164481 0.173632 -0.371271
-0.159852 0.147835 0.17536
0.0352679 0.183249 -0.0745579
0.0988973 0.19675 0.269022
-0.190775 0.19675 -0.0167895
0.0871132 -0.0100196 -0.146258
0.17551 -0.189304 0.397028
0.00637621 0.19269 -0.339983
-0.157509 -0.0814411 -0.0417868
0.17551 -0.0610937 -0.39076
0.0786114 0.183249 0.297239
-0.0863761 0.183249 -0.0336917
0.125384 0.0453075 -0.146258
-0.0803741 0.065243 -0.146258
0.0880213 0.183249 -0.375096
0.186392 0.184599 0.259703
-0.124452 0.183249 0.267859
0.157509 -0.095362 -0.132154
-0.110956 0.0907655 -0.371271
-0.167409 0.0773273 -0.217844
0.177909 0.19675 0.236081
0.167409 0.0513362 -0.154047
0.167409 0.123687 -0.238558
-0.157509 0.179426 -0.286752
0.167409 0.0436712 -0.233096
-0.157509 -0.0854506 0.0683739
-0.167409 0.128 -0.325451
-0.0636848 0.19675 0.0668027
0.160999 -0.0755151 -0.010135
-0.167409 0.179333 0.0282849
-0.106412 0.18454 -0.0598463
0.0999581 0.183768 -0.0332769
-0.157509 -0.0215306 -0.376742
-0.00955684 0.176225 0.371271
-0.146375 0.19675 0.108093
-0.178133 0.184599 -0.0626406
-0.136755 0.183249 -0.192429
0.157509 0.167173 0.221063
0.157509 -0.0986844 -0.3448
0.163769 0.153182 -0.323057
0.0537756 0.140215 -0.146258
-0.00184689 0.183249 0.203845
-0.0125025 0.19675 -0.095226
0.0808793 0.183249 0.395118
0.15945 -0.120213 0.371271
0.0575271 0.19675 0.227049
-0.157509 -0.0933582 0.0115583
-0.0441189 0.185369 -0.0883118
-0.157509 -0.0816842 0.291105
0.169412 -0.113955 -0.371271
0.167409 0.00230259 -0.163871
-0.033567 0.183532 -0.0251799
-0.0950245 0.19675 -0.0386295
0.0838534 0.183249 0.379705
0.167409 0.123798 -0.238264
0.033297 0.172848 0.34208
-0.048307 -0.0740141 -0.146258
-0.167409 0.124409 -0.261857
-0.100684 0.172611 0.350247
0.0174021 0.183249 0.151823
-0.111427 0.0411227 -0.146258
-0.165309 0.00489405 -0.371271
-0.122587 0.102762 -0.371271
-0.180607 0.184599 0.029489
-0.161585 -0.134372 -0.371271
0.167409 0.134881 -0.180218
0.158159 -0.111517 -0.199824
0.157509 -0.104916 0.0400296
-0.192031 0.184599 0.367564
-0.154239 0.183249 0.0819774
-0.0554048 0.182207 0.0203645
0.0294527 0.183249 0.289545
0.107178 0.182374 0.0146182
-0.0309253 0.19675 0.22049
0.0827179 0.0203761 -0.146258
0.190116 0.190252 0.416732
0.0358408 0.0568978 0.393202
-0.0911709 0.183249 -0.140505
-0.0810967 0.183249 0.0601725
0.119866 0.144715 -0.371271
0.0152522 0.174825 0.27412
0.193969 0.193383 0.301407
0.157509 0.181373 0.155487
0.013215 0.189614 -0.234241
-0.0784892 0.172194 0.364563
0.134786 0.183249 0.22856
0.164398 -0.0514403 -0.371271
0.143289 0.183249 -0.229324
0.157509 0.17942 0.220491
0.0930706 0.183249 0.242163
0.0767834 0.176397 0.220097
0.157509 -0.190156 0.371462
-0.0635864 -0.11007 -0.397734
0.160712 0.0294195 -0.398272
-0.157509 -0.102836 0.384511
-0.0942164 0.081691 -0.371271
0.0842166 0.18218 0.371271
-0.169912 -0.0846554 0.371271
-0.0873338 0.191336 -0.29343
0.157509 -0.10143 -0.147959
-0.167409 0.178637 0.129959
-0.0172209 -0.0447627 -0.146258
0.167409 0.134922 -0.225147
-0.0521391 0.163179 -0.371271
0.192989 0.19675 0.228223
0.167409 0.152743 -0.231116
-0.157509 0.155095 0.279266
0.0101639 0.19675 0.325198
0.167409 0.00643495 -0.261517
0.091847 0.183249 -0.108107
-0.0576015 0.19675 0.384149
-0.165562 0.149463 -0.308888
-0.164498 -0.111517 0.154908
-0.163571 0.147247 0.325694
-0.157509 -0.0928152 0.334877
-0.00455245 0.142287 -0.146258
0.167409 -0.084363 0.228486
0.145984 0.19675 -0.209339
-0.0674867 0.189076 -0.21574
0.0328333 0.183249 -0.205519
-0.160284 0.183249 -0.102727
-0.157509 0.184435 -0.103709
0.0492933 0.183249 -0.309459
0.0271937 -0.103881 -0.392805
-0.184228 0.19675 0.375355
-0.0219082 0.190055 -0.249395
0.133137 0.183249 -0.0349659
0.0690214 0.182743 0.0019347
-0.0297733 0.183249 -0.261908
0.17551 0.0540383 -0.373004
-0.17551 -0.10575 0.392322
-0.144139 0.183249 0.339212
-0.117398 0.19675 -0.397546
0.104605 0.183249 -0.260781
0.162422 0.0735699 0.371271
0.167409 0.0899964 -0.318355
0.176187 0.19675 -0.404366
0.157509 0.108223 0.396413
0.145694 0.105805 -0.146258
0.167409 -0.08636 0.0937875
0.0984739 0.190938 -0.279761
0.15804 0.183249 -0.193878
0.12609 0.183249 0.161276
-0.113377 0.19675 -0.0100829
-0.131414 0.183249 -0.00511138
0.0884728 0.189863 -0.242818
-0.0920195 0.19675 0.0444214
0.171532 0.19675 -0.126311
-0.0445667 0.175725 0.243192
0.0911601 0.187494 -0.161386
0.157509 -0.0945142 -0.37638
-0.0496459 0.0862665 -0.371271
-0.167409 0.172935 0.223431
-0.0667527 0.19675 -0.349243
-0.0439503 0.0740893 -0.146258
-0.0623274 0.172977 0.337648
-0.149136 0.19675 0.310675
0.157509 -0.111487 0.170825
0.069104 0.180154 0.0909517
0.0614622 -0.108105 -0.392174
0.0422139 0.185584 -0.0957258
-0.0969222 0.19675 -0.406773
0.0610508 0.177924 0.167599
0.0539145 0.17588 0.23786
-0.0826725 0.0676031 -0.371271
-0.0485281 0.193842 -0.416732
-0.157509 -0.0782481 0.0289407
0.11206 0.0907777 -0.371271
0.027358 0.0239911 -0.371271
-0.167409 0.17541 0.365082
-0.0427843 0.0931731 -0.371271
-0.03761 0.19675 -0.19314
0.188894 0.19675 0.034464
-0.0920962 0.19675 0.0932849
0.0167566 0.183249 0.213554
-0.101131 0.19675 -0.246941
-0.00725736 0.187532 -0.162688
-0.17551 0.112042 -0.377786
-0.0899964 0.183249 0.199071
0.17551 0.0446294 0.392596
-0.16324 0.147722 -0.0749293
0.0913965 0.0401568 -0.371271
0.165206 0.19675 -0.0395509
-0.184408 0.184599 0.196309
-0.171909 0.138134 -0.34319
0.177703 0.19675 0.329429
0.0470196 0.183249 -0.255843
-0.00456905 0.184599 -0.4072
-0.162939 0.147997 -0.0617817
0.013042 0.180863 0.0665749
-0.0444101 0.188757 -0.204781
-0.0470264 0.180147 0.0911666
-0.161692 0.19675 -0.310067
0.00904913 0.183249 -0.358833
-0.167409 -0.00118141 -0.271006
0.157509 0.181188 0.107526
0.157509 0.19019 -0.262366
-0.165014 0.00344385 0.398272
-0.193969 0.185297 -0.318616
0.011728 0.188909 -0.210012
0.159359 -0.0170978 -0.371271
-0.105012 0.19675 -0.194472
-0.163125 -0.111517 -0.0353116
-0.018137 0.178765 0.138691
-0.0640019 0.183249 0.0619822
0.0207189 0.183249 -0.104354
-0.06524 0.18274 0.00204402
0.0330649 0.0733882 -0.146258
0.123793 0.166925 0.393119
-0.090917 0.19675 0.297161
0.167409 0.152256 0.229113
-0.157509 0.157517 0.193089
0.0781131 0.184615 -0.371271
0.164649 0.148701 -0.161407
-0.176726 0.184599 -0.143312
-0.140849 0.191321 -0.292918
-0.157509 -0.0776224 -0.105644
-0.169941 -0.170422 0.398272
0.0601311 0.183249 -0.199185
-0.114452 0.186871 -0.13996
-0.165156 0.0812323 -0.398272
0.112919 -0.0589132 -0.371271
-0.167409 0.0964178 -0.235386
0.157616 -0.131581 0.371271
-0.167409 -0.0767844 0.055843
0.16431 -0.111517 0.238346
0.157509 -0.1573 -0.385549
0.020742 0.0383469 0.397534
0.185153 0.19675 0.329976
-0.181901 0.184599 0.259748
-0.133679 0.19675 -0.373035
-0.159075 0.159492 -0.167117
-0.134726 0.183249 -0.0544397
0.137833 0.187072 -0.146866
-0.17714 0.19675 0.387716
0.157509 0.181009 -0.158271
-0.0336503 -0.0325662 -0.146258
-0.0769487 0.183249 0.312945
0.129118 0.00642931 -0.371271
0.100255 0.172122 0.367051
-0.167409 0.152937 -0.251023
0.138913 0.19675 -0.0116281
-0.167409 0.0195768 -0.183692
-0.0417845 0.18409 -0.04435
-0.0228472 0.0324565 -0.146258
-0.171909 0.142583 -0.167147
-0.17551 0.0100416 -0.392002
0.167409 0.0177003 -0.32677
-0.169431 -0.0594245 -0.398272
-0.167409 -0.0296612 -0.275198
-0.0726943 0.188478 -0.195186
0.00720245 0.00284897 -0.371271
0.167409 0.0684748 -0.192561
-0.0660345 0.0591889 -0.146258
-0.135873 0.187389 -0.157783
0.157509 0.138109 -0.396825
-0.0859691 0.172342 0.359486
-0.0334488 0.183249 -0.142769
-0.167004 -0.111517 -0.00520967
-0.0927081 -0.018793 -0.146258
0.157509 -0.148994 0.376
0.157509 0.182845 -0.249379
-0.0598475 0.19675 0.252648
0.108414 0.183249 0.130471
-0.167409 -0.0839654 -0.364436
-0.00169199 0.0142293 -0.146258
-0.0178087 0.19675 -0.225529
-0.167409 -0.0695401 -0.171304
-0.0744364 0.19675 0.408432
0.153081 0.19675 -0.170854
-0.182841 0.19675 0.253876
0.157509 -0.151924 -0.372057
-0.00648254 0.183249 0.392796
-0.138369 0.190349 -0.259528
-0.167832 0.19675 0.187107
-0.171909 -0.0266712 -0.341933
-0.157509 0.176842 -0.250424
-0.108498 0.189052 -0.214933
-0.115252 0.0852072 -0.371271
0.167409 0.170741 0.114254
-0.0426314 0.183249 -0.0596962
-0.174053 -0.0371597 0.398272
-0.173117 0.0454971 0.371271
-0.0462751 0.19675 0.0331093
0.119542 0.183249 0.0759869
-0.000216559 0.145683 -0.146258
-0.157509 0.171983 -0.214851
0.0131987 0.183249 0.0894783
0.15569 0.19675 0.31284
0.15321 0.183249 0.262684
-0.167409 -0.109283 0.096768
-0.0173575 0.183249 0.351749
0.123924 0.19675 -0.121615
-0.1202 0.145987 -0.146258
-0.0136029 0.0139366 -0.371271
0.0683388 0.033549 -0.146258
0.167409 0.00766519 -0.174428
0.102754 0.0811456 -0.371271
0.00855141 0.166168 0.392487
-0.0596378 0.0585587 -0.146258
-0.167409 0.12971 -0.150125
-0.131702 0.19675 0.130592
0.00331123 0.19675 0.0284286
0.162033 0.183249 -0.158757
0.14582 0.183249 0.0183687
-0.167409 0.165517 -0.0560042
0.115157 0.183249 0.0944474
0.0394841 0.19675 0.412087
0.0877384 0.0490167 -0.146258
0.167409 -0.0647796 -0.334651
0.0149936 0.183249 0.0727659
0.137155 0.179266 0.121475
0.136186 0.19675 -0.180054
-0.0229942 0.190676 -0.270771
-0.0525135 0.183249 -0.267682
0.107383 0.0806171 -0.146258
-0.157509 0.152942 0.209057
0.0144577 0.19675 -0.412126
-0.186612 0.184599 0.15686
0.157509 0.165467 -0.328636
0.17551 -0.125071 -0.383778
-0.157509 -0.0871745 0.151489
0.167409 0.162283 0.182985
-0.171909 0.0878078 -0.332588
0.121759 0.183249 -0.370695
-0.0756789 -0.0335831 -0.146258
0.032411 0.0537992 -0.392658
0.0678919 -0.00403307 -0.146258
-0.157509 -0.104882 -0.117165
-0.0630665 0.19675 -0.0778204
0.150313 0.19675 -0.410203
0.17551 -0.106764 0.393003
0.168987 0.0172338 -0.398272
0.157509 -0.0810064 -0.222976
0.0117079 0.183249 0.393374
-0.158671 0.156288 -0.0266637
-0.167409 -0.00289418 -0.316939
-0.161009 -0.111517 0.0502336
0.1278 0.179775 0.103969
0.0431278 0.19675 -0.269979
-0.105672 0.000818627 -0.146258
0.0626893 0.178977 0.131404
-0.171909 0.141696 -0.327924
0.153541 0.181788 0.0347813
0.0493239 0.19675 -0.229935
-0.156941 0.15786 -0.371271
-0.190635 0.184599 -0.229757
-0.066255 0.0594736 -0.146258
0.183172 0.19675 0.381372
0.122096 0.183249 -0.167333
0.0339659 0.19675 -0.226644
-0.161464 0.152228 -0.0965961
-0.121789 0.180697 0.0722673
0.10485 0.19675 -0.35071
-0.0891126 0.19675 0.0971795
0.173857 0.183249 0.132123
0.0125697 0.183249 -0.193744
0.135769 0.19675 0.172061
0.165148 0.147247 0.135609
-0.105301 0.184692 -0.0650723
-0.00620273 0.19675 -0.310463
0.132815 0.183249 0.12969
0.075031 0.176414 0.21949
0.167409 -0.0822309 0.161944
-0.168027 0.17971 0.398272
0.0177478 0.183249 -0.354076
0.0904441 0.0926239 -0.399653
0.0762658 0.183249 -0.277193
0.141267 0.19675 0.0244451
0.167409 0.0204517 -0.344539
-0.157509 -0.0804761 0.356183
-0.0516246 0.19675 0.0168841
0.167409 -0.106815 0.364095
-0.1709 0.0246696 -0.212273
0.118937 0.179959 0.097638
-0.17551 -0.191971 -0.389423
-0.0848146 0.183249 -0.0316207
-0.00594666 0.183249 0.292429
0.0827131 0.19675 0.379162
0.0206042 -0.0430057 -0.146258
-0.0474929 0.19675 -0.254834
0.0924928 0.19675 0.127911
-0.0913435 0.177558 0.180176
0.0472685 0.183249 0.354015
0.093504 0.19675 -0.353437
0.115364 0.180333 0.0847785
-0.0338126 0.187024 -0.14521
0.141551 0.183249 -0.0977397
-0.167409 -0.0827725 -0.200665
0.167409 0.161153 -0.304916
0.130685 0.183249 0.225428
0.0624616 0.183249 -0.185445
0.163535 -0.0755151 -0.0640283
0.0545335 0.182003 0.0273874
0.171733 0.0251144 -0.371271
0.0737116 0.187293 -0.154478
-0.167409 0.181439 -0.0632334
-0.0538107 0.181565 0.0424349
-0.161185 0.14951 0.0177339
0.0584756 0.19675 -0.0802535
0.0763424 -0.0463349 -0.371271
0.0462242 0.181261 0.0528905
0.121658 0.183249 -0.177031
0.00348751 0.188832 -0.207363
-0.182393 0.19675 0.389071
-0.167409 -0.0990762 0.296563
-0.178964 0.19675 -0.271305
0.18331 0.184599 0.167692
0.167409 -0.10494 0.341899
0.110026 -0.102551 0.396608
0.17551 0.0312621 -0.382612
-0.157509 0.101405 0.389889
0.140096 0.19675 0.245647
-0.09853 0.0364612 -0.371271
0.0769671 0.183249 -0.0879185
0.11943 0.19675 -0.275016
0.167409 0.180564 -0.304959
-0.110941 0.176654 0.211243
0.161396 -0.0755151 -0.364289
0.0559221 0.19357 -0.37023
0.0676837 0.182428 0.0127685
0.162284 0.183249 0.187699
-0.143079 0.175976 0.234574
0.157509 -0.181902 0.394217
-0.167409 0.00611062 -0.267154
0.159542 0.19675 -0.0234909
-0.0891655 0.184599 0.399558
-0.121014 0.183249 0.0960784
-0.120027 0.183249 -0.135965
0.133355 0.185898 -0.106512
0.0320567 0.19675 0.235623
-0.0804071 0.0253801 -0.371271
-0.123427 0.19675 -0.0870155
0.138397 0.124122 0.391814
0.0449986 0.19675 -0.353592
0.160125 0.19675 0.235102
-0.141192 0.19675 -0.0824156
-0.0190757 0.0355247 -0.371271
-0.17551 0.132292 0.375657
0.156019 0.18785 -0.173624
0.178825 0.184599 0.191269
0.088267 0.172382 0.358103
0.128797 0.00751439 -0.371271
-0.117401 0.174935 0.270343
0.17551 -0.100447 0.374666
-0.164367 -0.0755151 0.0745546
0.167409 -0.0505623 -0.262933
-0.0932785 0.183249 -0.208155
-0.167409 0.174857 0.221217
0.032555 0.191197 -0.288658
0.0231424 0.187041 -0.145792
0.00683225 0.030008 0.392783
0.143883 0.19675 0.33692
-0.163787 -0.0151127 -0.371271
-0.136785 0.183249 -0.294775
0.157509 0.167522 -0.313145
-0.0277872 0.19675 -0.235943
0.0262102 0.183249 0.267589
-0.0236051 0.176347 0.221821
-0.167409 0.180228 -0.0851102
0.167409 0.026961 -0.254638
0.181632 0.184599 0.0392421
-0.160648 0.153217 -0.0694091
-0.185862 0.19675 -0.0584366
-0.167409 0.073245 -0.152729
-0.162103 0.19675 -0.00567557
-0.00186483 0.19675 0.162492
-0.167409 0.147584 0.0261526
-0.0248487 0.183249 0.352552
-0.1721 0.183249 0.231468
-0.157509 -0.0681157 0.378981
0.106014 0.183249 0.258774
0.0286003 0.183249 0.220929
-0.167409 -0.0430484 -0.315881
0.119631 -0.00535506 -0.371271
0.103446 0.0837346 -0.371271
-0.170794 0.0567931 -0.371271
0.157509 0.128228 0.392042
0.157509 -0.108554 0.0576825
-0.0822011 0.183249 -0.349543
0.0214028 0.0449964 -0.146258
0.0781621 0.19675 -0.390198
0.157509 -0.0976492 -0.225493
0.0692296 0.19675 0.385689
-0.157509 -0.1098 0.0913367
0.0140958 0.19675 -0.178038
0.0162057 -0.022839 -0.371271
0.157509 -0.0816728 -0.198657
-0.077003 0.173949 0.304229
0.150388 0.16249 0.396756
0.171251 0.19675 -0.348804
-0.0849747 0.157006 -0.371271
-0.0122052 0.183249 -0.361727
0.0162216 0.114113 -0.146258
0.122137 0.177618 0.178109
-0.161178 -0.111517 -0.10784
-0.157196 0.19675 -0.320436
0.0889647 -0.0710327 -0.146258
0.174827 0.183249 0.124686
0.157509 0.0116407 0.389595
0.00365031 0.183249 -0.18814
0.0818161 0.19675 0.250796
0.0739139 0.190053 -0.249331
0.0393295 0.183249 0.284676
-0.0171766 0.17241 -0.371271
0.168812 0.19675 0.00461312
0.141637 0.17951 0.113091
-0.154911 0.16786 0.394956
0.0198512 0.175323 0.256991
0.17551 -0.03281 -0.394961
-0.0500314 0.183249 -0.0211741
0.18868 0.184599 -0.0589342
0.17551 0.150318 -0.377154
-0.0277087 0.19675 -0.390859
0.082738 0.17268 -0.371271
-0.169892 -0.0338911 -0.398272
-0.163822 0.19675 -0.0655535
0.0385207 0.19675 0.00390238
0.154538 0.183249 -0.281584
0.0319707 0.183249 -0.220018
0.0538581 0.19675 0.226901
-0.123407 0.192769 -0.342699
-0.193673 0.19675 -0.196927
-0.16203 -0.188359 0.371271
0.084043 0.183249 0.18407
0.157509 0.16557 0.0448062
0.0440122 0.0180711 -0.371271
-0.168133 0.0318466 -0.304265
0.167409 0.116763 -0.340116
-0.119007 0.188534 -0.19712
0.0429465 0.183249 -0.0792642
0.167409 -0.0771851 0.173633
0.0274292 0.0115416 -0.146258
-0.0393802 -0.0625832 -0.146258
0.157509 0.154585 0.0442601
-0.121718 -0.0606268 0.396412
-0.122236 0.183249 -0.285908
-0.0897544 0.0146668 -0.146258
-0.0593417 0.187063 -0.14656
0.161119 -0.1559 0.371271
-0.0406954 -0.000404619 0.399834
0.137234 0.19675 0.305847
-0.081271 0.19675 -0.0551972
0.167409 0.140713 -0.166206
