ply
format ascii 1.0
comment Created by Open3D
element vertex 887
property double x
property double y
property double z
end_header
0.00785047 -0.16007 -0.374757
0.0076139 -0.142286 -0.378258
-0.234712 -0.160558 -0.370695
0.0103405 -0.128312 -0.395143
0.0177391 -0.129742 -0.357121
-0.010924 -0.127377 -0.395174
-0.0284011 -0.128926 -0.395199
0.0177736 -0.129813 -0.333426
-0.0508547 -0.127975 -0.395232
-0.069323 -0.129575 -0.395259
0.0178098 -0.129888 -0.308588
0.0177062 -0.121124 -0.379751
-0.0882592 -0.1282 -0.395287
-0.107681 -0.129844 -0.395316
-0.23487 -0.142329 -0.381583
0.252087 -0.160934 0.135943
0.234078 -0.161749 0.130314
0.0178477 -0.129967 -0.282522
-0.127608 -0.128436 -0.395345
0.0178877 -0.130049 -0.255135
-0.148059 -0.126992 -0.395375
-0.169056 -0.128686 -0.395406
0.0179225 -0.129574 -0.231229
0.0103405 -0.111391 -0.395143
-0.19062 -0.127205 -0.395437
-0.212776 -0.128949 -0.39547
0.0179663 -0.12965 -0.201145
0.0177391 -0.112249 -0.357121
-0.0196097 -0.110868 -0.395187
-0.235548 -0.127431 -0.395503
0.0180125 -0.129731 -0.169417
0.0177796 -0.112349 -0.329368
-0.0508547 -0.110323 -0.395232
-0.069323 -0.111703 -0.395259
0.252087 -0.141545 0.135943
0.234078 -0.142261 0.130314
0.00774688 -0.159679 0.139056
0.0180613 -0.129815 -0.135909
0.0178223 -0.112455 -0.30004
-0.0882592 -0.110101 -0.395287
-0.107681 -0.111513 -0.395316
-0.148059 -0.114449 -0.395375
0.018113 -0.129905 -0.100465
0.0180782 -0.127451 -0.124317
0.0178608 -0.1121 -0.273545
0.0177062 -0.101174 -0.379751
-0.127608 -0.109867 -0.395345
-0.19062 -0.114324 -0.395437
0.250929 -0.157376 0.370846
0.0181676 -0.13 -0.0629132
0.0181491 -0.128724 -0.0756763
0.0179084 -0.112204 -0.240914
-0.169056 -0.109621 -0.395406
-0.235548 -0.114191 -0.395503
0.261883 -0.127692 0.119847
0.0182158 -0.129439 -0.0298707
0.0179589 -0.112315 -0.206269
-0.212776 -0.109361 -0.39547
0.261964 -0.129185 0.176176
0.261947 -0.128088 0.164527
0.211235 -0.126786 0.115818
0.19044 -0.128133 0.115787
0.169199 -0.129508 0.115756
0.00774688 -0.14218 0.139056
0.0182769 -0.129525 0.0120667
0.0182459 -0.12752 -0.00922662
0.0180125 -0.112433 -0.169417
0.0103405 -0.0916511 -0.395143
0.250929 -0.143692 0.370846
0.262034 -0.129652 0.224836
0.261998 -0.127392 0.200082
0.261915 -0.122073 0.141814
0.239624 -0.121104 0.11586
0.151875 -0.12661 0.115731
0.129793 -0.127996 0.115698
0.111777 -0.129127 0.115672
0.018342 -0.129616 0.0567279
0.0183198 -0.128228 0.0415219
0.0180613 -0.112032 -0.135909
0.0179814 -0.107026 -0.190758
0.0177448 -0.0921935 -0.353248
-0.0196097 -0.0907106 -0.395187
0.262089 -0.128967 0.263658
0.262052 -0.126659 0.237545
0.0888036 -0.126423 0.115638
0.0700526 -0.127562 0.115611
0.0509604 -0.128722 0.115583
0.0315177 -0.129904 0.115554
0.0184114 -0.129714 0.104387
0.0183761 -0.127573 0.0801641
0.018113 -0.111608 -0.100465
0.0177975 -0.0924705 -0.317
-0.0508547 -0.0897294 -0.395232
-0.069323 -0.0908515 -0.395259
-0.0882592 -0.0920021 -0.395287
0.262168 -0.129457 0.318848
0.262148 -0.128244 0.304663
0.262109 -0.125886 0.277075
0.261883 -0.112445 0.119847
0.219431 -0.114601 0.11583
0.0181676 -0.111159 -0.0629132
0.0181491 -0.110068 -0.0756763
0.0180782 -0.10591 -0.124317
0.0178477 -0.092386 -0.282522
0.0178285 -0.0912582 -0.295714
-0.107681 -0.090127 -0.395316
-0.127608 -0.0912981 -0.395345
0.26221 -0.127479 0.348038
0.261981 -0.114264 0.188025
0.261947 -0.112323 0.164527
0.198811 -0.111887 0.1158
0.151875 -0.114552 0.115731
0.0182981 -0.114787 0.0266383
0.0182561 -0.112405 -0.00220251
0.0182257 -0.110683 -0.0230596
0.0182059 -0.109563 -0.0366129
0.0179441 -0.0947164 -0.216384
0.0179015 -0.0922957 -0.245695
0.0177115 -0.08153 -0.37605
-0.158488 -0.0899565 -0.39539
-0.179766 -0.0911646 -0.395421
-0.201623 -0.0924056 -0.395453
-0.235548 -0.0943317 -0.395503
0.262276 -0.126669 0.393997
0.262052 -0.114201 0.237545
0.262016 -0.112193 0.21235
0.181998 -0.108882 0.115775
0.129793 -0.111742 0.115698
0.0888036 -0.113988 0.115638
0.0183645 -0.114396 0.0722666
-0.224083 -0.0903938 -0.395486
0.262128 -0.114133 0.290741
0.262089 -0.112054 0.263658
0.239624 -0.101881 0.11586
0.111777 -0.10863 0.115672
0.0700526 -0.110833 0.115611
0.0509604 -0.111841 0.115583
0.0216619 -0.113388 0.11554
0.0183994 -0.112075 0.096223
0.0180205 -0.0920954 -0.16396
0.26221 -0.11406 0.348038
0.262168 -0.111903 0.318848
0.261915 -0.0988214 0.141814
0.0181309 -0.094219 -0.0881912
0.0180954 -0.0924223 -0.112505
0.0180613 -0.0906929 -0.135909
0.017989 -0.0870288 -0.185495
0.0103405 -0.0719109 -0.395143
0.262254 -0.111741 0.378376
0.0181676 -0.0923187 -0.0629132
0.0177562 -0.0722624 -0.345412
-0.0196097 -0.0705527 -0.395187
-0.0508547 -0.0720777 -0.395232
0.261981 -0.0942177 0.188026
0.261883 -0.0895747 0.119847
0.198811 -0.0922579 0.1158
0.151875 -0.0944553 0.115731
0.0182981 -0.0946489 0.0266383
0.0182459 -0.0922066 -0.00922662
0.0182059 -0.0903416 -0.0366129
0.0178223 -0.0724026 -0.30004
0.0177915 -0.0709647 -0.321155
-0.069323 -0.0700003 -0.395259
-0.0882592 -0.0708869 -0.395287
-0.107681 -0.0717961 -0.395316
0.262052 -0.0934371 0.237545
0.262016 -0.0917944 0.21235
0.261947 -0.0886763 0.164528
0.219431 -0.0874078 0.11583
0.181998 -0.0890857 0.115775
0.129793 -0.0914257 0.115698
0.111777 -0.0922332 0.115672
0.0794702 -0.0936813 0.115625
0.0183308 -0.0920848 0.0490841
0.0182769 -0.0896713 0.0120667
0.0179441 -0.0747761 -0.216384
0.0178877 -0.0722495 -0.255135
0.0178477 -0.0704639 -0.282522
-0.127608 -0.0696341 -0.395345
-0.158488 -0.0710183 -0.39539
-0.179766 -0.071972 -0.395421
-0.235548 -0.0744724 -0.395503
0.262089 -0.0909113 0.263658
0.0605496 -0.0903281 0.115597
0.0412834 -0.0911533 0.115569
0.0184114 -0.0914377 0.104387
0.0183761 -0.0899285 0.0801641
0.0179154 -0.0702248 -0.236093
0.0177224 -0.0619714 -0.368565
-0.201623 -0.0697095 -0.395453
-0.224083 -0.0706715 -0.395486
0.262276 -0.0944258 0.393997
0.262168 -0.0899615 0.318848
0.262148 -0.0891188 0.304663
0.262109 -0.0874799 0.277075
0.261915 -0.0794446 0.141814
0.239624 -0.0788135 0.11586
0.0180448 -0.0722342 -0.147285
0.0180047 -0.0705982 -0.174825
0.262232 -0.0880715 0.36306
0.0216619 -0.0834362 0.11554
0.018177 -0.0738442 -0.0564364
0.0181398 -0.0724017 -0.0819642
0.018113 -0.0713562 -0.100465
0.017989 -0.0665515 -0.185495
0.261998 -0.0748177 0.200082
0.261883 -0.0705163 0.119847
0.151875 -0.0743584 0.115731
0.0182981 -0.0745109 0.0266383
0.0182357 -0.0722155 -0.0161787
0.0182059 -0.07112 -0.0366129
0.0180783 -0.0664182 -0.124318
0.0176955 -0.0523322 -0.387069
0.00191075 -0.0524813 -0.395155
0.262109 -0.074678 0.277075
0.262033 -0.0720288 0.224836
0.261964 -0.0695612 0.176176
0.261947 -0.0689704 0.164528
0.198811 -0.0687027 0.1158
0.181998 -0.0692888 0.115775
0.129793 -0.0711088 0.115698
0.111777 -0.0717369 0.115672
0.018342 -0.0720091 0.0567279
0.0182769 -0.0697443 0.0120667
0.0177796 -0.0524296 -0.329368
0.0177504 -0.0514165 -0.349345
-0.0196097 -0.0503948 -0.395187
-0.0508547 -0.051484 -0.395232
-0.069323 -0.0521279 -0.395259
-0.148059 -0.0548729 -0.395375
0.26221 -0.0738038 0.348038
0.262189 -0.0730992 0.333304
0.262148 -0.0717298 0.304663
0.262089 -0.0697692 0.263659
0.219431 -0.064099 0.11583
0.0700526 -0.0690092 0.115611
0.0509604 -0.0696368 0.115583
0.0184114 -0.0701731 0.104387
0.0183761 -0.0690149 0.0801641
0.0179441 -0.0548358 -0.216384
0.0178675 -0.05232 -0.269
0.017835 -0.0512513 -0.291353
0.0178098 -0.0504272 -0.308588
-0.0882592 -0.0497716 -0.395287
-0.107681 -0.05041 -0.395316
-0.127608 -0.051065 -0.395345
-0.169056 -0.0524274 -0.395406
-0.235548 -0.0546131 -0.395503
0.262254 -0.0706935 0.378376
0.262052 -0.0643678 0.237545
0.261915 -0.0600679 0.141814
0.239624 -0.0595907 0.11586
0.0888036 -0.0642478 0.115638
0.0179154 -0.0506272 -0.236093
-0.201623 -0.0502557 -0.395453
-0.224083 -0.0509492 -0.395486
0.0315177 -0.0617576 0.115554
0.018177 -0.0549098 -0.0564364
0.0180614 -0.0515705 -0.135909
0.0180205 -0.0503918 -0.16396
0.261998 -0.0545967 0.200082
0.261883 -0.0514578 0.119847
0.151875 -0.0542615 0.115731
0.0182981 -0.0543728 0.0266383
0.0182257 -0.0524286 -0.0230596
0.0182059 -0.0518984 -0.0366129
0.0181491 -0.0503702 -0.0756763
0.018113 -0.0494005 -0.100465
0.017989 -0.0460741 -0.185495
0.262128 -0.0538365 0.290742
0.262033 -0.0514492 0.224836
0.261964 -0.0496866 0.176176
0.261947 -0.0492646 0.164528
0.198811 -0.0490734 0.1158
0.181998 -0.049492 0.115775
0.129793 -0.050792 0.115698
0.111777 -0.0512407 0.115672
0.0700526 -0.0522797 0.115611
0.0183761 -0.052284 0.0801641
0.018342 -0.0514351 0.0567279
0.0182769 -0.0498174 0.0120667
0.0180783 -0.0448772 -0.124318
0.262276 -0.0529706 0.393997
0.262232 -0.0519396 0.36306
0.262168 -0.0504662 0.318848
0.262089 -0.048627 0.263659
0.219431 -0.0446751 0.11583
0.0509604 -0.0485347 0.115583
0.0184114 -0.0489085 0.104387
0.0176902 -0.0324103 -0.390688
0.262052 -0.043604 0.237545
0.261915 -0.0406912 0.141814
0.239624 -0.0403679 0.11586
0.0888036 -0.0435227 0.115638
0.0216619 -0.0449272 0.11554
0.0179441 -0.0348955 -0.216384
0.0178285 -0.0324818 -0.295714
0.0177855 -0.0315822 -0.325278
0.0177562 -0.0309696 -0.345412
0.00191075 -0.0297867 -0.395155
-0.0196097 -0.0302369 -0.395187
-0.0508547 -0.0308904 -0.395232
-0.069323 -0.0312768 -0.395259
-0.0882592 -0.0316729 -0.395287
-0.107681 -0.0320791 -0.395316
-0.127608 -0.0324959 -0.395345
-0.235548 -0.0347538 -0.395503
0.0179154 -0.0310296 -0.236093
0.0178877 -0.0305054 -0.255135
0.0178477 -0.0297514 -0.282522
-0.158488 -0.0299855 -0.39539
-0.179766 -0.0303882 -0.395421
-0.201623 -0.0308019 -0.395453
-0.224083 -0.0312269 -0.395486
0.261998 -0.0343757 0.200082
0.261883 -0.0323994 0.119847
0.151875 -0.0341647 0.115731
0.0182981 -0.0342347 0.0266383
0.0181677 -0.0320289 -0.0629133
0.0181491 -0.0317146 -0.0756763
0.018113 -0.031104 -0.100465
0.0180614 -0.030231 -0.135909
0.0180205 -0.02954 -0.16396
0.262276 -0.034546 0.393997
0.26221 -0.0335472 0.348039
0.262189 -0.0332269 0.333305
0.262089 -0.0317133 0.263659
0.262033 -0.0308695 0.224836
0.261964 -0.0298119 0.176176
0.261947 -0.0295588 0.164528
0.198811 -0.029444 0.1158
0.181998 -0.0296952 0.115775
0.129793 -0.0304752 0.115698
0.111777 -0.0307444 0.115672
0.0700526 -0.0313678 0.115611
0.0509604 -0.0316531 0.115583
0.0184114 -0.0318969 0.104387
0.0183761 -0.0313704 0.0801641
0.018342 -0.0308611 0.0567277
0.0182769 -0.0298904 0.0120667
0.0182459 -0.0294276 -0.00922662
0.0182059 -0.0288324 -0.0366129
0.017989 -0.0255967 -0.185495
2.58684e-05 -0.0227495 -0.32873
-0.0199423 -0.0227495 -0.342473
-0.0449051 -0.0227496 -0.35965
-0.0648755 -0.0227497 -0.373392
0.262148 -0.0282572 0.304663
0.00209153 -0.0227491 -0.166456
-0.0180585 -0.0227487 -0.180343
-0.0382081 -0.0227484 -0.194229
-0.0583639 -0.0227483 -0.208107
-0.0785252 -0.0227483 -0.22198
-0.101567 -0.0227484 -0.237835
-0.118848 -0.0227484 -0.249726
-0.13901 -0.0227485 -0.263599
-0.159171 -0.0227486 -0.277472
-0.179333 -0.0227486 -0.291345
-0.196615 -0.0227487 -0.303236
-0.210122 -0.0226484 -0.317851
-0.207137 -0.0221956 -0.339813
-0.236939 -0.0227488 -0.330983
-0.237873 -0.0224059 -0.349815
-0.237901 -0.0220511 -0.36865
0.262108 -0.0234702 0.277076
0.239639 -0.0227549 0.216773
0.219222 -0.0227544 0.202687
0.202208 -0.0227539 0.19095
0.181793 -0.0227534 0.176866
0.161378 -0.0227528 0.162782
0.140965 -0.0227523 0.148699
0.0216619 -0.0235333 0.11554
0.00150621 -0.0227484 0.0524694
-0.018905 -0.022748 0.0383997
-0.0393154 -0.0227477 0.0243303
-0.0597253 -0.0227473 0.0102615
-0.0801346 -0.022747 -0.00380701
-0.100543 -0.0227466 -0.017875
-0.117557 -0.0227466 -0.0295892
-0.137979 -0.0227466 -0.0436405
-0.158401 -0.0227467 -0.0576919
-0.178823 -0.0227467 -0.0717434
-0.199245 -0.0227468 -0.0857952
-0.219667 -0.0227469 -0.0998467
-0.204401 -0.0218265 -0.147029
-0.201135 -0.0213307 -0.175856
-0.198014 -0.020857 -0.203403
-0.195616 -0.0204929 -0.224574
-0.193306 -0.0201414 -0.245015
-0.189986 -0.0196363 -0.274393
-0.186819 -0.01883 -0.322751
-0.186906 -0.0184555 -0.346282
0.259842 -0.0204521 0.371217
0.24173 -0.0206145 0.37119
0.218681 -0.0208211 0.371157
0.199907 -0.0209894 0.37113
0.180827 -0.0211605 0.371102
0.161434 -0.0213343 0.371073
0.141719 -0.0215111 0.371045
0.121675 -0.0216908 0.371015
0.101293 -0.0218735 0.370986
0.0805646 -0.0220593 0.370956
0.0594811 -0.0222483 0.370925
0.0380332 -0.0224406 0.370894
0.0162115 -0.0226362 0.370862
-0.00351626 -0.022748 0.365844
-0.0159878 -0.0227477 0.357239
-0.0450866 -0.0227471 0.337163
-0.0658705 -0.0227466 0.322823
-0.0866535 -0.0227461 0.308484
-0.115748 -0.0227455 0.28841
-0.140686 -0.0227449 0.271206
-0.16147 -0.0227446 0.256874
-0.178096 -0.0227443 0.245409
-0.198884 -0.0227441 0.231086
-0.208793 -0.0225656 0.210594
-0.20708 -0.0223038 0.191716
-0.204564 -0.0219218 0.164179
-0.23711 -0.0223414 0.173929
-0.237144 -0.0220351 0.150434
-0.198259 -0.0209642 0.095161
-0.196037 -0.0206264 0.0708115
-0.193885 -0.0202993 0.0472347
-0.192489 -0.020087 0.0319276
-0.189781 -0.0196753 0.00225484
-0.187822 -0.0193775 -0.0192137
-0.186385 -0.0190191 -0.0456855
-0.20082 -0.0183489 -0.106959
-0.237492 -0.0189214 -0.0883431
-0.0458085 -0.0180384 0.370771
-0.075018 -0.0182421 0.370729
-0.104895 -0.0184504 0.370685
-0.117037 -0.0185351 0.370668
-0.135461 -0.0186635 0.370641
-0.160428 -0.0188376 0.370604
-0.185865 -0.019015 0.370567
-0.185854 -0.0187116 0.340688
-0.185912 -0.0185161 0.321392
-0.18597 -0.0183246 0.302495
-0.186026 -0.0181371 0.283984
-0.186263 -0.0173386 0.205169
-0.186338 -0.0170878 0.180417
-0.186463 -0.0166857 0.140724
-0.18727 -0.013931 -0.131163
-0.205366 -0.0117324 -0.360173
-0.237933 -0.0116523 -0.39048
0.262276 -0.00690922 0.393997
-0.187929 -0.00706331 0.11956
0.259842 -0.00227247 0.371217
0.24173 -0.00229051 0.37119
0.218681 -0.00231347 0.371157
0.199907 -0.00233217 0.37113
0.180827 -0.00235118 0.371102
0.161434 -0.0023705 0.371073
0.141719 -0.00239014 0.371045
0.121675 -0.0024101 0.371015
0.101293 -0.0024304 0.370986
0.0805646 -0.00245105 0.370956
0.0594811 -0.00247205 0.370925
0.0380332 -0.00249342 0.370894
0.0162114 -0.00251515 0.370862
-0.00599426 -0.00253727 0.37083
-0.188235 -0.00269511 0.354227
-0.18843 -0.00252066 0.233811
-0.188769 -0.00223178 0.0344014
-0.188814 -0.00219311 0.00770962
-0.188847 -0.00216498 -0.0117096
-0.188879 -0.00213756 -0.0306374
-0.188921 -0.00210206 -0.0551407
-0.188981 -0.00205097 -0.0904069
-0.189012 -0.00201825 -0.112988
-0.189067 -0.00197111 -0.145531
-0.189245 -0.00182215 -0.248359
-0.189283 -0.00178994 -0.270592
-0.189341 -0.00174071 -0.304574
-0.189375 -0.00171129 -0.324881
-0.189403 -0.00168284 -0.344516
-0.189425 -0.00166623 -0.355983
-0.237873 -0.00172354 -0.349815
-0.237901 -0.00169625 -0.36865
-0.0343066 0.00256547 0.370788
-0.0458085 0.00257693 0.370771
-0.075018 0.00260603 0.370729
-0.104895 0.00263579 0.370685
-0.117037 0.00264788 0.370668
-0.135461 0.00266623 0.370641
-0.160428 0.0026911 0.370604
-0.185865 0.00271644 0.370567
-0.189064 0.00265524 0.326166
-0.189088 0.00262768 0.307147
-0.189112 0.00260068 0.28852
-0.189135 0.00257424 0.270271
-0.189159 0.00254833 0.25239
-0.189963 0.00742742 0.201849
-0.189984 0.00732004 0.177156
-0.189998 0.00725016 0.161087
-0.19002 0.0071143 0.129847
-0.190039 0.00701572 0.107177
-0.190057 0.00695156 0.0924175
-0.19007 0.00685736 0.0707595
-0.19026 0.0058307 -0.165327
-0.190279 0.00574254 -0.185601
-0.190296 0.005657 -0.205274
-0.19032 0.00553335 -0.233708
-0.190834 0.00995415 -0.13314
-0.209861 0.00837024 -0.364651
-0.237941 0.00829729 -0.394038
-0.260525 0.00840589 -0.394605
-0.191434 0.0158123 0.0512776
0.25907 0.020696 0.38937
0.259092 0.0204922 0.373774
0.241729 0.0206145 0.371192
0.218681 0.0208212 0.371158
0.199907 0.0209894 0.37113
0.180827 0.0211605 0.371102
0.161434 0.0213343 0.371073
0.141719 0.0215111 0.371045
0.121675 0.0216908 0.371015
0.101293 0.0218735 0.370986
0.0805646 0.0220593 0.370956
0.0594811 0.0222483 0.370925
0.0380332 0.0224406 0.370894
0.0162114 0.0226362 0.370862
-0.00599426 0.0228353 0.37083
-0.0343066 0.0230891 0.370788
-0.0458085 0.0231922 0.370771
-0.075018 0.0234541 0.370729
-0.104895 0.0237219 0.370685
-0.117037 0.0238308 0.370668
-0.135461 0.023996 0.370641
-0.160428 0.0242198 0.370604
-0.185865 0.0244478 0.370567
-0.192254 0.0242437 0.350533
-0.192241 0.0239883 0.330979
-0.192231 0.0237384 0.311837
-0.192217 0.0233731 0.283861
-0.192206 0.0230189 0.256735
-0.192198 0.0227887 0.239103
-0.19219 0.022563 0.22182
-0.192099 0.0200776 0.0314774
-0.19209 0.0198157 0.0114181
-0.192081 0.0195605 -0.00812477
-0.19207 0.0192303 -0.0334121
-0.192064 0.0190694 -0.0457384
-0.192045 0.0185267 -0.0873016
-0.192008 0.0176647 -0.153312
-0.191949 0.0159351 -0.285774
-0.192911 0.0270654 0.189251
-0.19289 0.0266765 0.164889
-0.192862 0.0262984 0.14121
-0.192844 0.0258112 0.110683
-0.192816 0.0253413 0.081254
-0.192514 0.0201223 -0.245667
-0.192459 0.0191535 -0.306355
-0.192434 0.0187033 -0.33456
-0.192422 0.0185167 -0.346247
-0.237879 0.018898 -0.35363
-0.173087 0.035148 0.370586
-0.185865 0.0353135 0.370567
-0.193874 0.0350867 0.353025
-0.193232 0.0262653 -0.114394
-0.193155 0.0251609 -0.172916
-0.19443 0.0375204 0.216388
0.253894 0.0392332 0.391515
0.246284 0.0388614 0.3712
0.223328 0.0392501 0.371164
0.204629 0.0395667 0.371136
0.176008 0.0400514 0.371095
0.156535 0.0403812 0.371068
0.136739 0.0407164 0.371038
0.116611 0.0410572 0.371009
0.0961435 0.0414038 0.370978
0.0753273 0.0417563 0.370948
0.0647857 0.0419348 0.370933
0.0434299 0.0422964 0.370902
0.0162114 0.0427573 0.370862
-0.00599426 0.0431333 0.37083
-0.0343066 0.0436128 0.370788
-0.0458085 0.0438075 0.370771
-0.075018 0.0443022 0.370729
-0.104895 0.0448081 0.370685
-0.117037 0.0450137 0.370668
-0.135461 0.0453257 0.370641
-0.19542 0.0452461 0.326145
-0.195377 0.0447753 0.30708
-0.195335 0.0443142 0.288408
-0.195294 0.0438625 0.270117
-0.195256 0.04342 0.252197
-0.194808 0.0383855 0.0483164
-0.194759 0.0378786 0.0277892
-0.19459 0.0359786 -0.0491532
-0.194538 0.0353869 -0.0731137
-0.194282 0.0325744 -0.18701
-0.194108 0.0306054 -0.266748
-0.215465 0.0285537 -0.36466
-0.237912 0.0286546 -0.376018
-0.260886 0.0286794 -0.390823
-0.195844 0.046687 0.184974
-0.195781 0.0460171 0.160707
-0.195732 0.0455806 0.144901
-0.195375 0.0418162 0.0085429
-0.195323 0.0412779 -0.0109551
-0.194997 0.0378659 -0.13455
-0.194965 0.0375699 -0.145266
-0.194806 0.0358881 -0.206189
-0.194756 0.0353605 -0.225302
-0.0928624 0.0550995 0.370703
-0.160428 0.0565128 0.370604
-0.185865 0.0570449 0.370567
-0.197082 0.0565953 0.348085
-0.196962 0.0554153 0.309426
-0.197074 0.0542422 0.11597
-0.197023 0.0537417 0.101
-0.196919 0.0527675 0.0718684
-0.196562 0.0494089 -0.0285682
-0.195624 0.0404782 -0.295645
-0.195552 0.0397867 -0.316324
-0.195482 0.0391184 -0.336308
-0.195411 0.0384721 -0.355635
-0.237879 0.039514 -0.35363
0.24609 0.0577261 0.386979
0.227954 0.0576058 0.371178
0.20933 0.0580696 0.371151
0.190404 0.0585409 0.371123
0.171169 0.0590198 0.371093
0.151616 0.0595066 0.371062
0.131738 0.0600015 0.371031
0.111527 0.0605048 0.371001
0.0909724 0.0610167 0.370971
0.0700673 0.0615373 0.370942
0.0488032 0.0620668 0.37091
0.0271697 0.0626055 0.370878
0.00515717 0.0631537 0.370846
-0.00599426 0.0634314 0.37083
-0.0343066 0.0641364 0.370788
-0.0458085 0.0644228 0.370771
-0.117037 0.0661966 0.370668
-0.135461 0.0666554 0.370641
-0.198629 0.0667933 0.330968
-0.198441 0.0650762 0.28374
-0.198332 0.0640876 0.256551
-0.198263 0.0634452 0.238881
-0.198195 0.0628155 0.221562
-0.198128 0.0621982 0.204583
-0.196948 0.0513484 -0.0938373
-0.196904 0.0509351 -0.105204
-0.19877 0.0662565 0.18071
-0.198699 0.0656205 0.164516
-0.198207 0.0612129 0.0523012
-0.198115 0.0604014 0.0316422
-0.198023 0.059611 0.0115204
-0.197938 0.0588413 -0.00807685
-0.197694 0.0566469 -0.0639456
-0.196892 0.0494718 -0.246621
-0.196775 0.0484204 -0.273388
-0.0574136 0.0750658 0.370754
-0.075018 0.0755743 0.370729
-0.104895 0.0764374 0.370685
-0.173087 0.0784072 0.370586
-0.200341 0.078459 0.35306
-0.200149 0.0768167 0.314145
-0.199028 0.0670018 0.0815647
-0.198025 0.0582327 -0.126235
-0.19779 0.0562253 -0.173798
-0.197693 0.0553771 -0.193899
-0.221107 0.0488722 -0.364668
-0.237908 0.0488811 -0.376021
-0.260141 0.0491859 -0.384077
-0.185865 0.0842091 0.370567
-0.199993 0.0740486 0.134858
-0.19988 0.0730158 0.111964
-0.19851 0.0613195 -0.147234
-0.197787 0.0550794 -0.285527
0.234796 0.0768961 0.393781
0.180825 0.0775888 0.371108
0.161432 0.0782263 0.371079
0.141717 0.0788743 0.37105
0.121673 0.0795332 0.371021
0.101291 0.0802032 0.370991
0.0805623 0.0808845 0.370961
0.0594792 0.0815775 0.370929
0.0380324 0.0822824 0.370895
0.0162116 0.0829995 0.370862
-0.00599438 0.0837295 0.37083
-0.0343067 0.0846602 0.370788
-0.117037 0.0873796 0.370668
-0.147887 0.0883936 0.370623
-0.20159 0.0862225 0.288299
-0.201485 0.0853416 0.269966
-0.201382 0.0844785 0.252005
-0.20128 0.0836327 0.234403
-0.201087 0.0819912 0.200239
-0.199765 0.0708631 -0.0313576
-0.199457 0.0682577 -0.0855815
-0.198202 0.0576579 -0.306183
0.232191 0.0805606 0.372369
0.209329 0.0812975 0.371152
-0.185865 0.0950748 0.370567
-0.202614 0.0934651 0.327328
-0.201688 0.0857741 0.176456
-0.200989 0.079968 0.0625599
-0.20086 0.0788998 0.0416052
-0.200734 0.0778597 0.0212028
-0.199301 0.0659745 -0.211944
-0.199184 0.0650064 -0.230934
-0.198604 0.0601521 -0.326163
-0.198482 0.0591482 -0.345857
-0.237886 0.0599379 -0.35742
-0.0458085 0.0953459 0.370771
-0.0750181 0.0964224 0.370729
-0.104895 0.0975235 0.370685
-0.173087 0.100037 0.370586
-0.203297 0.0978673 0.309365
-0.201963 0.0869631 0.107087
-0.201871 0.0861636 0.0922532
-0.201275 0.0813019 0.00206685
-0.200559 0.0754111 -0.107215
-0.199625 0.0677719 -0.248926
-0.204373 0.105461 0.349357
-0.203059 0.0948255 0.162229
-0.202836 0.093038 0.130782
-0.201582 0.0828839 -0.0478702
-0.200979 0.0779746 -0.134247
-0.200753 0.0761696 -0.166003
-0.200611 0.0750122 -0.186367
-0.200021 0.0702113 -0.270836
0.219387 0.0955533 0.383439
0.151614 0.0975913 0.371066
0.131736 0.0984031 0.371037
0.111524 0.0992285 0.371007
0.09097 0.100068 0.370977
0.0700654 0.100922 0.370946
0.0488009 0.10179 0.370915
0.0271676 0.102673 0.370882
0.00515544 0.103572 0.370849
-0.00599587 0.104028 0.370833
-0.0343081 0.105184 0.370791
-0.12315 0.108812 0.370659
-0.147887 0.109822 0.370623
-0.204693 0.106974 0.28362
-0.204489 0.105345 0.256371
-0.204292 0.103765 0.229938
-0.204038 0.101731 0.195906
-0.202457 0.0890716 -0.0158952
-0.202045 0.0857598 -0.0713053
-0.221106 0.0690951 -0.364669
0.204628 0.100081 0.371141
0.176007 0.101307 0.3711
-0.185865 0.116806 0.370567
-0.205861 0.11527 0.332173
-0.204597 0.10524 0.172214
-0.203816 0.0990176 0.0729798
-0.203647 0.0976846 0.0517225
-0.20254 0.0889079 -0.0882458
-0.257801 0.0736531 -0.370883
-0.0458105 0.115962 0.370775
-0.0750195 0.117271 0.370732
-0.104896 0.11861 0.370687
-0.173087 0.121666 0.370586
-0.206437 0.118858 0.304599
-0.204822 0.106124 0.110609
-0.204163 0.100951 0.0318045
-0.203994 0.0996269 0.0116284
-0.203462 0.0954527 -0.0519628
-0.202613 0.0887592 -0.153936
-0.201474 0.0797496 -0.291195
-0.201335 0.0786485 -0.307971
0.201772 0.111078 0.393931
-0.135462 0.125312 0.370643
-0.207753 0.128277 0.364374
-0.206375 0.117508 0.207345
-0.205868 0.113581 0.150087
-0.203598 0.0957567 -0.109831
-0.201686 0.0808 -0.327928
-0.201512 0.079451 -0.347598
-0.237886 0.080488 -0.35742
0.131738 0.117603 0.371032
0.111526 0.11859 0.371002
0.0909719 0.119593 0.370972
0.0700672 0.120613 0.370942
0.0488029 0.121651 0.37091
0.0271692 0.122707 0.370879
0.00515687 0.123781 0.370846
-0.00599462 0.124326 0.37083
-0.0343069 0.125708 0.370789
-0.12315 0.130044 0.370659
-0.207788 0.127666 0.278955
-0.20762 0.126366 0.260769
-0.207375 0.124464 0.234174
-0.206981 0.121418 0.191585
-0.206397 0.116844 0.127623
-0.204012 0.0983207 -0.131374
-0.203618 0.0952986 -0.173627
-0.203036 0.090766 -0.237004
-0.202868 0.0894569 -0.25531
0.185625 0.119666 0.371112
0.166311 0.120647 0.371084
0.146677 0.121644 0.371055
-0.160428 0.137245 0.370604
-0.209134 0.137243 0.337055
-0.206686 0.118369 0.0835645
-0.205821 0.111711 -0.00584805
-0.205574 0.10981 -0.0313706
-0.203825 0.0962963 -0.212868
-0.0458091 0.136577 0.370772
-0.209662 0.14052 0.309304
-0.207174 0.121441 0.0628144
-0.206962 0.119814 0.0417972
-0.206754 0.118231 0.0213352
-0.205797 0.110901 -0.0733614
-0.205679 0.109992 -0.0851071
-0.203752 0.0951684 -0.276618
-0.215461 0.08902 -0.364662
-0.255632 0.0917124 -0.357283
-0.21098 0.149889 0.359367
-0.208906 0.134019 0.161849
-0.206622 0.116619 -0.0547079
-0.205665 0.109296 -0.145855
-0.20523 0.105968 -0.187267
0.116609 0.137663 0.371013
-0.210874 0.148301 0.274302
-0.210577 0.146049 0.24727
-0.210384 0.144586 0.229699
-0.210194 0.143151 0.212478
-0.209918 0.141052 0.187277
-0.209304 0.136386 0.131256
-0.206695 0.116556 -0.106817
-0.204515 0.0999971 -0.305615
-0.204292 0.0982942 -0.32606
-0.212431 0.159387 0.341975
-0.212208 0.157704 0.32246
-0.209688 0.138669 0.101748
-0.208566 0.130206 0.00362355
-0.208343 0.128525 -0.0158651
-0.207001 0.118342 -0.133942
-0.206634 0.115594 -0.165806
-0.20585 0.109654 -0.234688
-0.20564 0.108067 -0.253086
-0.20459 0.1001 -0.345463
-0.2128 0.161499 0.304526
-0.211937 0.155014 0.231818
-0.211141 0.14903 0.164724
-0.210143 0.141518 0.0805038
-0.209804 0.13897 0.0519447
-0.206754 0.116003 -0.205558
-0.210244 0.141729 0.031968
-0.209361 0.135124 -0.0397101
-0.208913 0.131775 -0.0760612
-0.212952 0.161422 0.191266
-0.214113 0.156406 0.137267
-0.207141 0.118009 -0.26524
-0.21546 0.109175 -0.364663
-0.211352 0.148982 0.0132385
-0.209232 0.133188 -0.147833
-0.207406 0.119573 -0.286683
-0.213086 0.161353 0.0912282
-0.212691 0.158426 0.0622511
-0.211763 0.151553 -0.00579208
-0.210994 0.145858 -0.0621724
-0.210365 0.141144 -0.108839
-0.210063 0.1389 -0.131061
-0.209553 0.135138 -0.168299
-0.209276 0.133079 -0.188684
-0.208619 0.128195 -0.237029
-0.207551 0.120253 -0.315663
-0.207278 0.118218 -0.335805
-0.213098 0.160961 0.0419899
-0.211388 0.14834 -0.0793977
-0.212555 0.156511 -0.0424901
-0.209715 0.135149 -0.276334
-0.212274 0.153614 -0.145027
-0.211256 0.146129 -0.211352
-0.210538 0.14085 -0.258131
-0.209853 0.128901 -0.364656
-0.213061 0.158972 -0.133635
-0.212552 0.155268 -0.165607
-0.212228 0.152894 -0.186104
-0.211534 0.147809 -0.230007
-0.210343 0.139072 -0.305438
-0.232502 0.134031 -0.364688
-0.210548 0.140244 -0.325579
-0.213341 0.159665 -0.255913
-0.211719 0.147873 -0.348249
-0.213503 0.160532 -0.277745
-0.213115 0.157722 -0.299244
-0.213275 0.158592 -0.31962
-0.225316 0.155103 -0.354344
