ply
format ascii 1.0
comment Created by Open3D
element vertex 692
property double x
property double y
property double z
end_header
0.159182 -0.15929 -0.405299
0.156789 -0.141494 -0.395262
0.00457478 -0.160604 -0.412233
0.00302362 -0.139885 -0.401378
0.157782 -0.11975 -0.386008
0.140702 -0.160654 0.395508
0.00256646 -0.122199 -0.394194
-0.0162488 -0.161193 0.387859
0.15798 -0.101116 -0.376443
0.139346 -0.141505 0.383755
0.00299919 -0.10447 -0.383579
0.214829 -0.0919118 -0.208111
0.215918 -0.0906973 -0.230737
0.140516 -0.122477 0.375892
0.213135 -0.0918942 -0.141489
0.213905 -0.0910512 -0.157813
0.214845 -0.0900191 -0.177801
0.217161 -0.0864109 -0.249303
0.153892 -0.0895087 -0.290464
0.155271 -0.088532 -0.308561
0.156271 -0.087447 -0.329555
0.157156 -0.0863968 -0.350012
-0.0155478 -0.129776 0.373525
0.211325 -0.0918737 -0.0696806
0.212415 -0.0907743 -0.0917225
0.213273 -0.0899132 -0.108983
0.218243 -0.0820731 -0.270875
0.154313 -0.0879292 -0.250719
0.154887 -0.0870292 -0.269298
0.209267 -0.0918622 0.00802964
0.210235 -0.0909412 -0.0111618
0.211169 -0.0900401 -0.0299613
0.212073 -0.0891579 -0.0483841
0.179486 -0.0815122 -0.275679
0.207518 -0.0917981 0.0919207
0.20832 -0.0908634 0.0712448
0.209167 -0.0899412 0.0509359
0.210056 -0.0890314 0.0309901
0.220378 -0.0747174 -0.288944
0.119309 -0.0825464 -0.273639
-0.000569105 -0.0894376 -0.311903
0.000533462 -0.0886955 -0.327541
0.00163138 -0.0876482 -0.350375
-0.0911504 -0.0941136 -0.353328
-0.0792001 -0.0926471 -0.367878
0.206364 -0.0918719 0.18792
0.206889 -0.0911492 0.171015
0.207599 -0.0902005 0.148862
0.208339 -0.0892668 0.127128
0.209068 -0.0883518 0.105834
0.220349 -0.0707215 -0.309079
0.182864 -0.0734409 -0.304896
0.121744 -0.0782344 -0.289233
0.0880147 -0.08088 -0.280581
-0.000792861 -0.0880682 -0.252329
-0.000299215 -0.0873696 -0.268694
0.000312209 -0.0865112 -0.28879
0.141105 -0.0987985 0.362209
0.205215 -0.0907831 0.263102
0.206288 -0.0899901 0.244479
0.207549 -0.0889688 0.220289
0.219427 -0.0723442 -0.187904
0.220198 -0.0714043 -0.210816
0.220999 -0.070625 -0.229543
0.184372 -0.0695294 -0.319046
0.15504 -0.0717111 -0.311954
0.0907598 -0.0764911 -0.29644
0.055308 -0.0791273 -0.287885
0.0175133 -0.081937 -0.278783
-0.0975921 -0.0883085 -0.307341
-0.0643975 -0.0833709 -0.378934
0.204958 -0.0870248 0.275205
0.217304 -0.0724019 -0.0990306
0.217875 -0.0715886 -0.120038
0.218392 -0.0707969 -0.140554
0.218844 -0.0700269 -0.160591
0.222147 -0.0665842 -0.248034
0.221572 -0.0636137 -0.329216
0.156857 -0.0677301 -0.326348
0.126148 -0.0698908 -0.319385
0.0209974 -0.0772895 -0.295542
-0.0189041 -0.0800961 -0.286521
-0.100305 -0.0859542 -0.264539
-0.100111 -0.0851547 -0.285807
0.214709 -0.0724869 -0.000691473
0.215247 -0.0717974 -0.0193657
0.215764 -0.0711218 -0.0376805
0.21637 -0.0702973 -0.0600766
0.216821 -0.0696531 -0.0776079
0.223444 -0.062498 -0.269662
0.221002 -0.059874 -0.348244
0.187217 -0.0619252 -0.346547
0.0959368 -0.0679887 -0.327151
0.0613858 -0.070284 -0.319807
0.21264 -0.0723416 0.102736
0.212927 -0.0716433 0.0823199
0.213264 -0.0709537 0.0622476
0.213774 -0.0701021 0.037618
0.214268 -0.0694277 0.0182626
0.160659 -0.0599716 -0.35442
0.130499 -0.0618587 -0.34842
0.0642791 -0.0660014 -0.335263
0.0281489 -0.0682603 -0.328126
-0.0111597 -0.0707199 -0.320302
-0.103498 -0.0754165 -0.334278
-0.103033 -0.0749843 -0.346435
-0.0414563 -0.070404 -0.380454
0.209496 -0.0740848 0.276324
0.211526 -0.0724389 0.227653
0.21188 -0.0713445 0.193627
0.21208 -0.0704648 0.16613
0.212249 -0.0697753 0.144603
0.212469 -0.0690949 0.123446
0.221337 -0.0530195 -0.370254
0.189874 -0.0545956 -0.373048
0.16254 -0.0561988 -0.368074
0.100892 -0.0598208 -0.356653
-0.00732207 -0.0661766 -0.336676
-0.106273 -0.0721546 -0.313152
-0.0788797 -0.06825 -0.390832
0.205831 -0.0706886 0.298283
0.211 -0.0693765 0.262909
0.225362 -0.051653 -0.307716
0.207598 -0.0501579 -0.387607
0.191318 -0.0510179 -0.385995
0.134539 -0.0541382 -0.376317
0.0699179 -0.0576909 -0.365258
0.0345008 -0.0596374 -0.359214
-0.0273834 -0.0629934 -0.350173
0.21177 -0.0636669 0.210446
0.219188 -0.0524911 -0.176303
0.219711 -0.0519258 -0.195621
0.220829 -0.0510277 -0.225825
0.166533 -0.048843 -0.394718
0.105585 -0.0519705 -0.385003
0.00189376 -0.0572814 -0.368837
0.216253 -0.0523936 -0.055641
0.217046 -0.051557 -0.0862548
0.217807 -0.0507471 -0.115902
0.218305 -0.050186 -0.136496
0.21893 -0.0494239 -0.164544
0.224896 -0.0457672 -0.294175
0.225943 -0.0448464 -0.327578
0.149339 -0.0463167 -0.399632
0.126099 -0.0473234 -0.400087
0.0754064 -0.0497022 -0.394095
0.0408899 -0.0513451 -0.389127
-0.0352653 -0.0546799 -0.389247
-0.0625786 -0.0558415 -0.390605
0.21289 -0.0524046 0.0873574
0.213192 -0.0519012 0.0672197
0.213568 -0.0514026 0.0474017
0.213906 -0.0510312 0.032738
0.214389 -0.0505419 0.0134824
0.214913 -0.050059 -0.00544447
0.215664 -0.0493526 -0.0331545
0.00897312 -0.0488614 -0.39918
0.211111 -0.0524188 0.256933
0.211511 -0.0518719 0.23338
0.211939 -0.0508324 0.188055
0.21208 -0.0503319 0.166129
0.212254 -0.0498392 0.144598
0.21247 -0.0493534 0.123445
0.223057 -0.0402383 -0.262535
-0.0158573 -0.0460634 -0.404357
0.206137 -0.049759 0.322441
0.210282 -0.0490125 0.29344
0.226246 -0.0350908 -0.350034
0.20183 -0.0349398 -0.398161
0.219274 -0.0345618 -0.228712
0.226258 -0.0316845 -0.36873
0.117105 -0.0345355 -0.401068
0.0562767 -0.0364285 -0.403054
0.217586 -0.0324998 -0.159884
0.217886 -0.0321555 -0.179441
0.219855 -0.0317556 -0.199455
0.225317 -0.0297982 -0.30438
0.181061 -0.0294518 -0.398625
0.159405 -0.0300655 -0.399101
0.103649 -0.0316339 -0.401008
0.0797034 -0.0323073 -0.401832
0.00169408 -0.0344998 -0.40461
0.205018 -0.0370175 0.336144
0.210743 -0.0349561 0.211465
0.212678 -0.0324729 0.0529647
0.212607 -0.0321798 0.0337589
0.21307 -0.0318721 0.0144904
0.213704 -0.0314229 -0.0136994
0.21413 -0.0310615 -0.0365281
0.213809 -0.0306681 -0.0626871
0.214593 -0.0304414 -0.0761396
0.21581 -0.0299453 -0.106414
0.218268 -0.0294206 -0.136474
0.224093 -0.0270107 -0.283683
0.224355 -0.0253799 -0.389463
0.039067 -0.0299402 -0.402512
0.20968 -0.0322344 0.312341
0.210432 -0.0317158 0.275324
0.20959 -0.0315869 0.264394
0.20914 -0.0312876 0.241553
0.212132 -0.0304925 0.187868
0.212196 -0.0302683 0.171427
0.212249 -0.0299756 0.149907
0.210367 -0.0297558 0.130534
0.210206 -0.0294808 0.109964
0.210309 -0.0291338 0.084528
0.220698 -0.0243059 -0.254455
0.0225227 -0.0267968 -0.402223
-0.0935849 -0.0295744 -0.391492
0.199786 -0.021845 -0.22303
0.226109 -0.0200239 -0.334084
-0.0257753 -0.0241728 -0.402228
0.20316 -0.0241296 0.350856
0.19149 -0.0233592 0.253787
0.188187 -0.0202655 -0.0631456
0.203282 -0.0196206 -0.102796
0.204322 -0.0188374 -0.179892
0.19881 -0.0187288 -0.200042
0.182367 -0.0187817 -0.222237
0.22626 -0.016751 -0.353183
0.208785 -0.0195116 0.331883
0.167744 -0.019438 0.25415
0.182459 -0.0190253 0.22799
0.188634 -0.0187998 0.210582
0.190596 -0.0186211 0.191891
0.191975 -0.0184131 0.168604
0.190219 -0.0182745 0.148617
0.188111 -0.0181458 0.129259
0.178833 -0.0181243 0.111082
0.178377 -0.0178426 0.0756672
0.190533 -0.0174777 0.0511163
0.19192 -0.0172925 0.0306513
0.19321 -0.0171125 0.010666
0.190234 -0.0169811 -0.0104812
0.185806 -0.0168804 -0.030274
0.173403 -0.0168969 -0.0490011
0.154096 -0.0170422 -0.0634376
0.172188 -0.0165975 -0.0878732
0.183444 -0.0162847 -0.107517
0.18671 -0.0160554 -0.130258
0.188929 -0.0158825 -0.147812
0.183033 -0.0156977 -0.180418
0.174863 -0.0156528 -0.19962
0.133529 -0.0160898 -0.215024
0.145053 -0.0144673 -0.395341
0.134105 -0.0146134 -0.395694
0.209687 -0.0148892 0.288068
0.147653 -0.0153435 0.256126
0.130069 -0.0155237 0.255192
0.111382 -0.0157194 0.254876
0.149731 -0.0150145 0.207563
0.15485 -0.0148591 0.191547
0.159119 -0.0146493 0.165501
0.152536 -0.0145831 0.144014
0.121461 -0.0148027 0.126751
0.11667 -0.014776 0.114516
0.100618 -0.0148233 0.0951257
0.151729 -0.0139745 0.0463996
0.15424 -0.0138739 0.0346867
0.156464 -0.0136572 0.00413066
0.137993 -0.0137234 -0.0162989
0.115361 -0.0139979 -0.0107597
0.0669829 -0.0146795 0.0161023
0.0420736 -0.0149815 0.0221796
0.0421435 -0.014853 0.00197792
0.0273718 -0.0148778 -0.0188302
0.0115757 -0.0149474 -0.0342519
-0.0067755 -0.0151763 -0.0287502
-0.0549235 -0.0158255 -0.00664294
-0.0545909 -0.0156909 -0.0273744
-0.0545684 -0.0155628 -0.0475963
-0.0549598 -0.0154114 -0.072203
-0.0555841 -0.0152966 -0.0913922
0.02043 -0.0142303 -0.132861
0.0280814 -0.0140142 -0.15424
-0.0524566 -0.0149843 -0.135557
0.203012 -0.0115125 -0.257204
0.218067 -0.0112893 -0.267319
0.223685 -0.0109996 -0.303734
0.215002 -0.0105477 -0.389755
0.201941 -0.010671 -0.392101
0.184546 -0.0108469 -0.393392
0.108341 -0.011639 -0.395619
0.0846682 -0.0118848 -0.396362
0.0599986 -0.0121408 -0.397143
0.0342356 -0.0124082 -0.397957
-0.113624 -0.0140157 -0.391125
0.209719 -0.0107443 0.312298
0.204563 -0.0105909 0.269689
0.0858636 -0.0114458 0.260373
0.123449 -0.0109538 0.214317
0.0973542 -0.0110726 0.196955
0.08214 -0.0111681 0.192653
0.0498514 -0.0114286 0.196306
0.0985492 -0.0105161 0.0757256
0.0950437 -0.0104841 0.0627699
0.0969561 -0.0103487 0.0359973
0.0974317 -0.0102537 0.0157588
0.096034 -0.0100716 -0.0269144
0.0749485 -0.0102038 -0.0329131
-0.0593137 -0.0114669 0.0221003
-0.0565999 -0.0108493 -0.11011
-0.0106509 -0.00920044 -0.398353
-0.0776376 -0.00973941 -0.391099
0.0705944 -0.00695793 0.268204
0.0364563 -0.00688412 0.183836
0.118323 -0.00625024 0.0868869
0.1178 -0.00604898 0.0117314
0.12405 -0.00591864 -0.0259159
0.0513643 -0.00620266 -0.0427246
0.0329521 -0.00628906 -0.0416477
-0.0568233 -0.00635955 -0.165865
0.201702 -0.00488412 -0.277784
0.224083 -0.00465838 -0.323645
0.225435 -0.00459865 -0.343427
0.208845 -0.00216782 0.331816
0.184771 -0.00215064 0.272505
0.10615 -0.00226343 0.265817
0.123458 -0.00216493 0.18572
0.061769 -0.00225369 0.18077
0.0999022 -0.00213845 0.116989
0.120302 -0.00206047 0.0647857
0.121931 -0.00203868 0.0433874
0.141467 -0.00197024 0.000296175
0.225833 -0.00151235 -0.365507
0.00986373 -0.00181135 -0.395857
0.139482 0.00221691 0.27009
0.101172 0.00219037 0.176597
0.0800747 0.00221766 0.171512
0.0492187 0.00225592 0.162232
0.0230601 0.00209898 -0.0553049
-0.061904 0.00210904 -0.186352
0.201666 0.00666172 0.378231
0.207707 0.00656317 0.351967
0.206488 0.00640493 0.291526
0.0814283 0.00693179 0.276699
0.143386 0.00640248 0.185027
0.124159 0.00645943 0.173868
0.0849606 0.00647055 0.112379
0.139052 0.00605863 0.0508674
0.127312 0.00589808 -0.0280327
0.0522131 0.0061845 -0.0479947
-0.0704248 0.00683379 -0.0135847
-0.0700887 0.00677602 -0.0343429
-0.0700079 0.0067207 -0.054625
-0.0705836 0.00667013 -0.0742544
-0.0695193 0.00657154 -0.108858
-0.0679512 0.00651091 -0.128613
-0.0665604 0.00641473 -0.161781
-0.0664438 0.00629218 -0.206816
0.20114 0.00479457 -0.311764
-0.0384578 0.00566299 -0.392202
-0.109247 0.00598441 -0.392036
0.208453 0.0107326 0.30758
0.193517 0.010754 0.287333
0.164673 0.0109439 0.28112
0.0622008 0.0117225 0.282048
0.14252 0.0106304 0.174622
0.0972673 0.0108946 0.157408
0.0842033 0.0109658 0.151309
0.0554286 0.0111094 0.134945
0.0874504 0.0106846 0.094462
0.135094 0.00998466 0.0191981
0.105538 0.00997277 -0.0328927
0.0947202 0.0100424 -0.0355668
0.072543 0.0101856 -0.0409796
-0.0710381 0.0110328 -0.0936444
0.203808 0.00790632 -0.326049
0.20364 0.00763479 -0.386459
0.176706 0.00783091 -0.3881
0.155159 0.00799203 -0.388478
0.144348 0.00807249 -0.388752
0.110203 0.00832707 -0.389516
0.0842745 0.00852279 -0.389564
0.061385 0.0086908 -0.390663
0.0361042 0.00887826 -0.391457
-0.0213493 0.0093083 -0.392372
-0.0655453 0.00967011 -0.386209
-0.0930392 0.0098535 -0.391607
0.144492 0.0155487 0.283301
0.113927 0.0158689 0.282796
0.14015 0.0147122 0.143715
0.0801193 0.015276 0.132433
0.0729812 0.0151121 0.094567
0.0937948 0.014762 0.0740198
0.123606 0.0141201 0.0223808
0.124354 0.0139556 -0.00238884
-0.0749446 0.0161754 0.0152051
-0.071017 0.0145476 -0.23569
-0.133545 0.0142279 -0.3909
0.208739 0.0195127 0.331935
0.0416771 0.0214297 0.28821
0.121277 0.0191236 0.137711
0.102443 0.019327 0.131208
0.056692 0.0197932 0.112003
0.0428946 0.0199748 0.111256
0.0157714 0.020369 0.114363
0.0880752 0.0188814 0.0523495
0.10219 0.0185269 0.0323619
-0.0710021 0.0191713 -0.178193
0.200386 0.014076 -0.350895
0.090056 0.0254387 0.293356
0.0698427 0.0258406 0.299985
0.101448 0.0234319 0.110424
-0.0844594 0.0271543 0.173999
-0.0831593 0.0268868 0.14925
-0.0824082 0.0266367 0.125331
0.0957348 0.0224031 -0.00269675
-0.0825733 0.0258573 0.0466084
-0.0784656 0.0252868 -0.00393915
-0.077809 0.0250657 -0.0251012
-0.0710732 0.0225655 -0.265488
0.183284 0.0174152 -0.358252
0.200987 0.017034 -0.366992
-0.0683283 0.0217461 -0.343369
0.0235412 0.0198058 -0.38494
-0.0693663 0.021497 -0.370185
0.199541 0.0291694 0.400382
0.205232 0.0280096 0.31113
0.189684 0.0282263 0.303563
0.170376 0.0285586 0.299558
0.143464 0.0290523 0.296571
0.152836 0.0272013 0.154603
0.0882424 0.0277573 0.0938699
0.0433321 0.0286488 0.0946404
-0.0845413 0.0312676 0.103701
-0.084662 0.0310049 0.0811225
-0.0809016 0.0289921 -0.0840154
-0.0771459 0.0283873 -0.12924
-0.0755596 0.0279642 -0.16262
-0.0718509 0.0264418 -0.286078
-0.0703723 0.0259786 -0.323057
-0.108364 0.025913 -0.392219
0.205622 0.0332437 0.380051
0.20772 0.0328155 0.351952
0.114146 0.0342482 0.301117
0.157709 0.0315899 0.177796
-0.0853051 0.0350495 0.0265036
-0.082194 0.0338959 -0.0534414
-0.0812328 0.0331972 -0.103412
-0.0772549 0.0316415 -0.211589
-0.0767879 0.0312149 -0.242297
-0.0903698 0.0294924 -0.392171
0.0526469 0.0405277 0.309779
0.0340632 0.0409751 0.307822
0.141531 0.0355108 0.131772
0.122389 0.0357498 0.1153
0.0697551 0.0364946 0.0757324
-0.0794787 0.0362043 -0.192906
-0.0778438 0.0351469 -0.25904
0.205898 0.0412232 0.328913
0.183876 0.0416335 0.315971
0.0688965 0.0450029 0.319915
-0.0942434 0.0469918 0.162811
-0.0933006 0.0466475 0.144325
-0.0933756 0.0450831 0.0530379
-0.0764707 0.0377639 -0.345199
0.205096 0.0466931 0.387182
0.206276 0.0463831 0.372811
0.207406 0.0459584 0.352314
0.16002 0.0467851 0.316604
0.0903368 0.0490277 0.318232
-0.0310518 0.0529262 0.320649
-0.0512862 0.0536507 0.324983
0.111424 0.0442704 0.102691
0.0743555 0.0446755 0.0620229
-0.0954993 0.0512105 0.122339
-0.0951458 0.0507575 0.0990486
-0.0951695 0.0504354 0.0820255
-0.0890869 0.0468873 -0.0948665
-0.0875882 0.0464579 -0.115001
-0.0856804 0.0458398 -0.144398
-0.142557 0.0429301 -0.39299
0.138167 0.0520842 0.320635
0.119273 0.05275 0.321067
0.00237 0.0568691 0.32373
-0.111038 0.0614737 0.355619
0.0922623 0.0486888 0.0803586
-0.0943265 0.0537167 0.0101632
-0.0931106 0.0532207 -0.0116793
-0.092663 0.0528753 -0.0275617
-0.0871879 0.0497872 -0.167058
-0.086522 0.0489106 -0.208143
-0.0882109 0.0484322 -0.233998
-0.0809078 0.0463052 -0.324172
-0.107128 0.0457978 -0.392476
0.176692 0.0553688 0.329989
0.0700987 0.0595786 0.338057
0.0497637 0.0602053 0.331786
0.0308427 0.0608835 0.330161
-0.0489461 0.0640364 0.336276
-0.112847 0.0666117 0.343399
-0.108995 0.0634509 0.209859
-0.105006 0.0628176 0.188486
-0.094941 0.0570059 -0.0520621
-0.0949336 0.0565497 -0.0722546
-0.0841248 0.0493183 -0.374438
-0.0850133 0.0490972 -0.385716
0.00380647 0.0669886 0.335537
-0.0196103 0.0679785 0.336943
-0.113963 0.0715113 0.323925
0.116797 0.0573785 0.130524
0.102171 0.0573415 0.104534
-0.11019 0.0692103 0.23588
-0.106858 0.0675046 0.171508
-0.105307 0.0668306 0.146463
-0.10467 0.0665058 0.13421
-0.105057 0.0645761 0.0544298
-0.0916132 0.0580001 -0.192741
-0.089872 0.0564092 -0.255069
-0.0878685 0.0556916 -0.281143
-0.0868323 0.0552363 -0.29808
-0.140293 0.0550923 -0.393446
0.121812 0.0668307 0.337527
0.101702 0.067747 0.338858
-0.0610243 0.0752653 0.353597
-0.115151 0.0761841 0.298098
-0.114053 0.0755957 0.277471
-0.11369 0.0752314 0.264169
-0.107198 0.0709737 0.112476
-0.107072 0.0703637 0.089396
-0.107032 0.0699162 0.0723767
-0.104545 0.0686103 0.026682
-0.101012 0.0670133 -0.0283796
-0.102548 0.0655047 -0.0885504
-0.0877498 0.0583134 -0.338348
0.183767 0.0688139 0.34742
0.163352 0.0696888 0.344504
0.140954 0.0706977 0.343057
0.0172397 0.0766741 0.349488
-0.105603 0.0728045 0.00571203
-0.100667 0.0690873 -0.118796
-0.0986243 0.0681646 -0.148333
-0.0975336 0.0674474 -0.172124
-0.0968955 0.0662661 -0.213247
0.205496 0.0729539 0.373728
0.0694679 0.0794743 0.364868
0.0494534 0.0802762 0.358281
-0.00572455 0.0830085 0.357619
-0.129391 0.0891628 0.357162
-0.125543 0.0884652 0.340195
-0.12297 0.0876668 0.317715
-0.120391 0.0845685 0.218074
-0.119374 0.0837534 0.19243
-0.113342 0.0791536 0.0481914
-0.107298 0.0769806 -0.0146068
-0.106312 0.0759858 -0.0463336
-0.106335 0.0753796 -0.0667095
-0.0995883 0.0703071 -0.225613
-0.101176 0.0654901 -0.389888
0.157661 0.0793806 0.357115
0.140423 0.0802721 0.356471
0.114773 0.081669 0.357739
-0.122177 0.0906324 0.244778
-0.118684 0.0880043 0.167484
-0.0955461 0.0701022 -0.360127
-0.171604 0.0731448 -0.391153
0.194163 0.0822253 0.367585
-0.126346 0.0976769 0.293624
-0.125396 0.0969383 0.273113
-0.124831 0.0951745 0.221275
-0.119805 0.0923172 0.144182
-0.118788 0.0914482 0.119881
-0.118308 0.0908279 0.102122
-0.11838 0.0900673 0.0792397
-0.116078 0.0882178 0.0277461
-0.112526 0.0861692 -0.0276139
-0.105124 0.0802576 -0.192132
-0.103174 0.0780473 -0.255009
-0.100178 0.0767111 -0.289981
-0.0986124 0.0757787 -0.315265
-0.14337 0.0756897 -0.392826
-0.111716 0.0877402 -0.11389
-0.108771 0.0856736 -0.167636
-0.100533 0.0792913 -0.335044
-0.139005 0.111154 0.351238
-0.135126 0.110034 0.327479
-0.128454 0.104625 0.192578
-0.123485 0.0989826 0.0485067
-0.118887 0.097183 0.00760126
-0.117817 0.0965009 -0.0090276
-0.116703 0.0933628 -0.0919093
-0.112238 0.0915629 -0.133043
-0.11111 0.0907691 -0.152593
-0.109789 0.0882821 -0.217544
-0.162825 0.0850754 -0.392893
-0.132913 0.112105 0.246293
-0.129116 0.108836 0.168467
-0.127737 0.108006 0.149408
-0.118376 0.0988367 -0.0710287
-0.110365 0.0860082 -0.387946
-0.138236 0.119982 0.302907
-0.13623 0.118437 0.268242
-0.135771 0.116559 0.222806
-0.135077 0.115724 0.203419
-0.129128 0.112193 0.126487
-0.128675 0.111672 0.114436
-0.128061 0.110438 0.0850947
-0.127941 0.109963 0.0736113
-0.125731 0.107946 0.027678
-0.121442 0.105168 -0.0334973
-0.120881 0.104276 -0.0545062
-0.113992 0.0981639 -0.193355
-0.114938 0.096414 -0.237995
-0.111238 0.0950501 -0.265364
-0.107796 0.0907619 -0.365114
-0.185826 0.0949606 -0.392382
-0.149048 0.128188 0.352507
-0.121553 0.107042 -0.0996373
-0.111091 0.0979993 -0.29516
-0.10934 0.0959354 -0.34085
-0.149202 0.132743 0.331909
-0.141887 0.128705 0.252906
-0.134701 0.119413 0.0549705
-0.12878 0.116876 0.00756234
-0.127564 0.116044 -0.00920659
-0.122182 0.110784 -0.119056
-0.120542 0.109774 -0.139141
-0.11823 0.106667 -0.205478
-0.111729 0.100941 -0.323993
-0.13059 0.0993497 -0.391505
-0.149522 0.137256 0.311718
-0.146812 0.136022 0.289478
-0.141772 0.130453 0.176997
-0.137566 0.127777 0.125941
-0.12806 0.11842 -0.0612834
-0.121705 0.113487 -0.157744
-0.153396 0.105195 -0.390806
-0.167299 0.106211 -0.392007
-0.149373 0.140703 0.271539
-0.148825 0.138773 0.232147
-0.149614 0.137646 0.207276
-0.142677 0.134501 0.153186
-0.139512 0.131876 0.103639
-0.139111 0.130725 0.0802594
-0.137473 0.12839 0.0342266
-0.115903 0.108017 -0.355283
-0.132837 0.127204 -0.0794168
-0.125586 0.12162 -0.179711
-0.124304 0.118334 -0.243702
-0.121794 0.116785 -0.270691
-0.119408 0.115073 -0.301168
-0.18661 0.116136 -0.392229
-0.154386 0.147645 0.191732
-0.151855 0.146382 0.171437
-0.149709 0.145182 0.151708
-0.14625 0.140246 0.0616258
-0.141112 0.137363 0.0142146
-0.138241 0.135647 -0.0143196
-0.137647 0.135032 -0.0252627
-0.134039 0.130926 -0.0989936
-0.131918 0.129676 -0.119731
-0.130057 0.128472 -0.139984
-0.128454 0.127072 -0.164512
-0.127704 0.125076 -0.202028
-0.120636 0.11831 -0.321629
-0.123212 0.115257 -0.385232
-0.161438 0.157834 0.273922
-0.160558 0.156323 0.24703
-0.151302 0.14919 0.12867
-0.149624 0.147725 0.103981
-0.139345 0.138292 -0.0558436
-0.130258 0.12877 -0.219328
-0.152915 0.151863 0.0826873
-0.1604 0.126545 -0.389395
-0.167151 0.156706 0.056466
-0.155871 0.154631 0.0388752
-0.145393 0.146654 -0.0837818
-0.136248 0.140291 -0.180316
-0.13424 0.136174 -0.249298
-0.12774 0.130377 -0.340304
-0.128278 0.129286 -0.360378
-0.154477 0.157411 0.00494778
-0.151933 0.155814 -0.018003
-0.145632 0.150156 -0.103844
-0.143098 0.148678 -0.124775
-0.141889 0.147955 -0.13507
-0.140038 0.146313 -0.159932
-0.133767 0.138649 -0.279997
-0.176799 0.136411 -0.390123
-0.153667 0.158912 -0.0489395
-0.142016 0.148503 -0.201445
-0.141926 0.147108 -0.224359
-0.133997 0.140886 -0.313904
-0.147392 0.151339 -0.23608
-0.162432 0.16373 -0.13641
-0.149551 0.159857 -0.175265
-0.145353 0.153752 -0.263432
-0.139739 0.148676 -0.333202
-0.140278 0.147952 -0.3454
-0.145655 0.156402 -0.289445
-0.148072 0.150963 -0.375984
