ply
format ascii 1.0
comment Created by Open3D
element vertex 1612
property double x
property double y
property double z
end_header
-0.123759 0.165484 -0.378032
0.128941 -0.0965328 0.151429
0.0880186 0.165484 -0.212991
-0.0157043 -0.0965328 0.158383
-0.159997 0.159574 0.394399
0.109035 -0.102443 -0.410339
0.0119575 0.159574 -0.133192
0.0908713 0.165484 0.164231
0.123401 -0.102443 -0.148957
0.120725 0.165484 0.374975
0.130973 -0.102443 -0.402821
-0.0563041 -0.00190425 -0.434397
0.127015 0.00155142 -0.435382
0.14906 -0.0965328 -0.400781
-0.133337 0.0310281 0.0791102
-0.0578583 -0.0837115 0.000492685
0.111214 0.0310281 0.0477788
-0.0486188 -0.0649739 -0.441292
-0.00643958 0.0310281 0.41375
0.0838002 0.159574 -0.126228
-0.0573358 0.159574 0.271597
0.166962 0.0254319 0.0111618
0.0277509 -0.102443 -0.302009
-0.0861579 -0.102443 -0.0243079
0.0559745 -0.0863389 0.441292
0.0133761 0.165484 -0.342615
-0.163022 -0.0216548 0.0822533
-0.0007217 0.0048784 0.441292
0.0515206 0.0241645 0.000492685
0.140118 -0.0955475 0.00846113
-0.0174755 -0.102443 -0.440508
-0.00995041 0.0310281 0.21875
0.146892 0.0320135 0.369098
-0.0833968 -0.102443 0.385067
0.0395796 0.0320135 0.0729549
-0.0138517 0.158589 -0.290985
0.0299426 0.136748 -0.441292
0.0639374 -0.0965328 0.152367
0.048676 0.165484 0.412672
0.0987852 0.165484 -0.325478
-0.131826 -0.102443 -0.298836
-0.134223 -0.102443 0.386887
0.014157 0.0811751 -0.434397
0.12232 -0.0955475 0.116192
-0.163022 0.14059 -0.03072
0.166962 0.122078 -0.0763813
0.0108863 -0.102443 -0.346153
-0.163022 0.0917244 0.393565
0.148354 -0.0965328 -0.104877
0.0996986 -0.0955475 0.203359
-0.163022 -0.0135484 -0.37261
0.131898 0.165484 0.269918
0.141661 -0.131505 -0.330852
0.0680445 -0.0955475 -0.305005
-0.111233 -0.0965328 0.121975
-0.0408951 -0.0965328 -0.0103905
0.052519 0.158589 -0.427194
0.0855003 0.0182823 -0.441292
-0.156788 0.165484 0.364444
0.143056 -0.140714 -0.316005
-0.00842748 -0.0879936 0.434397
0.147621 -0.0965328 0.110738
0.166962 0.0500147 0.272999
0.150663 -0.0534942 0.435382
-0.01645 0.165484 0.361932
-0.132864 0.0211276 -0.434397
0.129807 0.0310281 0.133951
-0.163022 0.00314767 0.303188
9.93777e-05 -0.102443 -0.297811
-0.163022 0.137315 0.360473
0.166962 0.072895 0.0457797
0.0740244 0.165484 0.409135
-0.0816332 0.165484 0.198561
0.0544648 0.158589 -0.404376
-0.0415454 -0.0955475 -0.0707665
0.0382608 0.0310281 0.256005
0.150223 -0.102443 -0.126845
0.166962 0.1318 0.357367
0.105637 0.00323072 0.435382
-0.163022 0.0975624 0.00376252
-0.0416652 0.0320135 0.276794
0.019541 -0.102443 -0.254633
-0.163022 0.0653751 0.261113
0.0455111 0.165484 0.434124
0.166962 -0.081816 -0.216428
-0.11064 0.0310281 0.289026
-0.156539 -0.0427393 -0.441292
0.0461163 0.158589 -0.0140786
0.0330549 -0.0965328 0.0539243
-0.163022 -0.039353 -0.0646495
-0.110508 0.158589 -0.0884796
-0.0288152 -0.0160444 -0.441292
-0.108852 0.159574 -0.367216
-0.163022 -0.0112341 0.132182
0.143685 0.088008 -0.000492673
0.0888621 -0.0955475 -0.395591
-0.0837692 -0.0955475 0.12692
0.106779 0.0320135 0.349188
0.166962 0.0736898 0.157685
-0.0266713 -0.0955475 0.409244
0.138107 0.159574 -0.35807
-0.0976084 0.158589 -0.259713
0.017599 -0.102443 0.284337
0.0727132 0.0103508 -0.435382
-0.0149114 -0.0955475 0.299129
0.0487958 0.0310281 0.383786
-0.108457 -0.0965328 0.383459
0.156358 -0.102443 0.246529
-0.048501 0.0208666 -0.441292
-0.027715 0.0955887 -0.434397
0.0356036 -0.052772 0.434397
-0.123021 -0.0965328 0.146542
-0.011495 0.158589 0.00223395
-0.028854 -0.102443 -0.397686
0.114156 0.159574 -0.309917
0.0225472 -0.0175831 -0.000492673
-0.0625724 0.0320135 0.247531
0.0637564 0.165484 -0.231191
-0.163022 0.053647 0.393644
-0.0445881 -0.102443 0.272003
-0.11615 0.165484 0.262025
-0.147157 -0.0955475 0.29426
0.132691 0.159574 0.058764
0.0193845 0.165484 -0.274911
0.0884636 0.165484 0.30991
-0.0972278 -0.0955475 -0.353488
-0.0186006 0.159574 0.392816
-0.150528 0.0143815 0.434397
0.135077 0.132524 0.434397
-0.0139959 -0.0955475 -0.208671
-0.0126917 0.165484 -0.381216
-0.0322981 -0.102443 0.411114
0.162659 -0.102443 0.123822
-0.0510461 -0.0386632 0.441292
0.103021 -0.0965328 0.19135
-0.163022 -0.0183148 0.198515
0.0889242 0.165484 0.0599699
0.0941326 -0.0955475 0.251556
-0.163022 0.148546 -0.421827
0.0815126 0.159574 -0.304027
0.115069 0.125873 -0.434397
-0.163022 0.0701263 -0.428602
0.034651 -0.102443 -0.229494
0.118353 -0.102443 0.107711
-0.0994643 0.0310281 0.0182353
-0.163022 0.144779 -0.276842
-0.158758 -0.0965328 -0.253934
-0.0706134 0.165484 0.368099
-0.008881 -0.0955475 -0.40721
-0.164007 0.16459 -0.345424
0.0794812 0.0310281 0.217786
0.135183 0.0320135 0.346841
-0.163022 0.0158074 -0.206087
0.0229782 -0.0514092 0.441292
0.107235 -0.161545 -0.320587
-0.141547 0.159574 0.165163
0.0417792 -0.0694534 -0.000492673
-0.0386422 -0.0955475 -0.175787
0.151201 0.03158 0.0389198
-0.0432482 0.158589 0.304982
0.00123107 0.0330885 0.000492685
-0.0668038 -0.0965328 0.16047
0.166962 0.153381 -0.115838
-0.155047 0.159574 -0.161635
0.103107 0.165484 -0.169321
0.0535735 0.0320135 0.146251
-0.163022 0.139119 -0.302867
0.143311 -0.0282627 -0.434397
0.126634 0.165484 -0.435296
-0.0012384 0.0310281 0.0272648
0.0692037 -0.0965328 0.0473021
0.0714764 -0.0965328 0.383694
0.135761 -0.0965328 0.358623
0.106041 0.0320135 0.193025
-0.032988 0.158589 -0.0398666
0.166962 0.133138 0.129527
-0.00554982 -0.0955475 0.236882
0.0286082 0.158589 0.208277
-0.029756 0.159574 -0.302879
0.137919 0.159574 0.0914579
-0.163022 -0.0334522 0.0996571
0.0083098 -0.0965328 0.251437
-0.0489876 -0.102443 -0.426857
-0.0615735 0.0310281 0.0163174
0.149749 -0.0955475 -0.0984247
-0.0627814 0.159574 -0.321227
0.0140497 -0.0955475 -0.0381077
0.166962 0.0520464 -0.292495
-0.0717806 -0.0955475 -0.354109
0.0953322 0.0310281 0.126943
0.118807 0.0457556 0.000492685
0.166962 -0.0357806 -0.394029
0.121685 -0.0965328 -0.269131
0.0296626 0.12968 0.000492685
0.0284366 -0.0965328 0.0748561
-0.107658 -0.0965328 0.350726
-0.0504513 -0.0955475 -0.164306
0.0683585 0.0310281 0.108088
0.0274142 0.159574 -0.0960498
0.0814318 0.158589 -0.131124
0.166962 0.163318 0.0544093
-0.146257 0.0613385 -0.434397
-0.0984692 -0.0829525 0.435382
-0.0878106 0.0907423 0.435382
0.0733228 -0.101593 -0.441292
0.104018 -0.0965328 0.229372
0.0380605 -0.0955475 0.195762
-0.0335111 0.0692499 0.441292
-0.0497376 0.011359 -0.000492673
0.166962 0.0860911 0.313783
0.0165051 -0.0706807 0.000492685
0.117482 -0.102443 -0.416955
-0.0618122 -0.102443 0.178726
0.099883 0.159574 0.407812
-0.0812781 0.158589 0.0135283
0.0350189 0.158589 0.406015
0.00481356 -0.042627 0.434397
0.0261925 0.165484 0.310757
-0.0435308 -0.0895956 -0.441292
-0.00822906 -0.0955475 -0.235341
0.0253488 0.159574 0.420745
-0.0698795 0.0320135 0.19379
-0.082386 -0.0630756 -0.000492673
-0.0927944 -0.102443 -0.179645
0.116733 -0.0965328 0.334147
-0.029568 -0.0955475 -0.0695868
0.0911876 -0.0965328 0.14004
-0.0735951 -0.0158624 -0.434397
-0.0624531 0.0320135 0.0622006
-0.0820423 0.0310281 0.381454
-0.0577764 0.0161023 -0.000492673
0.166962 -0.0338527 -0.199021
-0.00186069 -0.0965328 0.340255
0.108028 -0.102443 0.304788
0.0440803 0.14195 0.441292
-0.166962 0.148825 0.215015
0.141242 0.159574 0.113282
0.166962 0.103248 -0.331416
-0.107248 -0.102443 -0.408969
-0.0198794 -0.0965328 -0.120518
-0.163022 0.0210204 0.366066
-0.0594572 0.159574 0.0117407
-0.155813 0.0320135 0.193586
0.166962 0.0971109 0.219788
0.166962 -0.0271849 0.34965
-0.11086 0.0320135 0.149675
0.0520147 0.159574 -0.350775
0.0952377 0.0481899 -0.435382
0.0846115 0.00196616 -0.000492673
0.159578 0.165484 -0.264728
-0.041607 0.159574 -0.13059
0.00121178 -0.0965328 0.421057
0.133496 0.0755262 0.441292
-0.123789 0.165484 -0.0469284
-0.0458628 -0.0955475 -0.140222
-0.0304756 -0.0955475 0.0411375
0.0466466 -0.0965328 -0.406816
0.090682 -0.0955475 -0.253393
-0.112274 0.158589 0.368967
0.166962 0.113772 0.118212
-0.0483618 0.165484 0.345412
-0.0774053 -0.0965328 -0.0553376
0.0439504 0.109447 -0.435382
0.053613 -0.0955475 0.307735
-0.0869393 0.0992208 0.435382
-0.135679 0.0365679 0.434397
-0.147343 0.165484 -0.0582292
0.0622255 -0.102443 0.220588
0.0309217 0.165484 0.347391
-0.116617 -0.102443 0.415959
-0.0534312 0.158589 -0.430815
-0.156238 0.0320135 0.178367
-0.0184803 0.159574 -0.122928
-0.0592303 -0.0843803 0.441292
0.166962 -0.0908683 0.291777
-0.153144 -0.0955475 -0.0397376
0.0922801 -0.000642429 0.000492685
0.00954587 0.158589 -0.279999
0.129634 0.0310281 0.213912
-0.114939 -0.102443 -0.129974
0.127254 -0.102443 -0.0639473
0.00917742 0.0320135 0.0391168
0.142817 0.0310281 0.0584618
-0.0149128 -0.102443 -0.419358
0.166962 0.127998 0.213907
-0.143545 0.100027 -0.435382
-0.0645881 -0.102443 -0.214028
0.0400763 0.0960628 0.435382
0.0210838 -0.0965328 0.420058
-0.0180326 -0.0965328 -0.0767919
0.166962 -0.0384578 -0.132505
-0.103874 -0.165484 0.325546
0.166962 0.076205 0.247808
0.166962 0.0963315 0.149315
-0.0356131 -0.0344714 -0.434397
-0.159142 0.0837044 0.434397
0.0333112 0.165484 0.38432
0.166962 0.108288 -0.0891219
-0.133705 0.0758419 0.435382
0.0607937 0.165484 0.222038
-0.0782462 -0.102443 -0.330341
-0.163022 -0.0789046 0.288382
-0.148349 0.138659 -0.434397
0.166962 -0.0797722 -0.35645
0.0789542 0.113391 0.000492685
-0.0413638 0.159574 -0.34836
-0.000355691 0.165484 -0.19586
0.166962 -0.0659439 0.303301
0.0410352 0.159574 0.0538744
-0.12889 0.158589 -0.2707
0.0622684 -0.102443 -0.124522
-0.0549688 -0.0965328 -0.314814
-0.0782572 0.165484 0.370667
-0.102924 0.0320135 0.107894
-0.112404 -0.0965328 0.215491
0.0336983 0.158589 -0.127156
-0.148023 -0.0955475 -0.246914
0.0830989 0.165484 -0.00982443
-0.0990237 0.156958 -0.441292
0.087111 0.159574 0.317139
0.148176 0.165484 0.383865
0.103247 -0.0955475 0.220591
-0.080232 0.0310281 0.0764898
0.0975918 0.165484 0.0547149
-0.0216065 0.159574 0.0314599
0.166962 0.071715 0.336876
0.0540767 0.159574 0.101243
-0.13084 -0.0965328 0.0160301
-0.131892 0.165484 -0.0123724
-0.102166 0.074836 0.434397
-0.136426 -0.130438 0.320954
-0.0260446 -0.0965328 0.419882
-0.0880859 0.159574 -0.0165688
-0.0122818 0.146874 -0.000492673
0.0906172 0.158589 -0.287413
-0.0720353 0.165484 0.301836
-0.163022 0.107523 -0.0973528
-0.164007 0.163426 -0.0501693
-0.136823 0.0310281 0.0325568
-0.0540636 -0.0955475 -0.183482
0.0101538 0.159574 0.229481
-0.0590393 0.126034 -0.000492673
0.00665703 0.0310281 0.343355
0.0129205 0.0395404 -0.435382
-0.101947 -0.102443 0.396805
0.0265353 0.0524751 -0.441292
0.0804013 -0.0513045 -0.435382
0.113269 0.141318 -0.434397
0.131298 0.123481 -0.441292
-0.0863547 0.165484 0.0509104
-0.0760217 -0.0163305 -0.434397
0.00984068 0.0310281 0.0164902
0.0965378 -0.0965328 0.323907
-0.0367312 -0.102443 -0.0572739
-0.0756255 -0.0965328 0.202656
0.08519 0.159574 0.426373
-0.138595 0.0310281 0.160122
-0.147779 -0.0955475 -0.116581
0.166962 -0.0232139 0.321255
0.01141 -0.102443 -0.0794669
-0.0445803 0.0320135 0.326523
0.0306433 -0.102443 -0.029606
0.116429 0.0297206 0.434397
-0.142944 0.0803823 0.435382
-0.0307889 -0.0367625 -0.434397
-0.047326 0.158589 -0.233837
-0.0593407 -0.0955475 0.0296574
0.107561 -0.0965328 0.227634
-0.0231585 0.0557282 0.435382
-0.0705321 0.0818851 -0.435382
0.0568035 0.158589 0.346879
0.166962 0.0483978 0.431224
-0.0925225 -0.102443 -0.180922
-0.147228 -0.102443 0.00550361
0.128451 0.00712418 0.435382
0.0653183 -0.102443 -0.12478
0.0895893 0.129128 -0.434397
-0.160343 0.0310281 0.133173
-0.160036 -0.0955475 -0.419931
0.113981 -0.102443 -0.0319193
0.129323 -0.0965328 0.322262
0.166962 -0.00299582 -0.384769
0.166962 -0.0362872 -0.242589
-0.162258 0.0320135 0.0162814
0.120458 0.0320135 0.257732
0.0696893 0.00616812 -0.435382
-0.163022 0.0837114 0.264983
-0.147256 -0.0965328 0.00339185
-0.129622 -0.102443 -0.331974
0.0460898 0.165484 0.369834
-0.103385 -0.0535572 0.000492685
-0.158174 0.011419 0.435382
-0.161157 0.159574 -0.0817127
-0.125417 -0.161545 -0.325418
0.142452 -0.16265 -0.316167
-0.0311432 0.0310281 0.250725
0.166962 0.0832467 0.139988
0.0718594 0.159574 0.126978
-0.121293 -0.0965328 0.0666228
-0.0120096 -0.080498 -0.435382
0.121924 0.159574 0.225127
-0.163022 0.0780392 -0.342957
0.0913032 0.165484 -0.143934
0.130379 0.165484 -0.246087
-0.163022 0.130861 0.388977
0.0139808 -0.102443 0.212069
0.0800731 0.159574 0.141702
-0.0881349 0.0320135 0.307205
-0.163022 0.00215997 -0.366886
-0.163688 -0.102443 -0.417474
-0.0328592 -0.102443 -0.123962
-0.109614 0.141519 0.000492685
0.0151619 0.0880248 0.435382
-0.000936747 0.0139515 0.441292
-0.152339 0.165484 -0.0405661
-0.0925747 0.158589 0.268563
0.0982367 -0.102443 -0.341225
-0.132086 0.165484 0.207683
0.0680651 0.0582707 -0.434397
-0.081346 0.159574 -0.129773
-0.0994913 0.159574 0.0934414
-0.125278 -0.102443 -0.0181952
-0.0910286 0.146563 -0.000492673
-0.0776913 -0.102443 -0.278686
0.00486537 -0.0965328 -0.0704421
0.112945 0.159574 0.396459
-0.0710402 0.0310281 0.00992497
0.0735389 -0.102443 0.121269
-0.163022 0.00963567 0.00378318
-0.130634 0.137185 0.441292
-0.016894 0.0872077 0.435382
0.0206927 0.10139 -0.441292
0.00498898 0.0320135 0.114217
-0.10035 0.0819273 -0.000492673
-0.0322682 0.165484 0.0356769
-0.0813558 0.157012 0.435382
-0.036132 0.159574 -0.374374
-0.0482064 -0.0955475 -0.348898
0.135068 0.0320135 0.104655
0.130104 0.0310281 0.363515
-0.131366 0.158589 0.244373
-0.136166 -0.0965328 -0.0226504
-0.0244071 0.0962577 0.441292
-0.100699 0.159574 -0.268461
0.0226506 0.158589 -0.311152
0.140791 0.0310281 0.275741
-0.163022 -0.000475203 -0.253949
-0.141873 0.0310281 0.215318
0.0515333 -0.0430416 -0.441292
-0.00372801 0.0863234 -0.441292
-0.109136 0.165484 0.0376545
0.154869 -0.102443 -0.255045
-0.0795719 0.165484 0.341667
0.0205806 0.159574 0.028398
0.109153 -0.0955475 0.417425
-0.0270703 0.165484 -0.0360024
-0.0230525 0.165484 -0.235045
0.0617782 -0.0965328 -0.191257
0.00212223 0.159574 -0.126282
0.166962 0.135014 0.202503
0.124216 0.158589 -0.0552528
0.166962 0.112869 -0.359201
0.166962 0.142016 0.223672
-0.164007 0.0995175 0.437704
-0.0746412 -0.0965328 0.021253
0.0108808 -0.0965328 0.0293639
0.122775 0.165484 0.0360692
-0.0397493 0.159574 -0.288256
0.145536 0.159574 -0.091206
0.0212923 0.122055 -0.000492673
0.0188752 -0.0955475 0.224171
0.114198 -0.0965328 -0.186703
0.118465 0.165484 -0.00932407
0.00272871 0.159574 0.198024
-0.000177789 0.0932375 0.000492685
-0.0509802 -0.0643086 0.441292
0.0435848 -0.102443 0.158073
-0.152725 0.105189 -0.441292
-0.150829 -0.102443 -0.088302
-0.0310915 0.159574 0.314141
0.112785 0.165484 -0.335374
-0.0520363 0.028249 -0.434397
0.166962 -0.0139485 -0.114191
-0.112685 0.15328 -0.000492673
-0.0702433 -0.0847434 0.441292
0.062054 -0.0262862 0.000492685
0.139891 0.159574 0.277082
0.121285 -0.0965328 0.205444
0.0257336 0.159574 0.177698
0.00510994 -0.102443 -0.357473
-0.0343089 0.159574 -0.128949
-0.0710274 0.121301 -0.434397
-0.163022 -0.0441169 -0.276972
0.162268 -0.102443 0.235605
0.0187145 -0.102443 -0.34231
0.166962 0.131507 -0.0488716
-0.0857533 0.159574 -0.251889
-0.0240196 0.159574 0.157564
0.121574 0.165484 0.332195
0.133535 -0.093313 0.441292
0.0504996 -0.0955475 -0.266461
-0.0564038 0.165484 0.140132
0.0660192 -0.0344818 -0.000492673
0.0704971 0.165484 -0.0379403
-0.0224973 0.165484 0.153455
0.0568616 -0.0965328 0.0174874
-0.117156 -0.0955475 -0.296037
-0.0459925 0.0310281 0.275259
0.117822 -0.102443 0.00746861
-0.0356396 0.120349 0.441292
-0.163022 -0.0776414 0.280224
-0.068055 0.159574 0.257785
-0.109392 -0.102443 0.366082
0.166962 -0.0144567 0.310694
0.035829 0.159574 -0.43426
0.0520057 -0.0955475 -0.21954
0.109371 -0.102443 -0.0609574
-0.0189916 0.0267978 -0.000492673
-0.034428 -0.00792198 -0.000492673
-0.0683009 0.158589 -0.144525
-0.0278067 -0.102443 0.200292
0.117504 -0.00769673 0.434397
-0.125495 0.165484 -0.177311
-0.134258 -0.0965328 -0.0417682
-0.152599 0.158589 0.15496
-0.0536998 0.158589 0.297625
-0.106422 -0.0935871 0.435382
0.000802495 -0.102443 -0.269418
-0.136927 -0.102443 0.0382145
-0.140782 0.158589 0.356238
0.00846423 0.165484 0.439581
0.0924199 0.159574 -0.380841
0.166962 0.155562 0.418908
0.0236512 0.0310281 0.264019
-0.00430831 -0.0357127 0.000492685
0.0806848 -0.0955475 -0.339064
-0.0676116 -0.102443 -0.302458
0.153379 -0.102443 0.332472
0.142748 -0.0965328 -0.0861237
-0.131847 -0.102443 0.0351803
0.140166 0.0104963 -0.000492673
-0.163022 0.121138 -0.0807181
-0.120365 -0.0955475 -0.00505439
-0.163022 0.120039 -0.205489
-0.0371905 0.0320135 0.300923
0.121505 0.165484 -0.112174
0.0284205 -0.0965328 0.225963
-0.0113153 0.158589 -0.336892
-0.13562 -0.102443 0.159134
0.043893 0.159574 0.372236
0.166962 0.0797578 0.13634
0.166962 0.00611312 -0.0908905
0.166962 0.144061 0.285412
0.0833217 0.165484 -0.323814
0.0144268 -0.0209541 0.441292
0.0466401 0.11031 -0.434397
0.029611 -0.102443 -0.00283819
0.0948227 -0.0955475 -0.424138
0.163334 0.165484 0.0583256
-0.163022 0.0098692 -0.168923
0.105743 0.0365892 0.434397
-0.155478 -0.0965328 0.401074
0.032021 -0.0657393 0.434397
0.0559053 0.165484 -0.100651
-0.0241381 -0.077956 0.441292
-0.163022 0.047428 -0.179799
0.12711 -0.0955475 0.238998
-0.0736406 0.0571105 0.000492685
-0.110695 -0.0955475 0.0310078
0.0862841 0.158589 -0.102489
0.0499261 0.165484 0.070475
0.0165039 0.165484 0.439634
-0.0761151 -0.102443 -0.0765132
-0.123899 0.0310281 0.408669
-0.102469 0.0320135 0.0119807
0.0782849 -0.0955475 -0.0544472
-0.102035 0.00766675 -0.435382
0.147263 0.0823032 0.441292
0.104683 -0.0524763 -0.000492673
-0.111324 0.165484 -0.0384116
0.0173095 0.158589 0.15987
-0.0202248 0.159574 0.13375
-0.117775 0.0310281 0.166919
0.104761 -0.0965328 -0.0666957
-0.110963 -0.102443 0.0296935
0.101741 -0.0965328 0.2926
-0.138533 -0.0955475 0.271397
-0.163022 0.0634599 0.0547233
0.166962 0.0395122 0.293891
0.159911 0.0632161 -0.441292
0.0775592 0.0320135 0.0725988
-0.0562319 -0.0739102 0.441292
0.0876874 0.159574 -0.138977
-0.0909188 -0.0965328 0.353576
-0.102208 0.159574 -0.0602647
-0.0650444 0.165484 0.0442163
0.143913 0.0550915 -0.434397
-0.0388629 0.0891625 0.435382
0.139972 0.159574 -0.185646
-0.066069 0.0390313 0.441292
0.166962 0.00138217 -0.12505
0.144268 -0.0955475 -0.0708432
0.0418034 0.159574 -0.324741
0.120423 -0.0442938 0.441292
0.113933 -0.102443 -0.387787
-0.0625162 -0.095179 -0.000492673
-0.00993128 0.159574 -0.276679
0.12394 0.159574 -0.222753
-0.0198495 0.165484 0.220377
-0.163022 0.125206 0.231915
0.00532802 -0.102443 0.430875
-0.0406291 0.0320135 0.0940322
0.0976011 0.0310281 0.0915682
-0.136259 0.0665732 -0.441292
0.166962 -0.0175073 0.0205427
0.0420986 0.159574 -0.0192687
-0.115934 0.159574 -0.306873
0.0221126 0.0310281 0.0984545
0.1004 0.158589 -0.169243
-0.163022 -0.0420665 -0.12163
0.00946428 0.158589 0.217237
-0.0500301 -0.102443 -0.150164
0.00200345 0.159574 -0.0318384
0.0343898 0.0505083 -0.000492673
0.113439 0.165484 -0.094152
-0.0912019 0.159574 0.422052
-0.114869 -0.0955475 0.315296
0.025983 -0.0955475 0.432544
-0.163022 -0.0920826 0.12253
0.0129197 0.159574 -0.329779
-0.163022 -0.0175946 0.120036
-0.0361905 0.159574 0.323088
-0.138054 0.159574 0.103462
0.127745 0.0908359 -0.435382
0.123968 0.158589 0.174975
0.0647839 -0.0720232 0.435382
0.0692558 -0.0955475 0.0742242
-0.0946927 -0.0965328 -0.367407
-0.0908483 -0.0965328 -0.255518
-0.114987 -0.0955475 0.373258
0.16244 0.160782 -0.441292
0.126465 -0.102443 -0.013698
-0.163022 -0.00129326 0.42696
0.119121 -0.0955475 0.0051439
-0.163022 -0.0286624 -0.2666
0.1208 -0.0955475 -0.24333
-0.147378 -0.0965328 0.400002
-0.13874 0.0310281 0.0880679
-0.0276782 -0.0955475 0.368504
-0.077622 -0.102443 0.125186
0.0474732 0.0310281 0.237566
0.100167 0.0310281 0.0762137
0.0066316 -0.0955475 0.132145
0.0709313 0.158589 -0.11071
-0.163022 -0.0675102 -0.404589
-0.163022 0.0820019 0.257137
-0.163022 0.0617358 -0.0977383
-0.163022 -0.0587761 -0.0239178
-0.163022 0.106819 -0.293078
0.0869969 -0.0915016 0.441292
-0.0328429 0.158589 0.263051
0.0602321 0.159574 0.3177
0.166962 0.0577292 0.314852
0.135972 -0.0965328 -0.368717
-0.163022 0.0267123 0.258995
0.0941633 0.0839329 0.441292
0.101447 -0.0955475 0.212257
-0.130703 0.165484 0.00910249
-0.0141152 0.0310281 0.345834
-0.106326 -0.0639395 0.441292
0.0046645 0.165484 -0.375425
-0.0619043 -0.0965328 0.0840204
0.0767754 0.158589 -0.23247
-0.0149946 -0.102443 0.351756
-0.130097 0.0960041 -0.435382
0.0857883 -0.102443 -0.371426
-0.131133 0.0866268 0.000492685
-0.0623394 0.0534555 -0.434397
-0.0668124 -0.0965328 -0.311545
0.0336624 0.0658099 -0.000492673
-0.108789 0.0401376 0.435382
-0.00344452 0.0310281 0.0713245
-0.0388734 0.11921 -0.441292
0.00963207 -0.0196062 0.434397
0.166962 0.158145 0.375325
0.0173264 -0.102443 -0.388858
-0.113589 0.165484 0.132169
0.166962 0.15929 -0.296878
0.1232 -0.0203284 0.435382
0.124742 0.0320135 0.337814
-0.0712095 0.0781631 -0.435382
0.0345799 -0.0705733 -0.434397
0.0120073 -0.161545 0.318419
-0.157616 -0.0955475 -0.272186
0.160639 -0.102443 -0.0324806
-0.0316382 -0.0965328 0.217251
-0.00316158 -0.0955475 -0.327791
0.166962 -0.0630706 0.245742
0.166962 -0.0690176 -0.0863363
-0.129849 0.0903902 0.435382
0.12036 0.165484 -0.010234
-0.105118 -0.0522206 -0.441292
-0.0607512 0.0320135 0.428358
-0.107156 -0.0602127 0.441292
0.166962 0.155832 -0.32625
-0.0527619 0.104935 -0.441292
-0.100428 0.159574 0.383341
-0.156 -0.0955475 0.222393
-0.0146416 0.158589 0.229444
-0.0258383 -0.161545 -0.316683
0.139557 -0.0946673 -0.435382
-0.140734 0.165484 -0.216213
0.148202 -0.102443 0.236083
-0.0959843 0.0660795 0.434397
-0.0436153 -0.0955475 -0.0979274
-0.163022 0.0448377 -0.0559252
0.117821 0.159574 0.244294
0.0194622 -0.0955475 -0.140841
-0.107716 -0.0955475 0.308593
-0.0179162 0.106061 -0.000492673
-0.0707254 -0.0160714 -0.435382
0.0824834 0.165484 0.00472879
0.0703 0.0320135 0.0442212
0.0901716 0.147007 -0.434397
-0.0111312 0.165484 -0.256452
0.0233006 0.129329 -0.435382
0.0402995 -0.102443 -0.32699
0.166962 0.0811713 -0.152623
0.0729891 -0.102443 -0.364235
-0.1284 0.0310281 0.14494
-0.0268786 0.151491 0.435382
-0.1629 0.158589 0.230152
-0.0517679 -0.0955475 0.22479
0.135678 -0.102443 0.40811
-0.00718384 0.159574 0.0182218
0.105111 -0.0955475 -0.271302
-0.0438942 -0.0965328 -0.0719528
-0.16093 0.0320135 0.0575309
0.0918933 0.158589 0.39995
0.166962 -0.058525 0.264448
-0.0649906 -0.0955475 0.304701
-0.0403751 0.141633 -0.434397
0.157938 0.126488 0.441292
0.141779 0.00491001 -0.435382
-0.11602 0.159574 -0.303486
-0.0496626 0.0320135 0.334134
0.102403 -0.0955475 -0.0110196
0.10907 -0.102443 -0.307758
0.119761 -0.102443 -0.299008
-0.0872257 -0.102443 -0.201429
0.0778819 0.0741423 0.435382
0.0934584 0.165484 -0.0466753
-0.0681208 0.158589 0.386922
0.14829 0.165484 -0.273232
0.166962 0.0239013 0.297645
0.166962 0.012904 0.0632706
0.078971 -0.0965328 -0.197243
0.0898648 -0.042655 0.435382
0.00828973 -0.102443 0.121823
0.135943 0.109132 -0.441292
-0.0375643 0.0310281 0.312371
-0.143237 0.165484 0.030307
0.115915 0.010343 -0.434397
-0.0318574 0.159408 -0.441292
-0.0217679 0.165484 0.175941
-0.163022 0.0744162 -0.282398
-0.0794253 0.158589 -0.241454
0.00697371 0.159574 -0.285441
-0.155551 0.158589 0.151535
0.0734846 0.121936 0.441292
0.166962 -0.0106487 -0.428209
0.0151482 0.158589 0.380633
-0.163022 -0.0620449 -0.153112
0.153438 0.165484 0.373129
-0.163022 0.149938 0.348122
0.151192 0.0873603 -0.441292
-0.00197576 0.00868217 0.435382
-0.163022 0.0951362 -0.0423568
0.143662 -0.102443 0.208365
0.166962 0.132332 -0.246467
-0.0855602 0.158589 0.139238
0.008553 -0.0955475 -0.177454
-0.0634833 0.165484 0.309296
-0.111818 -0.0955475 -0.376002
0.128932 0.158589 -0.351084
0.00553403 0.165484 0.400387
-0.0555469 0.120956 -0.441292
-0.0759378 0.159574 0.0235461
-0.0786744 0.0724859 0.441292
0.136471 0.165484 -0.204238
0.166962 -0.0123044 -0.370714
0.0247373 0.137929 0.435382
0.0832841 0.0320135 0.241977
0.0582799 0.165484 -0.23134
0.166631 0.165484 -0.125339
-0.143683 0.165484 -0.147158
0.00311892 0.159574 -0.205396
0.0574728 -0.102443 -0.364482
-0.132348 -0.0955475 -0.382203
0.137512 0.0310281 0.132065
-0.0412944 -0.0955475 -0.0749608
0.00591024 -0.0955475 0.17697
-0.0803874 -0.0965328 -0.25342
0.0955986 0.052299 -0.000492673
0.12488 -0.0802983 -0.441292
0.125142 0.0497407 -0.441292
0.148388 0.165484 0.0467255
0.0579673 0.109433 -0.435382
-0.124176 0.165484 -0.144483
0.156495 -0.102443 -0.289602
0.121566 -0.0317138 0.441292
0.0258903 0.146061 -0.435382
-0.0371055 0.0310281 0.0847749
0.0963722 0.0658285 -0.434397
-0.157244 0.165484 0.339539
-0.0822843 0.0320135 0.115961
-0.163566 0.159574 -0.236628
0.166962 -0.0205922 -0.128552
-0.0814393 0.158589 0.394002
-0.0895689 -0.0955475 0.390182
-0.00010291 -0.0965328 0.404184
-0.137599 -0.0955475 0.26072
0.0906325 0.158589 -0.238771
-0.164007 0.161593 -0.354216
0.103565 0.159574 0.360077
0.102605 0.159574 0.360166
0.0570928 0.165484 -0.105954
0.0911577 0.165484 0.0752199
0.0153327 -0.0965328 0.364496
0.166962 0.145551 -0.412049
-0.141645 0.0320135 0.182604
0.0853563 0.159574 0.191308
-0.0401836 0.159574 0.0758322
0.0194974 0.0320135 0.37827
0.166962 -0.0864679 -0.240586
0.0230742 0.159574 0.412481
0.00342055 -0.0965328 -0.133378
0.0502454 -0.0965328 0.1571
0.166962 0.164017 0.258622
0.00555567 -0.0623409 -0.435382
0.0457971 -0.102443 0.0693099
0.166962 0.120343 -0.118236
-0.120172 -0.0965328 -0.424563
-0.0352849 0.0650477 -0.000492673
0.128835 -0.102443 0.102841
-0.14606 8.35173e-05 0.435382
0.00882971 0.159574 -0.0253619
-0.163022 0.0579745 -0.429451
0.166962 -0.022174 -0.418081
0.075857 0.165484 -0.334922
-0.133007 -0.0955475 -0.370279
0.150885 0.0310281 0.25819
-0.157254 0.165484 0.203182
-0.0651469 0.0409542 0.434397
-0.10393 -0.0965328 0.402585
0.0998616 -0.102443 0.0787542
0.000807693 0.159574 0.182005
-0.163022 0.012186 -0.0705964
-0.0823628 0.0528118 -0.000492673
0.148436 0.158589 0.113005
-0.00234007 0.158589 0.0877682
-0.164007 -0.0096512 0.437005
-0.0694811 -0.0693542 -0.435382
0.0941672 -0.102443 -0.388856
0.166962 -0.0289208 0.393242
0.166962 -0.0798492 0.28691
-0.133758 -0.0955475 -0.265102
0.128993 0.165484 -0.350512
0.0184863 -0.00721173 0.000492685
0.0268849 0.165484 -0.20364
-0.138458 -0.123752 0.330852
-0.0452575 0.165484 -0.32786
0.0955691 -0.0881756 0.441292
-0.0184521 0.0438422 0.434397
0.166962 0.0800012 0.104509
0.0309018 0.165484 -0.241086
0.166962 0.0950122 0.133955
-0.056302 0.158589 0.363413
0.0371631 0.165484 -0.0188295
-0.163022 0.0244069 -0.392088
-0.041213 0.0310281 0.0951861
-0.155157 -0.102443 0.0430589
-0.161136 0.0320135 0.276991
-0.0376097 -0.0955475 -0.188058
0.0477312 -0.0553602 0.435382
-0.163022 0.070545 0.256504
0.112774 -0.102443 0.135783
-0.163022 0.0999377 -0.255399
-0.0917961 0.0540899 -0.441292
-0.164007 -0.0974842 -0.035534
-0.125829 -0.161545 0.3241
-0.164007 -0.0295637 -0.437593
0.0344937 0.0819883 0.441292
-0.0100376 0.151094 0.441292
0.018182 -0.0965328 -0.180946
0.120257 -0.0670389 -0.441292
-0.00104116 -0.0955475 0.00131734
0.0701753 -0.0965328 -0.28532
0.0716923 -0.0955475 -0.38385
-0.163621 0.101934 -0.441292
-0.150193 -0.0504182 -0.000492673
0.00275972 -0.0798333 0.434397
-0.163022 -0.0306054 0.0803802
-0.0663567 0.0665815 0.435382
0.064673 0.159574 0.259655
-0.160687 -0.0955475 0.365475
0.139152 -0.0965328 0.251103
0.152155 0.165484 -0.332653
0.166962 0.113212 0.0272237
0.00905978 0.0310281 0.141096
0.0402818 0.0310281 0.176304
0.122126 0.165484 0.0272429
0.0230754 0.158589 -0.0496816
-0.0444802 0.165484 -0.252057
-0.033129 0.159574 -0.0956636
-0.0214989 0.158589 -0.369086
-0.0533216 -0.0955475 0.159839
0.031903 -0.0955475 0.0118504
0.115089 -0.102443 -0.0396179
-0.0990595 -0.0955475 0.164407
0.166962 0.1646 -0.427298
-0.123955 -0.0955475 0.0769493
-0.011993 -0.0965328 -0.346314
-0.112168 0.159574 -0.372172
-0.00994461 0.165484 0.0452585
-0.160996 -0.0965328 -0.419931
0.096925 0.0310281 0.11517
-0.00386446 0.152099 -0.000492673
0.00385742 0.0320135 0.359016
-0.163022 -0.000745729 -0.360826
0.166962 0.0406846 0.150202
0.166962 0.0581292 -0.0599895
-0.123892 0.0437064 0.435382
0.138602 -0.0615298 -0.000492673
-0.112888 -0.164752 0.330505
-0.0515151 0.165484 -0.0194323
-0.0516738 -0.0955475 0.434121
0.111467 0.159574 0.28738
-0.0869591 -0.0965328 0.220904
-0.139564 -0.0955475 0.357241
-0.0739662 0.165484 0.356393
0.105236 -0.0965328 -0.32141
0.0439518 0.0310281 0.194072
-0.0292699 0.165484 -0.294411
-0.13838 0.0347757 -0.441292
-0.0886828 0.0713141 0.435382
0.117322 -0.08282 -0.000492673
-0.0636582 -0.0198501 -0.000492673
-0.0281356 0.165484 0.0210535
-0.163022 -0.025562 -0.240508
0.0607831 -0.0955475 -0.0179587
-0.155568 0.154956 0.434397
0.00396681 0.165484 -0.086359
0.0833178 -0.0965328 -0.196023
-0.163022 -0.0937276 -0.39228
-0.163022 0.114831 0.0682273
-0.074905 -0.102443 -0.0149017
-0.157865 0.0310281 0.147972
0.130501 0.159574 0.171413
0.053786 0.165484 -0.39852
0.134094 -0.102443 0.170561
-0.132523 0.159574 0.207721
-0.0891438 0.159574 -0.0298401
0.0898191 0.0501582 0.000492685
0.138982 0.0111738 0.435382
0.150498 -0.0955475 -0.0306012
-0.043035 0.165484 -0.344387
0.0718559 -0.0965328 -0.137373
-0.0104735 -0.0965328 -0.200535
0.166962 -0.0401355 0.0587162
0.119375 -0.0965328 0.363562
-0.0954951 -0.0965328 0.100157
-0.0548536 -0.102443 -0.169168
-0.00514369 0.158589 0.31319
-0.110085 -0.0965328 0.381278
0.153959 0.165484 -0.101329
-0.0268479 0.165484 0.338534
-0.158721 0.159574 -0.415016
0.12205 0.158589 -0.165533
-0.0517211 0.0310281 0.285441
0.166962 0.0689454 -0.214399
0.0327843 0.165484 0.166113
0.127276 -0.0965328 0.325563
0.107831 0.0833025 0.435382
-0.156758 0.158589 -0.272636
0.0453763 0.158589 0.256195
-0.139403 0.158589 -0.267629
0.119582 0.0320135 0.0734037
0.166962 0.124352 0.121545
-0.151926 0.165484 0.050238
-0.0359186 0.159574 -0.107283
-0.0637202 0.0310281 0.380148
0.059894 0.0771756 -0.441292
-0.0679731 0.165484 0.42144
0.0484525 -0.102443 0.0175159
0.166962 -0.101707 -0.0528036
0.135806 -0.0955475 0.0717784
0.0641327 0.159574 -0.22097
-0.135792 -0.102443 0.308067
0.125463 -0.0667 0.434397
0.0824225 0.158589 -0.277058
-0.150528 0.147535 -0.434397
0.0641886 -0.0976624 0.441292
0.0807501 -0.0965328 -0.0619356
0.0907674 -0.0965328 0.0278368
-0.101053 0.00094163 0.000492685
-0.0672326 -0.102443 -0.00951011
0.0942463 -0.0901519 -0.435382
0.0711555 0.158589 0.420178
-0.163022 -0.00513064 -0.213069
-0.0622262 0.0587314 0.434397
-0.0221801 -0.0965328 -0.389775
-0.129728 -0.102443 -0.199712
-0.117433 0.159574 0.226247
-0.163022 -0.0110408 0.324913
0.11694 0.159574 0.295066
-0.143637 0.0133766 0.441292
0.113949 -0.0955475 0.118139
-0.0394903 -0.0788844 -0.434397
0.100889 -0.102443 -0.156611
-0.0263768 -0.0900746 0.000492685
-0.0908807 -0.0569119 -0.435382
0.103829 -0.0642878 -0.000492673
-0.0786349 -0.0965328 -0.241781
0.146406 -0.102443 0.316345
0.0298993 0.159574 -0.184182
-0.0819792 -0.102443 0.295222
0.0214796 0.159574 -0.325757
-0.0727824 0.159574 -0.116254
0.166962 -0.0187415 -0.429534
-0.0838681 0.0310281 0.193217
0.0748428 0.0310281 0.422888
0.0584887 -0.0965328 -0.117217
-0.15159 -0.0965328 -0.00279291
0.139118 0.0320135 0.122117
0.00753692 -0.0965328 -0.0431997
-0.00601354 0.0320135 0.0385674
-0.00837454 0.158589 -0.238287
-0.163022 -0.0674417 -0.118073
0.0359064 -0.0965328 0.091879
0.0336388 0.159574 0.0407494
-0.154211 -0.0300561 -0.434397
0.0431833 -0.102443 0.171825
-0.0250655 0.165484 0.393182
-0.136878 0.0320135 0.0931929
0.0322069 0.147127 -0.000492673
-0.101218 -0.102443 0.388589
-0.0856442 -0.0965328 0.265477
0.00630173 0.0320135 0.297233
0.0293508 -0.102443 -0.429735
0.106232 -0.0955475 -0.208882
-0.163022 0.100104 -0.0275734
0.00201419 0.165484 -0.32262
0.166962 0.146773 -0.0822056
0.12355 -0.0965328 -0.0396457
0.144003 0.0230465 -0.435382
0.0673383 0.159574 0.361767
0.11823 0.158589 -0.263724
0.063334 -0.0955475 -0.400411
-0.0013065 0.0310281 0.260018
-0.163592 0.15945 -0.435382
0.166962 0.0628599 -0.191033
0.101949 0.158589 0.0154959
0.166962 0.156237 0.4142
0.150056 -0.102443 0.160196
0.0888124 -0.0355969 0.441292
0.166962 0.0312188 0.397144
-0.11476 -0.102443 -0.367679
0.0209149 0.165484 -0.188801
0.0844889 -0.102443 -0.0867218
-0.047695 -0.0965328 0.0147301
0.0360066 0.165484 -0.0938986
-0.0848211 0.0310281 0.303894
0.127406 0.130856 0.434397
-0.123958 -0.102443 0.030833
-0.114108 0.159574 0.156163
-0.0795506 -0.0965328 0.386861
-0.144993 0.146152 0.435382
-0.0117807 -0.0965328 0.0611479
0.130111 0.158589 0.139116
-0.0693853 0.159574 0.0486871
-0.094462 0.0723341 0.434397
-0.0755806 0.159574 0.0824376
0.067886 -0.0533964 -0.434397
-0.163022 0.0846661 -0.013762
-0.136588 0.0236272 -0.434397
0.0290592 -0.102443 0.419413
0.0980592 0.142 0.435382
-0.130994 -0.0965328 -0.0720004
0.146528 0.0310281 0.309576
-0.0622167 -0.0955475 0.28059
-0.00157376 -0.102443 -0.383318
0.0184089 0.0310281 0.164376
-0.112797 -0.102443 0.183561
0.108667 -0.161545 0.318005
0.0762038 0.0320135 0.344472
-0.148087 -0.102443 0.411856
0.00203884 -0.0965328 -0.306372
-0.0295565 -0.102443 0.371779
0.166962 0.0212486 0.180256
-0.151765 0.0158498 -0.441292
0.00212751 -0.0955475 0.133566
0.0430048 -0.0955475 -0.00971118
-0.0941734 0.0857873 0.441292
-0.0621562 0.0310281 0.22172
0.131002 0.165484 0.336312
0.152176 0.165484 0.142803
-0.00442813 0.159574 -0.21503
0.0781675 -0.0955475 -0.0244652
0.158526 -0.102443 -0.27108
-0.133895 0.0696087 0.434397
-0.163022 0.125531 0.376929
-0.00481886 -0.102443 0.253941
0.0576812 -0.0965328 -0.277358
0.143737 -0.0955475 -0.133918
0.0909594 0.0320135 0.241105
0.123636 0.158589 0.103104
0.0877901 -0.0955475 -0.363509
-0.163022 0.0715856 0.170993
0.123016 -0.0462368 -0.441292
-0.135789 0.165484 -0.353139
-0.138491 0.159574 -0.334888
0.166962 0.0638003 0.320374
-0.128617 0.0343428 0.435382
0.143532 0.158589 -0.274856
0.0609393 -0.0285855 0.435382
-0.0973682 0.159574 -0.216368
-0.0826064 0.0567049 0.441292
-0.0730702 -0.0955475 -0.360033
-0.0872766 0.158589 -0.0377687
0.0597202 -0.102443 0.197287
-0.0235872 0.0800537 -0.000492673
0.166962 0.0104891 -0.282293
-0.163022 0.0469001 0.234018
-0.144766 -0.0965328 0.0363276
0.0762647 -0.0965328 -0.397495
0.112896 0.0732441 -0.000492673
-0.158156 0.165484 0.0969838
-0.145939 -0.102443 0.348411
-0.00187597 -0.0965328 0.434157
0.0432292 0.158589 0.171925
0.10305 0.165484 0.00455302
-0.153408 -0.102443 0.152423
0.108645 0.165484 0.136827
-0.112733 -0.0965328 0.369676
-0.0101534 -0.0965328 -0.431436
0.0296348 0.0817728 -0.434397
0.0946028 0.0320135 0.124055
0.0654819 0.0310281 0.154815
0.120079 -0.0965328 -0.199648
0.164472 0.165484 0.361418
-0.0913561 -0.0204647 0.435382
-0.117441 0.165484 -0.152322
-0.0182171 0.165484 -0.00480598
0.146624 0.158589 0.377149
0.0486066 0.0310281 0.10142
-0.0226242 0.0310281 0.148009
-0.0529131 0.165484 -0.0118537
-0.163022 0.0767614 -0.248531
-0.115908 0.159574 0.393321
-0.0880981 0.0320135 0.111458
-0.163022 0.0727026 0.00836655
0.166962 -0.0376592 0.122075
-0.0213837 0.0310281 0.0422474
-0.00665114 0.165484 -0.0717241
-0.0746543 0.165484 0.0676779
0.11887 -0.102443 0.289123
0.13472 -0.0955475 0.114236
0.166962 -0.0712576 0.0560448
-0.101284 -0.102443 0.328556
0.111708 -0.0955475 0.048473
-0.146631 -0.0954108 0.000492685
0.0118986 0.10836 -0.434397
0.137544 0.0644405 0.000492685
-0.110626 -0.0561721 0.441292
-0.125823 -0.102443 0.241763
-0.105933 -0.0955475 -0.177476
-0.163022 0.0238711 0.0373798
-0.110422 -0.0955475 -0.0973906
0.0888632 0.165484 0.0142036
0.120985 0.159574 -0.211943
-0.0874499 0.0320135 0.388071
-0.163022 0.0187388 0.2623
0.0192975 0.159574 -0.429053
-0.0143557 -0.0955475 -0.262851
0.119161 -0.0075388 0.441292
-0.0354198 0.158589 -0.0530617
0.0671526 0.159574 -0.0772046
0.141493 -0.102443 -0.28305
0.124942 0.120625 0.434397
-0.0135327 -0.0965328 0.256375
-0.0504003 -0.102443 -0.232706
-0.0617058 0.0320135 0.263052
-0.163022 0.0300276 0.000986161
0.126908 -0.0235887 -0.000492673
0.11824 0.165484 0.320086
-0.0760579 0.0345642 -0.435382
0.0377233 0.0320135 0.00326411
-0.117495 -0.0965328 -0.132404
0.0898079 0.154399 0.441292
-0.0333314 -0.102443 0.229339
0.133252 0.010959 0.000492685
-0.163022 0.0332287 -0.160936
-0.0509186 -0.102443 0.0278509
-0.0810385 0.00666615 -0.441292
0.166962 -0.0412292 -0.409372
0.00385756 0.165484 0.383931
-0.0170458 0.159574 0.089264
-0.125481 0.0320135 0.176655
-0.126404 -0.0955475 0.231456
-0.0079986 -0.0965328 0.250119
-0.163022 0.099272 0.221128
-0.15655 0.165484 -0.159451
0.0614824 -0.0955475 -0.302966
0.166962 -0.0397507 0.132092
-0.0933917 -0.0965328 0.141016
-0.0510537 -0.102443 -0.0530409
0.0799706 0.0310281 0.0991546
-0.121241 0.159574 -0.182822
-0.11148 0.165484 -0.318152
-0.00464635 -0.00442243 0.000492685
0.166962 0.0708201 0.328061
-0.139004 0.159574 0.0424708
-0.0424428 -0.102443 -0.400241
0.143068 0.0310281 0.141054
0.143122 -0.160577 0.327054
-0.00801321 -0.0380565 0.434397
-0.0646397 -0.102443 0.317242
-0.146413 -0.0955475 -0.0640386
0.129498 -0.102443 -0.350824
0.0826765 0.165484 -0.140146
0.13658 -0.0965328 0.426943
0.029873 -0.102443 -0.0363552
-0.0411181 0.165484 0.348113
0.0292341 0.0432007 -0.435382
-0.121781 -0.102443 0.0914889
-0.13117 0.165484 -0.249607
0.0298154 0.158589 -0.174602
0.0914619 -0.102443 0.0651086
-0.0613546 0.0320135 0.287499
-0.0740445 0.0398335 0.435382
-0.119336 -0.0780851 -0.441292
0.00456212 0.113537 0.441292
0.00102062 -0.102443 0.0816607
0.0216309 0.159574 -0.0246779
0.139777 0.158589 0.147978
-0.0266158 -0.0964032 0.435382
0.166962 0.00477888 -0.0199822
-0.159663 -0.0955475 0.0132973
0.142208 -0.0778698 0.441292
0.068331 -0.0955475 -0.277387
-0.163022 0.149148 -0.0385212
-0.128634 0.159574 0.284978
0.0933921 0.158589 0.408214
0.165671 0.165484 -0.19644
-0.0151164 0.0409092 -0.434397
-0.044425 -0.0965328 0.353703
0.0875931 -0.0965328 -0.243293
0.0774474 0.0320135 0.403114
-0.118151 -0.0955475 0.0211186
-0.163022 0.0669311 -0.323545
-0.0417091 -0.102443 -0.424676
0.0746505 0.0320135 0.065596
-0.100285 0.0310281 0.39787
0.0303586 0.0320135 0.368981
-0.163022 0.11263 0.0468763
-0.0227731 0.165484 0.135541
-0.0558736 -0.0965328 -0.0844353
-0.00525376 0.159574 -0.0594421
0.139544 -0.0821109 -0.434397
-0.093716 0.038215 -0.434397
-0.106409 0.165484 0.2305
-0.119013 0.0581458 -0.441292
-0.163022 -0.0180213 -0.24808
-0.0352886 -0.0788129 -0.434397
0.00358976 0.0310281 0.148586
0.0310828 -0.0965328 -0.150507
0.124869 0.0973608 0.000492685
0.166962 0.0159844 -0.32282
-0.0719027 0.159574 -0.122083
0.00511545 -0.102443 -0.261446
0.0307437 -0.0955475 0.322367
0.129686 0.159574 -0.266443
-0.0285909 0.165484 -0.158816
-0.122568 -0.0957173 0.441292
-0.0739838 0.165484 0.266205
-0.111582 0.159574 0.145476
-0.143719 -0.0965328 0.321865
0.125101 0.0310281 0.178188
0.0796223 -0.0955475 0.118599
-0.117102 0.0936251 -0.435382
0.0918771 0.158589 -0.233736
-0.0386731 0.158589 0.263131
-0.111268 -0.0955475 0.418857
-0.147308 0.165484 -0.185411
-0.122041 0.0310281 0.0998341
0.065539 0.157581 -0.441292
-0.148882 0.158589 -0.0551265
-0.123742 0.0852464 -0.435382
-0.0309391 0.119982 -0.441292
-0.163022 -0.0438301 0.264331
-0.157419 0.0320135 0.203226
-0.127292 -0.0955475 0.0576084
0.118223 0.165484 0.25699
0.132916 0.0320135 0.0750909
0.0444379 -0.0955475 -0.104387
0.0969377 0.0863688 -0.435382
-0.0739419 -0.0965328 -0.154611
0.024038 -0.102443 0.18397
-0.0496755 -0.0254687 0.435382
-0.00588836 -0.102443 -0.206458
-0.0851851 0.158589 -0.0660998
-0.00290204 0.0310281 0.391803
-0.138803 0.0442555 -0.434397
0.052173 0.143324 -0.435382
0.0168723 -0.102443 0.105513
-0.00119627 -0.0965328 0.0302007
0.166962 0.0436469 0.119289
-0.122272 -0.0955475 -0.0239215
0.0554797 0.165484 -0.353253
0.0800232 0.158589 0.0763701
-0.0791594 0.0230346 -0.441292
-0.0817237 -0.0955475 0.259934
-0.160386 -0.0613638 0.441292
-0.161491 0.159574 -0.117155
0.166962 -0.0345363 0.322124
0.00960004 0.158589 -0.26514
-0.122991 -0.0955475 0.207015
0.166962 -0.0144252 -0.385314
0.0650945 -0.0965328 -0.0251089
-0.0777719 -0.0955475 -0.319497
-0.153395 -0.0965328 0.174728
0.0421448 -0.0955475 -0.0924498
-0.0962558 0.0949575 -0.435382
0.166962 0.031954 0.280196
0.0795322 0.0650082 0.441292
-0.0657673 0.0320135 0.140052
-0.0976071 -0.0249051 -0.441292
0.127861 -0.0144034 -0.000492673
-0.0695299 0.0310281 0.37812
-0.128445 -0.0872923 -0.441292
0.0369441 0.088275 -0.435382
-0.0867566 0.159574 0.338919
0.10308 0.0290767 -0.434397
-0.163022 -0.049731 0.270662
-0.137792 -0.0965328 0.203165
0.119894 0.0310281 0.320452
0.019773 -0.0965328 0.0528687
-0.00682116 -0.0955475 -0.346856
-0.11248 0.0310281 0.0826461
-0.106097 -0.0965328 -0.205602
-0.158408 0.0534339 0.000492685
-0.042937 -0.0965328 -0.303057
-0.138314 -0.0602819 0.434397
0.0260387 0.0320135 0.350041
0.144628 0.159574 0.231694
-0.0218324 -0.102443 0.390853
0.0138725 -0.102443 -0.123776
-0.104145 0.0310281 0.431246
0.156637 -0.0177289 0.441292
0.122151 0.0310281 0.204999
0.125529 -0.0955475 0.148609
-0.0677558 0.158589 0.225053
0.156138 0.165484 0.0664935
-0.0631651 0.0310281 0.392521
-0.163022 0.130963 0.279349
-0.111433 0.0310281 0.0326746
-0.0349315 0.149065 0.435382
-0.160377 -0.0955475 -0.129271
0.138459 -0.0955475 -0.198195
0.0741252 0.0310281 0.37617
0.00148819 0.158589 0.167192
-0.0501358 0.158589 -0.23337
-0.0214319 -0.0955475 0.332655
0.0996588 -0.0955475 0.128643
-0.104844 -0.0314431 0.441292
-0.163022 0.0808113 -0.0642197
-0.132254 -0.102443 0.204145
0.160623 -0.102443 -0.0138382
-0.091878 -0.102443 -0.389887
0.166962 0.10975 -0.171638
-0.138882 -0.0965328 -0.226688
0.030071 -0.028972 -0.000492673
0.0607856 -0.0473641 -0.000492673
0.166962 0.165346 -0.131072
-0.163022 -0.00790262 -0.307982
0.166962 -0.00866307 -0.0347819
-0.115423 -0.0955475 -0.0562508
0.103938 0.158589 -0.0254107
-0.00113047 -0.0921087 0.435382
-0.118545 -0.0955475 -0.153876
-0.163022 0.10601 0.104075
0.0323788 0.0310281 0.239506
0.0465364 0.0132674 -0.441292
-0.102762 0.0320135 0.323447
-0.0425458 0.0320135 0.255799
0.166962 0.0135374 0.292501
-0.00841593 0.0986667 0.435382
0.0326744 -0.102443 0.00970192
-0.127886 -0.102443 0.107285
-0.0878001 0.159574 0.368032
0.094582 0.109482 -0.441292
0.044766 0.159574 -0.385626
-0.0956477 0.0320135 0.429855
0.137349 -0.0920367 -0.435382
0.149742 0.165484 0.420792
-0.109372 -0.102443 0.30243
0.166962 0.0182152 0.274739
0.120235 -0.0481751 0.000492685
0.163147 -0.102443 0.0885869
0.0470828 0.165484 -0.39697
0.0448649 0.159574 0.22092
-0.115447 -0.102443 -0.310518
-0.163022 0.0392257 0.0133871
0.00679337 0.165484 0.0142036
-0.0156539 -0.0955475 -0.234738
-0.0727767 0.158589 -0.134216
-0.0644249 0.165484 0.087107
-0.163022 -0.0181989 -0.15801
-0.0674138 -0.0965328 -0.301432
0.0945389 -0.102443 0.355026
0.0669863 0.137629 0.435382
0.00934089 -0.0466654 -0.434397
0.0890022 0.158589 -0.185465
0.141132 -0.0955475 -0.285352
-0.103266 0.158589 -0.204607
-0.139748 -0.0955475 -0.0867757
-0.0383973 0.128412 0.434397
-0.0304488 0.159574 -0.309378
-0.163022 0.0293792 0.173238
-0.0159711 0.116568 -0.434397
-0.0990462 -0.0955475 -0.281152
-0.0253854 -0.0965328 -0.0288362
0.0118253 0.0600814 -0.441292
-0.0678944 -0.0567388 0.000492685
0.0187974 0.0310281 0.363138
-0.163022 0.116823 0.315897
-0.0081577 0.0310281 0.0278661
0.142287 -0.0955475 0.189578
-0.0461661 -0.0794852 -0.000492673
0.0794606 -0.0955475 -0.053998
-0.132292 -0.0965328 0.107305
0.12071 0.117962 -0.441292
-0.107059 -0.102443 -0.289399
-0.0238861 0.158589 0.350551
-0.0819217 0.0310281 0.281216
-0.136426 -0.125649 -0.320695
-0.0138301 -0.0955475 -0.150144
0.166962 -0.0518839 0.356463
-0.0667706 0.165484 0.109641
-0.0845577 0.158589 0.363878
0.16196 0.165484 -0.436965
0.0282089 0.158589 0.429528
-0.1548 0.165484 0.15953
-0.116227 0.165484 0.00691031
0.0881641 0.00466778 0.435382
0.166962 0.036654 -0.376153
0.127855 0.0534739 0.000492685
-0.06975 0.165484 -0.311632
0.0218964 -0.0965328 0.355337
0.166962 -0.0189789 -0.349489
-0.122153 0.158589 -0.275023
-0.148735 0.158589 -0.329408
0.0616127 -0.0955475 -0.357024
0.119661 -0.0955475 0.205007
0.0880629 -0.102443 0.309117
-0.129788 -0.0955475 -0.339593
0.0311093 0.158589 -0.2755
-0.0932626 0.0310281 0.0127961
-0.0412239 -0.102443 -0.121698
0.038767 -0.0965328 -0.306899
0.0246731 -0.0134773 -0.441292
-0.139698 0.0310281 0.0180945
0.0382333 0.158589 -0.0330256
0.00523295 0.0260593 -0.441292
0.0609218 0.158589 -0.00513262
0.166962 0.0555032 0.410275
-0.0903785 -0.0955475 0.419856
0.166962 0.0506925 -0.143915
0.139381 -0.145745 0.319365
-0.0870674 0.165484 -0.164787
0.0963454 -0.0995527 0.441292
-0.0738125 -0.0955475 0.00553416
0.0422771 -0.0551797 -0.441292
-0.150686 0.0320135 0.297049
-0.0717555 0.165484 -0.143097
-0.0868726 0.039056 0.434397
0.130536 0.0310281 0.24025
-0.0601817 0.104912 -0.434397
0.110452 -0.102443 -0.144977
-0.0587974 0.0374865 -0.435382
-0.125626 0.158589 0.122627
-0.103961 0.158589 0.379598
-0.0497745 0.158589 0.303248
-0.0109715 -0.0955475 -0.264904
0.0350634 -0.0306728 -0.434397
0.166962 0.141102 0.0363869
0.0877737 0.165484 0.305642
-0.119991 0.158589 0.0228749
-0.15431 0.140905 -0.434397
-0.115867 -0.102443 0.0963633
0.0562186 0.158589 -0.266238
-0.0406175 0.119627 -0.435382
-0.161489 -0.0183479 -0.000492673
-0.0125298 0.159574 -0.149656
0.00444477 0.0160263 0.434397
-0.032444 -0.102443 -0.136614
0.0066632 -0.0965328 -0.180353
-0.163022 -0.0152721 -0.328808
0.081779 -0.0955475 -0.433317
-0.0493211 0.158589 0.353259
-0.0129113 -0.0285698 0.434397
-0.0958264 0.165484 -0.12534
0.00447223 0.131816 -0.434397
0.0169158 -0.0955475 -0.36607
-0.120012 0.165484 -0.0843626
-0.163022 -0.00468209 -0.298117
0.0590142 0.0320135 0.305564
-0.164007 0.160965 -0.329162
0.0511512 0.0239576 0.441292
0.0507883 0.10234 0.441292
-0.0334242 -0.0965328 0.072277
-0.163022 0.0423899 0.000540398
-0.0431342 -0.0955475 -0.342269
-0.152138 -0.0965328 4.73857e-05
-0.0461096 0.0310281 0.0877972
-0.15298 -0.0955475 0.341207
0.109701 0.0320135 0.362755
0.12838 0.158589 -0.0685074
-0.0487578 -0.0955475 -0.264376
0.0826538 0.0808145 -0.000492673
-0.00361386 -0.0965328 0.290397
0.0126528 0.165484 0.146408
0.00287739 0.165484 0.424057
0.0190357 0.159574 0.274651
0.166962 0.00842741 -0.147796
0.0935588 -0.0965328 -0.0214373
-0.116828 -0.102443 0.287315
0.0560474 -0.102443 -0.286817
-0.163022 -0.0189724 0.0292745
0.00619886 0.0320135 0.42912
-0.0798259 -0.102443 -0.126897
-0.145999 -0.0459077 0.000492685
0.166962 -0.0996581 -0.111923
0.0424814 -0.102443 -0.024792
0.116508 -0.0965328 -0.086421
0.14166 0.165484 0.43615
-0.00231718 0.158589 -0.316929
0.128414 -0.102443 -0.252774
-0.0152529 0.0310281 0.173857
0.0555855 -0.0955475 0.138776
-0.136652 0.00959123 -0.434397
0.0217391 0.159574 0.260131
-0.163022 0.0900711 -0.220478
-0.123581 0.159574 -0.206168
-0.0879732 -0.0955475 0.0987873
-0.109041 -0.0470776 0.435382
0.0352546 -0.0965328 0.101649
-0.163022 0.0900239 -0.196321
0.0488117 -0.0965328 0.119841
0.0727085 0.030759 0.000492685
-0.117981 -0.102443 0.28363
-0.152651 0.158589 -0.146165
0.0239199 0.0320135 0.360941
-0.0471734 0.0708202 0.441292
-0.151219 0.158589 -0.208951
-0.140432 -0.0955475 -0.349398
-0.0806249 0.0310281 0.302186
0.166962 0.0819693 0.288408
0.126624 0.105765 -0.441292
0.0299038 0.158589 -0.356589
-0.163022 0.142188 -0.391419
0.116099 -0.0965328 0.236833
-0.0811597 0.158589 -0.0187398
0.0376623 -0.102443 -0.0279647
-0.0274097 -0.0955475 0.0411956
-0.0392566 -0.0134693 -0.434397
0.166962 -0.0879036 -0.216874
0.166962 0.113771 -0.43555
0.114338 0.0310281 0.260647
0.0466027 0.0320135 0.313545
0.166962 0.101231 -0.101433
0.119604 -0.161545 0.326688
0.0995739 0.0310281 0.356036
-8.19415e-05 -0.0965328 -0.0540991
-0.0161311 0.158589 0.0895194
0.0908621 0.165484 0.0319993
0.0483411 -0.102443 -0.0338564
0.0355493 -0.161545 0.329109
-0.110139 0.0320135 0.369843
-0.0839802 0.158589 -0.381896
-0.0665324 -0.163276 0.315325
-0.132557 0.0511308 0.441292
-0.0164699 0.0320135 0.282471
-0.144255 0.159574 -0.221573
-0.0540789 -0.102443 -0.147732
-0.0876309 0.0310281 0.130114
0.000730146 -0.069079 -0.434397
0.166962 0.0518155 0.288083
-0.065507 -0.0955475 -0.0992408
-0.127122 -0.0965328 0.340211
0.166962 0.145407 -0.386524
0.120908 -0.0965328 -0.0922483
0.0875458 0.0320135 0.282098
-0.0574086 0.159574 0.134358
0.0129236 0.165484 0.351985
-0.0476986 0.158589 -0.290106
-0.00985035 0.152203 0.000492685
0.0325353 -0.0351313 0.000492685
-0.111072 -0.102443 0.286889
-0.100031 0.00462168 -0.000492673
0.0106774 0.0361683 -0.000492673
