ply
format ascii 1.0
comment Created by Open3D
element vertex 670
property double x
property double y
property double z
end_header
-0.0720189 -0.488646 -0.0730513
-0.0860363 -0.488165 -0.0625234
-0.0545807 -0.488701 -0.0730782
-0.0860696 -0.485432 -0.0418178
-0.0187278 -0.488812 -0.0731331
-0.086104 -0.48712 -0.0205856
-0.000294805 -0.488869 -0.0731614
-0.0720177 -0.471117 -0.0730501
-0.0860363 -0.470652 -0.0625234
0.0184889 -0.488928 -0.0731902
-0.0427795 -0.473903 -0.0730996
-0.0861509 -0.486394 0.00857961
0.0376332 -0.488987 -0.0732196
-0.086104 -0.473651 -0.0205856
0.0571487 -0.489048 -0.0732496
-0.0126235 -0.47226 -0.0731444
-0.0289694 -0.48034 -0.0299124
-0.0860696 -0.463267 -0.0418178
-0.0861995 -0.485642 0.0387691
0.0770463 -0.48911 -0.0732803
0.0121889 -0.473654 -0.0731797
-0.00321335 -0.480338 -0.0355563
0.0312117 -0.473567 -0.0732092
-0.0604261 -0.451941 -0.073066
-0.0834693 -0.446502 -0.0730338
-0.0862426 -0.484868 0.0700481
0.031965 -0.480336 -0.0316896
-0.0308286 -0.454447 -0.0731168
-0.0861509 -0.463559 0.00857961
0.0571466 -0.470328 -0.0732517
0.0590957 -0.480334 -0.0375199
-0.0861995 -0.467053 0.0387691
0.0770457 -0.470207 -0.0732808
-0.0126195 -0.449666 -0.0731399
-0.0777618 -0.434741 -0.073043
-0.0860925 -0.444827 -0.0277228
0.018483 -0.452198 -0.0731964
-0.0861273 -0.446008 -0.00612783
0.0376298 -0.451906 -0.0732232
-0.0427738 -0.433858 -0.0730931
-0.0861995 -0.453111 0.0387691
0.0637366 -0.453072 -0.0732613
-0.086175 -0.44456 0.023543
-0.0862426 -0.456486 0.0700481
0.0837656 -0.452782 -0.0732905
-0.0126195 -0.431589 -0.0731399
-0.0860696 -0.423368 -0.0418178
-0.086104 -0.424266 -0.0205856
0.018483 -0.429244 -0.0731964
-0.0604261 -0.412258 -0.073066
-0.0834693 -0.407297 -0.0730338
-0.0861995 -0.434522 0.0387691
0.0637366 -0.434292 -0.0732613
0.0376298 -0.428731 -0.0732232
0.0837656 -0.433817 -0.0732905
-0.00647801 -0.414805 -0.0731524
-0.0427738 -0.407159 -0.0730931
-0.0862426 -0.432833 0.0700481
-0.0860925 -0.404591 -0.0277228
-0.0861509 -0.413321 0.00857961
0.0312136 -0.413506 -0.0732071
-0.0720197 -0.392231 -0.0730523
-0.0860363 -0.391845 -0.0625234
0.0121847 -0.405007 -0.0731841
-0.0427738 -0.393809 -0.0730931
-0.0862244 -0.414929 0.0542651
0.0837656 -0.414852 -0.0732905
0.0571466 -0.409489 -0.0732517
-0.0861273 -0.3962 -0.00612783
-0.0862426 -0.413912 0.0700481
-0.0126195 -0.390915 -0.0731399
0.0524166 -0.435524 0.0643041
-0.0860696 -0.383469 -0.0418178
0.00789058 -0.39243 -0.0643951
0.079157 -0.433982 0.0564768
-0.086104 -0.38386 -0.0205856
-0.086175 -0.393885 0.023543
0.0376298 -0.391652 -0.0732232
0.0827289 -0.42209 0.0230614
-0.0662419 -0.371443 -0.0730607
-0.0860363 -0.369954 -0.0625234
0.0571466 -0.39077 -0.0732517
0.0821425 -0.408854 -0.0135219
-0.054579 -0.36929 -0.0730762
-0.0862426 -0.39499 0.0700481
0.0770457 -0.38987 -0.0732808
-0.00647801 -0.374004 -0.0731524
-0.0861995 -0.383402 0.0387691
-0.0860925 -0.364356 -0.0277228
0.018483 -0.369563 -0.0731964
-0.0860363 -0.352442 -0.0625234
-0.0861273 -0.364504 -0.00612783
0.0637366 -0.373257 -0.0732613
0.0440936 -0.369661 -0.0732326
-0.0368217 -0.354849 -0.0731072
-0.0662419 -0.349464 -0.0730607
-0.0861509 -0.363083 0.00857961
0.0770457 -0.370967 -0.0732808
-0.0861995 -0.364813 0.0387691
0.0121847 -0.354667 -0.0731841
-0.0126195 -0.350242 -0.0731399
-0.0860696 -0.343571 -0.0418178
-0.0862426 -0.366608 0.0700481
0.0312136 -0.353444 -0.0732071
-0.0777618 -0.334248 -0.073043
-0.086104 -0.343453 -0.0205856
0.0637366 -0.354476 -0.0732613
-0.0861509 -0.344815 0.00857961
0.0837656 -0.353217 -0.0732905
-0.0247921 -0.334597 -0.0731196
-0.054579 -0.329487 -0.0730762
-0.000295222 -0.33425 -0.0731619
-0.0862244 -0.344602 0.0542651
0.0312136 -0.334963 -0.0732071
-0.0860925 -0.32412 -0.0277228
-0.0862426 -0.342955 0.0700481
-0.0860474 -0.314339 -0.0556788
-0.0861273 -0.323752 -0.00612783
0.0837656 -0.334253 -0.0732905
0.0571466 -0.329931 -0.0732517
-0.0368217 -0.314678 -0.0731072
-0.0586675 -0.312779 -0.0642923
-0.086175 -0.324782 0.023543
0.0524166 -0.34993 0.0643041
-0.0861995 -0.322987 0.0387691
-0.0126195 -0.309569 -0.0731399
0.079157 -0.347693 0.0564768
-0.0860696 -0.303672 -0.0418178
-0.0862426 -0.324034 0.0700481
0.018483 -0.309882 -0.0731964
0.0822607 -0.337009 0.0225565
-0.0777618 -0.294925 -0.073043
-0.086104 -0.303047 -0.0205856
0.0571466 -0.311212 -0.0732517
0.0440936 -0.309213 -0.0732326
-0.0861509 -0.303711 0.00857961
0.0770457 -0.309533 -0.0732808
0.0826492 -0.320886 -0.0129943
-0.0247921 -0.294176 -0.0731196
-0.054579 -0.289683 -0.0730762
-0.0861995 -0.304398 0.0387691
0.0312136 -0.293381 -0.0732071
-0.0860925 -0.283885 -0.0277228
0.0637366 -0.293441 -0.0732613
0.0121847 -0.286022 -0.0731841
-0.0860474 -0.274771 -0.0556788
-0.0861273 -0.283 -0.00612783
-0.0862426 -0.295651 0.0700481
0.0770457 -0.29063 -0.0732808
-0.0368217 -0.274506 -0.0731072
-0.0662419 -0.27034 -0.0730607
-0.086175 -0.283321 0.023543
-0.0862244 -0.283652 0.0542651
0.0312136 -0.274901 -0.0732071
-0.0126195 -0.268895 -0.0731399
-0.0860696 -0.263774 -0.0418178
0.0637366 -0.27466 -0.0732613
0.00592619 -0.266874 -0.0731719
-0.0861273 -0.264888 -0.00612783
-0.0862426 -0.27673 0.0700481
0.0770457 -0.271728 -0.0732808
-0.0720197 -0.251992 -0.0730523
-0.0860363 -0.251744 -0.0625234
-0.086175 -0.264893 0.023543
-0.054579 -0.249879 -0.0730762
-0.0862244 -0.264898 0.0542651
0.0121847 -0.253987 -0.0731841
-0.0126195 -0.250818 -0.0731399
-0.0860925 -0.243649 -0.0277228
0.0837656 -0.253653 -0.0732905
0.0571466 -0.250373 -0.0732517
0.0440936 -0.248765 -0.0732326
-0.0861509 -0.244339 0.00857961
-0.0862426 -0.253078 0.0700481
-0.0368217 -0.234335 -0.0731072
-0.0720197 -0.23008 -0.0730523
-0.0860363 -0.229853 -0.0625234
-0.0861995 -0.243983 0.0387691
-0.000295222 -0.234202 -0.0731619
-0.0229265 -0.232722 -0.0643499
0.0524166 -0.259301 0.0643041
-0.0861273 -0.233192 -0.00612783
0.0312136 -0.233319 -0.0732071
0.079157 -0.256329 0.0564768
-0.0860696 -0.223875 -0.0418178
0.0837656 -0.234688 -0.0732905
0.0571466 -0.231654 -0.0732517
0.083254 -0.242654 -0.0123645
0.0824822 -0.247197 0.0227954
-0.0862426 -0.234156 0.0700481
-0.0860363 -0.212341 -0.0625234
-0.086175 -0.223432 0.023543
-0.0545792 -0.210075 -0.0730764
-0.0662419 -0.208799 -0.0730607
-0.086104 -0.213255 -0.0205856
-0.000295222 -0.211464 -0.0731619
-0.0861995 -0.216099 0.0387691
0.0637366 -0.213625 -0.0732613
0.0376298 -0.21089 -0.0732232
0.018483 -0.208883 -0.0731964
-0.0247921 -0.204351 -0.0731196
0.0770457 -0.210294 -0.0732808
-0.0777618 -0.194432 -0.073043
-0.0860696 -0.197276 -0.0418178
-0.0861509 -0.203235 0.00857961
-0.0368217 -0.194163 -0.0731072
-0.0862244 -0.203948 0.0542651
-0.0862426 -0.205773 0.0700481
0.0121874 -0.194495 -0.0731813
0.0637366 -0.194845 -0.0732613
0.0376298 -0.19235 -0.0732232
-0.0860696 -0.183977 -0.0418178
-0.086104 -0.186318 -0.0205856
0.0770457 -0.191391 -0.0732808
-0.0861509 -0.184967 0.00857961
-0.0126195 -0.17851 -0.0731399
-0.0860474 -0.173656 -0.0556788
-0.0861995 -0.183568 0.0387691
-0.0862426 -0.186852 0.0700481
-0.0545792 -0.170272 -0.0730764
-0.0662419 -0.169237 -0.0730607
-0.0861273 -0.174328 -0.00612783
0.018488 -0.172158 -0.0731911
0.0837656 -0.173053 -0.0732905
0.0571466 -0.170815 -0.0732517
0.0440936 -0.169718 -0.0732326
-0.0247921 -0.16393 -0.0731196
-0.0860925 -0.163178 -0.0277228
-0.000295222 -0.161441 -0.0731619
-0.086175 -0.163543 0.023543
-0.0861995 -0.164979 0.0387691
-0.0368217 -0.153991 -0.0731072
-0.0720197 -0.151195 -0.0730523
-0.0860363 -0.151046 -0.0625234
-0.0862426 -0.163199 0.0700481
0.079157 -0.17004 0.0564768
0.0524166 -0.168671 0.0643041
0.0837656 -0.154088 -0.0732905
0.0571466 -0.152096 -0.0732517
0.0440936 -0.151119 -0.0732326
0.0830316 -0.159282 -0.0125961
0.018488 -0.149203 -0.0731911
0.0820094 -0.162221 0.0222855
-0.0860696 -0.144078 -0.0418178
-0.0861273 -0.14716 -0.00612783
-0.0126187 -0.142357 -0.0731391
-0.0861509 -0.143863 0.00857961
-0.0860474 -0.134088 -0.0556788
-0.0862244 -0.142998 0.0542651
-0.0862426 -0.144278 0.0700481
-0.0368251 -0.131673 -0.073111
-0.0662434 -0.129675 -0.0730624
-0.0861273 -0.133576 -0.00612783
0.0637366 -0.133809 -0.0732613
0.0376298 -0.132096 -0.0732232
0.018488 -0.13084 -0.0731911
0.0770457 -0.129957 -0.0732808
-0.0247976 -0.123508 -0.0731256
-0.000297189 -0.120512 -0.073164
-0.0860696 -0.117479 -0.0418178
-0.0861995 -0.123153 0.0387691
-0.0427752 -0.11347 -0.0730947
-0.0604262 -0.112434 -0.0730662
-0.0860363 -0.111643 -0.0625234
-0.086104 -0.114484 -0.0205856
-0.0861509 -0.116461 0.00857961
0.018488 -0.112476 -0.0731911
-0.0862426 -0.115895 0.0700481
0.0770457 -0.111054 -0.0732808
0.0571466 -0.109977 -0.0732517
0.0440936 -0.109271 -0.0732326
-0.0860696 -0.10418 -0.0418178
-0.000294566 -0.102322 -0.0731612
-0.086175 -0.103654 0.023543
-0.0861995 -0.104564 0.0387691
-0.0247971 -0.0965609 -0.0731251
-0.0777618 -0.093939 -0.073043
-0.0368187 -0.0915024 -0.0731038
-0.0862426 -0.0969736 0.0700481
0.0770457 -0.0921511 -0.0732808
0.0571466 -0.0912576 -0.0732517
0.0440936 -0.0906715 -0.0732326
0.018488 -0.0895219 -0.0731911
-0.0247973 -0.0830873 -0.0731252
-0.086104 -0.0830574 -0.0205856
-0.0861509 -0.084491 0.00857961
-0.000294209 -0.0795834 -0.0731607
-0.0862426 -0.0827823 0.0700481
-0.0427779 -0.0734217 -0.0730976
-0.0720159 -0.0723111 -0.073048
-0.0860363 -0.0722396 -0.0625234
-0.0860696 -0.0731473 -0.0418178
-0.0861995 -0.0766803 0.0387691
0.0837656 -0.0734881 -0.0732905
0.0505992 -0.0723044 -0.0732421
0.0312071 -0.0716122 -0.0732139
-0.000291765 -0.0613931 -0.0731581
-0.0862244 -0.0632943 0.0542651
-0.0862426 -0.0638607 0.0700481
-0.0247948 -0.0561402 -0.0731225
-0.0777618 -0.0546157 -0.073043
-0.086104 -0.0561198 -0.0205856
-0.0861509 -0.0570885 0.00857961
0.0837656 -0.0545235 -0.0732905
0.0637366 -0.0539931 -0.0732613
-0.0368217 -0.0513304 -0.0731072
0.0440936 -0.0488231 -0.0732326
0.018488 -0.0482041 -0.0731911
-0.0860696 -0.0465483 -0.0418178
-0.0861273 -0.043016 -0.00612783
-0.0861509 -0.0433873 0.00857961
-0.0861995 -0.0441493 0.0387691
-0.0862426 -0.044939 0.0700481
-0.000291765 -0.0386549 -0.0731581
-0.0247948 -0.0336841 -0.0731225
-0.0427781 -0.0333735 -0.0730979
-0.0860696 -0.0332488 -0.0418178
0.0770457 -0.030717 -0.0732808
0.0571466 -0.0304192 -0.0732517
0.0440965 -0.0302239 -0.0732296
0.0184896 -0.0298407 -0.0731894
-0.0662386 -0.0285727 -0.073057
-0.0860363 -0.028458 -0.0625234
-0.086104 -0.0246927 -0.0205856
-0.000291765 -0.0204644 -0.0731581
-0.0861509 -0.0159848 0.00857961
-0.0861995 -0.0162655 0.0387691
-0.0862426 -0.0165565 0.0700481
0.0770457 -0.0118143 -0.0732808
0.0571466 -0.0116997 -0.0732517
0.044092 -0.0116245 -0.0732342
0.0184854 -0.0114771 -0.0731938
-0.0368186 -0.0111588 -0.0731037
-0.0662388 -0.0109895 -0.0730572
-0.0860363 -0.0109454 -0.0625234
-0.0247948 -0.00673683 -0.0731225
-0.0860696 -0.00664977 -0.0418178
-0.000291765 -0.00227383 -0.0731581
0.0837656 0.00711173 -0.0732905
0.0637366 0.00704255 -0.0732613
-0.024797 0.00673678 -0.0731249
-0.042774 0.00667471 -0.0730933
-0.0777618 0.00655386 -0.073043
-0.0860696 0.00664974 -0.0418178
-0.086104 0.00673436 -0.0205856
-0.0861509 0.0068506 0.00857961
-0.0861995 0.00697092 0.0387691
-0.0862426 0.00709561 0.0700481
0.0440986 0.0116246 -0.0732276
0.0184862 0.0114772 -0.073193
-0.000299096 0.0204642 -0.073166
0.0837656 0.0260765 -0.0732905
0.0637366 0.0258228 -0.0732613
-0.0861509 0.025119 0.00857961
-0.0861995 0.0255601 0.0387691
-0.0862426 0.0260173 0.0700481
0.0440958 0.0302239 -0.0732304
0.0184888 0.0298407 -0.0731903
-0.0368176 0.029013 -0.0731027
-0.0662391 0.0285727 -0.0730575
-0.0860363 0.028458 -0.0625234
-0.024795 0.0336841 -0.0731227
-0.0860696 0.0332488 -0.0418178
-0.086104 0.0336719 -0.0205856
-0.000295818 0.0386547 -0.0731624
0.0837656 0.0450411 -0.0732905
0.0571466 0.0491387 -0.0732517
0.0440946 0.0488231 -0.0732316
0.0184896 0.0482042 -0.0731894
-0.0427742 0.0467231 -0.0730936
-0.0777618 0.0458771 -0.073043
-0.0860696 0.0465483 -0.0418178
-0.0861509 0.0525214 0.00857961
-0.0861995 0.0534439 0.0387691
-0.0862426 0.0543998 0.0700481
-0.0247936 0.0561402 -0.0731212
-0.086104 0.0561198 -0.0205856
-0.00029391 0.061393 -0.0731605
0.0770457 0.0685226 -0.0732808
0.0571466 0.0678582 -0.0732517
-0.0861509 0.0662227 0.00857961
0.0440942 0.0720722 -0.0732319
0.0184913 0.0711587 -0.0731877
-0.0368177 0.0691848 -0.0731028
-0.0662392 0.0681348 -0.0730577
-0.0860363 0.0678614 -0.0625234
-0.0862244 0.0726712 0.0542651
-0.0862426 0.0733215 0.0700481
-0.0860696 0.0731474 -0.0418178
-0.00029391 0.0795835 -0.0731605
0.0637366 0.0868585 -0.0732613
-0.0247937 0.0830876 -0.0731214
-0.086104 0.0830574 -0.0205856
-0.086175 0.0852265 0.023543
-0.0861995 0.085975 0.0387691
0.0770457 0.0921511 -0.0732808
0.0440963 0.0906717 -0.0732298
0.0184913 0.0895222 -0.0731877
-0.0427744 0.0867715 -0.0730938
-0.0777618 0.0852004 -0.073043
-0.0860696 0.0864469 -0.0418178
-0.0862426 0.0969736 0.0700481
-0.00029391 0.097774 -0.0731605
-0.0247938 0.0965612 -0.0731215
-0.086104 0.0965261 -0.0205856
0.0837656 0.106676 -0.0732905
0.0637366 0.105639 -0.0732613
-0.0862244 0.105491 0.0542651
0.0440963 0.109271 -0.0732298
0.0184913 0.107886 -0.0731877
-0.0368179 0.109357 -0.073103
-0.0662392 0.107697 -0.0730577
-0.086175 0.112868 0.023543
-0.0862426 0.115895 0.0700481
-0.0860363 0.111643 -0.0625234
-0.0860696 0.113046 -0.0418178
-0.0861273 0.115464 -0.00612783
0.0837656 0.125641 -0.0732905
-0.000293374 0.120512 -0.0731599
0.0571457 0.128696 -0.0732526
0.0440963 0.12787 -0.0732298
-0.0247939 0.123509 -0.0731217
-0.0861509 0.125595 0.00857961
0.0184879 0.13084 -0.0731913
-0.0427746 0.12682 -0.073094
-0.0860474 0.125296 -0.0556788
-0.0860696 0.126345 -0.0418178
-0.086212 0.133032 0.0464829
-0.0662394 0.129676 -0.0730579
-0.000293374 0.138703 -0.0731599
-0.0247941 0.136982 -0.0731218
-0.0862426 0.144278 0.0700481
0.0770457 0.148859 -0.0732808
-0.0861273 0.142632 -0.00612783
-0.086175 0.145115 0.023543
-0.0861995 0.14639 0.0387691
0.0637366 0.152589 -0.0732613
0.0440963 0.15112 -0.0732298
0.0184882 0.149203 -0.0731909
-0.0860925 0.145295 -0.0277228
-0.0368182 0.149528 -0.0731034
-0.0777618 0.14637 -0.073043
-0.0861273 0.156216 -0.00612783
-0.0862426 0.1632 0.0700481
0.0770457 0.167762 -0.0732808
0.0637366 0.166674 -0.0732613
-0.000292957 0.161441 -0.0731595
-0.0862244 0.166441 0.0542651
0.0440969 0.169719 -0.0732292
0.0184897 0.167567 -0.0731894
-0.0247942 0.163929 -0.0731218
-0.0427749 0.166868 -0.0730943
-0.0860696 0.166244 -0.0418178
-0.086175 0.172756 0.023543
-0.0662397 0.169238 -0.0730582
-0.0860363 0.168559 -0.0625234
0.0637366 0.185454 -0.0732613
-0.000293136 0.179631 -0.0731596
-0.0862244 0.185194 0.0542651
-0.0862426 0.186852 0.0700481
0.0770457 0.191391 -0.0732808
0.0440964 0.188318 -0.0732298
-0.0861155 0.182603 -0.0133874
0.0184897 0.190521 -0.0731894
-0.0247943 0.186386 -0.073122
-0.0860925 0.185531 -0.0277228
-0.0368183 0.1897 -0.0731035
-0.0777599 0.185694 -0.0730407
-0.0861509 0.194101 0.00857961
0.0837656 0.206241 -0.0732905
-0.000293195 0.197822 -0.0731597
-0.0862426 0.205773 0.0700481
0.0571457 0.208254 -0.0732526
-0.086175 0.205004 0.023543
0.0440953 0.211567 -0.0732308
0.0184889 0.208885 -0.0731902
-0.0861273 0.206024 -0.00612783
-0.0862244 0.213325 0.0542651
-0.0368184 0.207554 -0.0731037
0.0837656 0.225206 -0.0732905
-0.0247943 0.213333 -0.073122
-0.0662399 0.2088 -0.0730584
-0.0860363 0.207963 -0.0625234
-0.000293374 0.22056 -0.0731599
-0.0860696 0.215009 -0.0418178
-0.0861995 0.225394 0.0387691
0.0571484 0.231654 -0.0732499
0.0440981 0.230167 -0.0732279
-0.0861509 0.22607 0.00857961
-0.0862371 0.233112 0.0621166
0.0184903 0.231839 -0.0731888
-0.0247944 0.226806 -0.0731221
-0.0368186 0.229872 -0.0731037
-0.0777599 0.225017 -0.0730407
-0.0861273 0.233192 -0.00612783
0.0770457 0.248099 -0.0732808
0.0637389 0.246491 -0.0732591
-0.000293374 0.238751 -0.0731599
0.0440981 0.248767 -0.0732279
-0.0862426 0.253077 0.0700481
0.0184903 0.250203 -0.0731888
-0.086081 0.242624 -0.0347999
-0.0861995 0.253278 0.0387691
-0.0368187 0.247726 -0.0731038
-0.0861509 0.253473 0.00857961
0.0637376 0.265271 -0.0732604
-0.0247946 0.253754 -0.0731223
-0.0662401 0.248362 -0.0730586
-0.0861273 0.255832 -0.00612783
0.0837656 0.272617 -0.0732905
-0.000293493 0.261489 -0.0731601
-0.0860363 0.251744 -0.0625234
0.0440961 0.272015 -0.07323
0.0184902 0.268566 -0.0731888
-0.086212 0.273066 0.0464829
-0.0862426 0.27673 0.0700481
-0.0860696 0.263774 -0.0418178
-0.0861629 0.272919 0.0160289
0.0837656 0.286841 -0.0732905
-0.0368189 0.270044 -0.073104
0.0571472 0.287813 -0.0732511
-0.000293612 0.279679 -0.0731602
-0.0247948 0.27621 -0.0731225
-0.0662401 0.270341 -0.0730587
-0.0860363 0.269257 -0.0625234
-0.0861995 0.285809 0.0387691
0.0440971 0.290615 -0.073229
-0.0861273 0.283 -0.00612783
-0.0861509 0.285442 0.00857961
-0.0862426 0.295651 0.0700481
0.01849 0.291521 -0.073189
-0.086081 0.282691 -0.0347999
0.0837656 0.305806 -0.0732905
-0.0368189 0.287898 -0.073104
-0.000293612 0.29787 -0.0731602
-0.0662403 0.287924 -0.0730589
0.0571497 0.311213 -0.0732486
0.0440961 0.309214 -0.07323
-0.0860363 0.291148 -0.0625234
0.0184899 0.309884 -0.0731892
-0.0247949 0.303157 -0.0731226
-0.086104 0.303047 -0.0205856
-0.0861995 0.313692 0.0387691
-0.0860696 0.303672 -0.0418178
-0.0861509 0.312845 0.00857961
-0.0862371 0.322589 0.0621166
0.0770457 0.328436 -0.0732808
0.0637387 0.326307 -0.0732593
-0.0368191 0.310215 -0.0731043
-0.0860474 0.305546 -0.0556788
0.0440975 0.327814 -0.0732286
-0.000293732 0.320608 -0.0731603
-0.024795 0.316631 -0.0731227
-0.0662404 0.309903 -0.073059
-0.0860925 0.315179 -0.0277228
0.0184897 0.328248 -0.0731894
-0.0861273 0.323752 -0.00612783
-0.0862244 0.335225 0.0542651
-0.0861629 0.332548 0.0160289
-0.0862426 0.342955 0.0700481
0.0637372 0.345086 -0.0732608
-0.0368191 0.328069 -0.0731043
0.0837656 0.353217 -0.0732905
-0.00029391 0.338798 -0.0731605
-0.0777605 0.32551 -0.0730416
0.0440974 0.351063 -0.0732287
-0.0860584 0.333309 -0.0487772
-0.086139 0.343333 0.00119436
-0.0862426 0.357147 0.0700481
0.0184897 0.351202 -0.0731894
-0.0247952 0.343578 -0.0731229
-0.086104 0.343453 -0.0205856
-0.0861873 0.353964 0.0311226
-0.0862244 0.363356 0.0542651
0.0770457 0.370967 -0.0732808
-0.0368191 0.350387 -0.0731043
-0.0860474 0.345113 -0.0556788
-0.0861273 0.355448 -0.00612783
0.0637372 0.373257 -0.0732608
0.0440972 0.369662 -0.0732288
-0.00029403 0.361536 -0.0731605
-0.0662406 0.349465 -0.0730593
-0.0861509 0.363083 0.00857961
-0.0862426 0.376068 0.0700481
0.0184896 0.369565 -0.0731894
0.0837656 0.386405 -0.0732905
-0.0247952 0.366034 -0.0731229
-0.086081 0.362823 -0.0347999
-0.086175 0.375457 0.023543
-0.0368192 0.368241 -0.0731044
-0.0861995 0.383402 0.0387691
0.0571493 0.390771 -0.073249
0.0440972 0.388261 -0.0732288
-0.000294209 0.379727 -0.0731607
0.0184894 0.387929 -0.0731896
-0.0662406 0.371444 -0.0730593
-0.0860363 0.369954 -0.0625234
-0.0861273 0.382616 -0.00612783
0.0837656 0.40537 -0.0732905
-0.0862371 0.402648 0.0621166
0.0637388 0.406123 -0.0732592
-0.0860696 0.383469 -0.0418178
-0.0861509 0.395052 0.00857961
-0.000294209 0.397917 -0.0731607
-0.0247954 0.392981 -0.0731232
-0.0368193 0.390559 -0.0731046
0.0440971 0.411511 -0.073229
-0.0662407 0.389027 -0.0730594
0.0184893 0.410883 -0.0731898
-0.0860363 0.391845 -0.0625234
-0.0861155 0.40353 -0.0133874
-0.0861873 0.414114 0.0311226
-0.0862426 0.423373 0.0700481
0.0770466 0.427676 -0.0732799
-0.0247954 0.406455 -0.0731232
-0.086081 0.40289 -0.0347999
-0.0862244 0.424306 0.0542651
0.0571491 0.42821 -0.0732492
-0.0368195 0.408413 -0.0731047
0.0440969 0.43011 -0.0732292
-0.000294387 0.420655 -0.0731609
0.0184892 0.429247 -0.0731899
-0.0662408 0.411006 -0.0730595
-0.0860363 0.409358 -0.0625234
-0.0861273 0.423368 -0.00612783
-0.0861873 0.432622 0.0311226
-0.0862244 0.44306 0.0542651
-0.0862426 0.447025 0.0700481
0.0837656 0.452782 -0.0732905
-0.0860696 0.423368 -0.0418178
0.0637385 0.453073 -0.0732595
0.0440969 0.448709 -0.0732293
-0.000294447 0.438846 -0.073161
-0.0247955 0.433402 -0.0731233
-0.0368196 0.43073 -0.0731049
0.0184891 0.44761 -0.0731901
-0.066241 0.428589 -0.0730597
-0.086139 0.443377 0.00119436
0.0837656 0.467005 -0.0732905
-0.0860363 0.431249 -0.0625234
-0.086175 0.453774 0.023543
-0.0862426 0.465946 0.0700481
0.0637383 0.467158 -0.0732597
-0.0247957 0.446875 -0.0731235
-0.086081 0.442956 -0.0347999
-0.086212 0.464445 0.0464829
-0.0368197 0.448584 -0.073105
-0.0861273 0.455064 -0.00612783
0.0440967 0.471958 -0.0732294
-0.000294566 0.461584 -0.0731612
0.0837658 0.48597 -0.0732905
0.0184889 0.470564 -0.0731902
-0.0662411 0.450568 -0.0730599
-0.0860363 0.448761 -0.0625234
-0.0861873 0.474265 0.0311226
0.0637383 0.485939 -0.0732597
-0.0860925 0.46271 -0.0277228
-0.0861509 0.472693 0.00857961
-0.086212 0.483116 0.0464829
-0.0427764 0.465005 -0.073096
0.0376332 0.488987 -0.0732196
-0.000294745 0.479774 -0.0731614
-0.0247958 0.473823 -0.0731236
0.0184889 0.488928 -0.0731902
-0.0662412 0.468151 -0.07306
-0.0860363 0.470652 -0.0625234
-0.086104 0.482631 -0.0205856
-0.0368198 0.488756 -0.0731051
-0.0720187 0.488646 -0.0730513
-0.0860363 0.488165 -0.0625234
