ply
format ascii 1.0
comment Created by Open3D
element vertex 1604
property double x
property double y
property double z
end_header
-0.116473 -0.0404102 -0.0766624
0.11998 -0.0784917 -0.00472252
0.170427 -0.0784917 0.343378
-0.184576 -0.0327218 -0.296243
0.0612479 -0.0784917 0.411166
-0.141934 0.0178087 -0.0146603
0.13307 0.0178087 -0.277423
0.171949 0.0178087 -0.134898
-0.0947541 0.0985785 0.433015
-0.016573 0.0467346 -0.252338
0.12664 0.0457812 -0.250993
-0.0724493 0.0234462 0.273566
-0.0273562 0.0420011 0.367701
-0.154972 -0.110085 0.0157607
-0.153382 -0.079277 -0.340822
-0.102367 0.0130517 0.0690444
0.176947 0.0391773 0.272465
0.00232184 0.0195298 0.28194
0.110213 0.0311159 0.133103
-0.137012 -0.0784917 0.131391
-0.0893033 -0.0784917 0.0781794
0.153678 0.0184119 0.103343
-0.184576 -0.0674374 -0.293467
0.122284 0.0178087 0.0943809
0.0959112 -0.0219637 -0.322555
-0.0144722 0.032037 0.304735
-2.64943e-05 0.0590364 0.407099
0.109181 -0.0291221 -0.322555
-0.00419457 0.106021 0.441607
-0.13888 -0.0809627 0.0172335
0.0930627 0.0436259 0.151957
0.0604299 -0.0784917 0.236381
-0.0777912 0.052716 0.360339
-0.0526868 0.0616217 0.410084
-0.00571404 -0.0784917 -0.26761
0.0418258 0.0194552 0.354106
0.100602 -0.0155436 0.431798
-0.184576 0.00748339 0.0339594
-0.108045 -0.0251584 -0.228448
-0.121282 0.0178087 -0.258578
0.128743 0.0178087 0.354344
0.106824 0.0435242 0.301782
-0.0716763 0.0329109 0.0350919
0.184576 -0.0627621 -0.269972
-0.0814945 0.109461 -0.318048
0.0427956 0.0439972 0.125431
-0.108248 -0.0255246 -0.123556
0.158233 0.0507189 0.397497
0.171479 -0.0784917 0.334855
0.12682 0.0309932 0.111957
-0.126792 0.0948222 0.428679
-0.106957 0.0326749 -0.103755
-0.0100169 -0.0651999 -0.322555
-0.16638 -0.0784917 -0.0798405
0.106915 0.0444464 -0.0462517
0.088142 0.0317373 -0.0913517
-0.047934 0.0322842 0.109849
-0.178129 -0.104968 -0.366927
-0.150311 0.0178087 -0.194377
-0.0789472 -0.0784917 0.208616
0.184576 -0.0673979 0.0800383
-0.113961 0.02 -0.138025
-0.0299051 0.032151 0.235938
0.0312293 0.0600746 0.368834
-0.173479 0.0178087 0.287245
0.125286 0.0443114 -0.116049
-0.184576 0.00457764 0.259581
0.00759479 0.0657452 0.395111
-0.0295409 -0.042169 -0.322555
-0.160795 -0.0647603 -0.239799
-0.141277 0.0178087 -0.207905
-0.1232 0.0336508 0.358061
-0.0341662 0.0627961 -0.275006
0.160453 -0.0784917 -0.133548
-0.146622 -0.0670417 -0.424662
0.144168 -0.0897295 0.333792
-0.145512 -0.0929653 -0.157985
0.17515 0.0200195 0.0278413
0.184576 -0.069374 -0.193115
0.0379495 -0.0727992 -0.322555
0.16938 -0.0784917 -0.280094
0.161594 0.105595 0.421384
0.0329263 -0.0218196 0.431798
-0.0118801 0.044401 0.144323
0.052598 0.0602418 -0.249055
0.0796078 0.0660152 -0.257203
0.142879 -0.0784917 0.293736
-0.0593287 0.0813343 0.393377
0.0434477 -0.0784917 -0.210318
0.160819 0.0312036 -0.153072
-0.144834 -0.0358754 -0.272758
-0.184576 -0.0410509 0.345785
0.100408 0.0178087 0.408259
0.0311367 0.0637529 -0.25401
-0.0763915 0.0178087 -0.0385972
0.110927 0.0187278 0.125998
0.184576 -0.0707337 -0.0311095
-0.139954 0.0367088 0.361591
-0.173978 -0.0886187 -0.162201
-0.0510401 0.0178087 0.365765
0.0127751 0.0318357 0.105266
-0.0379704 -0.0784917 0.0158171
0.146658 0.0195383 0.0679825
0.168218 0.0178087 0.343547
0.00576646 0.0178087 -0.0653683
-0.115477 0.0172565 -0.122369
0.102396 0.0187854 0.0210089
0.0131653 0.0178087 0.138878
0.122161 0.0186403 -0.0517993
0.184106 -0.0784917 -0.245326
-0.166223 -0.0784917 0.0773661
0.0672587 0.0648569 -0.277914
0.0229827 -0.0354855 -0.322555
-0.123767 0.00225177 -0.25881
-0.146079 -0.0660588 -0.28026
0.17666 0.0123761 -0.322555
0.105819 -0.0784917 -0.146043
-0.0576761 -0.0784917 0.147636
0.163174 0.0183419 0.294757
0.0871481 0.0178087 0.315611
-0.0802094 -0.0762882 -0.322555
0.184576 0.00256717 -0.130767
-0.123165 -0.024589 -0.178185
0.00650815 0.0178087 -0.0212314
0.0818024 0.043709 0.221504
-0.033387 0.0445599 0.140695
0.069161 0.0314192 0.14595
-0.184576 -0.0357367 -0.24017
-0.134678 -0.0733577 0.0183494
0.0456162 0.0611647 -0.228011
0.0212214 0.0178087 0.393272
0.118889 0.0178087 0.391363
-0.126944 -0.0244329 -0.322555
0.0012657 0.0178087 0.388543
-0.0101862 0.0320053 0.202471
-0.078372 0.061718 -0.228792
-0.184576 -0.0585914 -0.292222
-0.168392 -0.106441 -0.136431
0.179189 0.0306063 0.164537
-0.0121846 0.0902812 -0.29145
0.184576 -0.0338439 -0.192602
0.1257 0.0178087 -0.00192843
0.179952 0.0310631 -0.110801
0.0597013 -0.0784917 0.375906
-0.165866 0.0178087 -0.14847
0.0426675 0.0439981 0.159269
-0.125499 -0.028813 -0.131371
-0.00302461 0.0443356 0.201272
-0.11422 0.0195313 0.035328
-0.172275 -0.113469 -0.111328
-0.116152 -0.0117347 0.431798
0.0220747 -0.0784917 -0.0636133
-0.0387704 0.0198333 0.315909
0.15531 0.0184 0.153475
0.0295619 0.0321675 -0.101448
-0.173388 -0.0875522 -0.252782
-0.184576 -0.0128677 -0.184204
0.066848 0.0190464 0.0155773
0.0396252 0.0192543 0.12696
-0.0951159 -0.0017585 0.0098919
0.144168 -0.0881172 0.334392
-0.156375 -0.0846936 -0.34851
0.184576 -0.0516219 0.0692626
0.0925024 0.0937045 0.427388
-0.14772 -0.0690307 -0.1997
0.184576 -0.0756942 0.375158
0.0558313 0.0315176 0.200234
0.0291342 0.0178087 -0.213538
0.0124611 0.031838 0.196562
-0.0667837 0.032875 -0.0487036
0.109525 0.0178087 0.178809
-0.135351 -0.0784917 -0.232665
-0.0591255 0.0815093 0.41331
-0.156911 -0.0577306 -0.214968
0.124457 0.0368166 0.0769798
0.0886444 0.0401557 0.073576
0.117624 0.0315208 0.0416311
0.0626703 0.0632315 -0.253274
0.117736 0.0186775 0.115139
0.0635758 -0.0784917 -0.0649012
0.175174 0.0178087 0.0200569
-0.0844734 0.0175022 -0.0905589
-0.12023 0.0086547 0.0575617
0.0571566 0.0751511 -0.24775
0.0119014 -0.0784917 -0.260857
0.179118 0.0178087 -0.0428879
0.16846 0.0178087 0.366565
0.0953548 -0.0784917 -0.25029
0.123161 0.0691697 -0.261655
-0.155953 -0.0839299 -0.405841
-0.156436 0.00251383 -0.322555
-0.126786 -0.0784917 0.0907884
0.144365 0.0441713 -0.0477908
0.147063 -0.0784917 0.308362
-0.106176 0.00615815 -0.261461
0.00870503 -0.0784917 0.362333
-0.053118 -0.0784917 -0.000259683
0.0212014 0.040412 -0.185844
0.164588 0.0178087 0.340444
-0.184576 -0.0293831 0.330525
0.0406579 0.032086 0.0152348
-0.0910617 0.0335114 -0.0203144
-0.00617402 0.0458197 -0.2287
0.0894339 0.0178087 0.149633
0.184576 0.00575629 -0.116122
-0.136208 -0.0481953 -0.351793
0.00554746 0.0323438 0.0180654
0.0471768 -0.0784917 -0.313563
-0.184576 0.0057821 -0.0941579
-0.111779 -0.0784917 -0.218693
-0.119976 -0.0188186 0.00770353
0.114212 0.0723452 -0.24379
-0.0512 0.0354916 0.342171
0.0561915 0.0178087 0.296581
-0.127231 -0.0598813 -0.381961
0.175159 0.0310983 0.0178158
0.0183205 0.0540378 0.361865
-0.025264 0.0178087 0.123803
-0.154923 -0.0820662 0.0163592
0.0749691 0.11086 0.427463
-0.0647855 0.0492186 -0.233497
0.0741061 0.0318404 -0.16655
-0.116858 0.0672079 0.3968
0.170572 0.03067 0.111525
0.174285 0.0178087 -0.00335123
-0.0961414 0.0910673 -0.270213
-0.0938128 0.0324069 -0.20977
-0.0426368 0.0326976 0.0354059
-0.15396 0.0178087 -0.0560104
0.0954997 0.0508083 -0.235741
0.062546 0.0643078 0.373721
-0.116633 -0.0127671 -0.364621
-0.170743 -0.110697 -0.419964
-0.086278 0.0335752 -0.214372
-0.175766 -0.0143722 0.431798
-0.103005 0.0178087 0.221688
0.0925235 0.0317051 -0.154689
-0.174927 -0.0903375 0.00280574
-0.14886 -0.0710933 -0.230767
0.173251 -0.0798573 -0.268388
0.119708 0.0315055 0.0190756
-0.0913034 0.0640111 -0.254374
0.104133 0.0178087 0.0172746
0.169835 -0.0679297 -0.322555
0.128614 -0.0784917 -0.276729
-0.0709472 0.0307734 0.354739
-0.066196 0.0324191 0.194663
-0.167092 -0.104089 -0.391141
-0.0193322 0.032073 0.321644
-0.143901 -0.0621171 -0.0604634
-0.124183 -0.0784917 -0.178085
0.184576 -0.0186129 -0.138803
-0.173044 -0.0869296 -0.223908
-0.093342 0.0946475 -0.297612
-0.184576 -0.0261457 -0.20705
-0.0810698 -0.0784917 0.142673
0.162858 0.0178087 0.259721
-0.112316 -0.0784917 0.423672
0.184576 -0.0342701 0.0640057
-0.000589373 0.0969971 -0.300929
-0.151188 -0.0753063 -0.352517
0.000443716 0.0323813 0.026421
-0.0729707 -0.0784917 0.0806443
0.0355483 -0.0784917 0.308236
0.0794888 -0.0784917 -0.196927
-0.0821749 0.0216622 -0.00858074
-0.184576 -0.0276358 -0.176993
-0.135384 0.0178087 0.171931
0.154228 -0.0784917 0.272628
0.0586286 0.0178087 0.379599
0.0319546 0.0440771 0.320552
-0.0150476 0.0178087 0.340641
-0.156493 -0.0849065 -0.163514
-0.134663 0.0430396 0.385652
-0.111346 -0.00319991 -0.243013
-0.184576 -0.00279284 -0.261511
0.0888765 0.0278837 0.371135
0.184576 -0.0580891 0.0600999
0.173709 0.0184216 0.197121
0.173251 -0.0918244 -0.302082
-0.000919893 -0.0221108 0.431798
0.163539 0.10454 0.448577
-0.13902 -0.0532833 -0.370822
-0.165597 -0.101384 -0.44408
-0.0866119 0.0422637 0.387736
-0.179139 -0.0992963 -0.399567
-0.0770593 0.025728 0.204672
-0.148231 -0.0699548 -0.166768
-0.068214 0.0178087 0.342848
0.0970914 -0.0784917 0.415856
0.0327964 -0.0334876 -0.322555
-0.0181031 0.0178087 -0.231976
-0.176153 -0.0784917 -0.0192098
-0.100945 -0.0123073 -0.0180254
0.0413343 0.032081 -0.124418
-0.146954 0.0178087 0.417799
0.184576 -0.0316968 -0.294341
-0.0150136 0.0776023 -0.25121
0.0731005 0.0501193 -0.212423
-0.164244 -0.0989348 -0.324295
-0.0558719 0.0456416 -0.00661006
0.144629 0.0730923 0.423326
0.151884 0.0312692 -0.152389
-0.134394 -0.0449129 -0.171437
-0.170457 0.0178087 -0.249845
-0.0523004 0.0892494 -0.31234
0.0707319 0.0406545 0.330265
0.173251 -0.0864866 -0.305303
0.100612 0.0187985 -0.0978704
-0.110589 -0.0784917 0.35648
-0.184576 -0.0200295 -0.258729
-0.151154 0.0178087 0.083158
0.184576 -0.0739875 -0.108929
0.180851 0.0310565 -0.0798653
-0.149056 0.0178087 0.0439656
-0.0400896 -0.0784917 0.231096
0.0751683 0.0178087 0.0309805
-0.184576 -0.0784578 -0.269614
-0.0503061 0.0178087 -0.0887464
-0.13451 -0.0451223 -0.344547
0.0571281 0.0744002 -0.246691
-0.184576 -0.076442 0.103116
-0.169355 -0.0784917 0.372014
0.0272766 0.0321842 -0.0342193
0.0472998 0.0320372 0.0100446
-0.127017 -0.0594939 -0.219282
0.078462 0.0178087 0.406595
-0.144661 -0.0355612 -0.227246
-0.106689 0.0331604 -0.237906
-0.0889117 -0.0784917 0.331067
-0.0678929 0.0693771 -0.261948
0.153383 0.0178087 0.116278
-0.149444 -0.0784917 -0.0984088
-0.0956175 0.0178087 0.407177
0.042753 0.0939776 -0.274321
0.0419408 -0.0784917 -0.0757871
0.0699717 -0.0784917 -0.171076
-0.151963 -0.0767084 -0.0413039
-0.184576 0.0153151 -0.173052
-0.134109 0.0695247 0.416689
-0.11109 -0.00273603 -0.404558
0.138143 0.0407635 0.366272
-0.148241 -0.0784917 0.317451
0.0906166 0.0317191 -0.107248
0.00178232 0.0452184 -0.064599
-0.00335872 -0.0784917 0.349797
-0.103069 0.0117813 -0.237804
-0.0549704 -0.0784917 -0.269198
0.118118 0.0392631 0.384272
0.0863943 0.08402 -0.282614
-0.166995 -0.0918455 0.330461
0.172583 0.0178087 -0.318561
0.0947869 0.0178087 0.34527
-0.0657008 0.0299305 0.0719139
0.1364 0.033563 -0.211402
0.103082 -0.0433481 0.431798
-0.184576 0.00938464 -0.197467
-0.13802 -0.0794073 0.0240212
0.177197 0.0397612 -0.0723102
0.162145 -0.0784917 -0.306997
0.157301 0.0178087 0.137517
-0.010198 0.00817324 -0.322555
-0.143981 0.0178087 0.219663
-0.0423553 0.0198483 0.0178946
-0.105464 -0.0784917 -0.106328
0.0329295 0.0178087 0.298978
0.100425 0.0537675 0.401017
-0.108007 0.00284302 -0.236071
-0.0762479 0.0396091 0.247642
0.1558 0.0183933 -0.0756055
0.0160023 0.0451141 -0.127021
-0.103726 0.0105912 -0.128278
0.146106 0.0308507 0.0807225
-0.0849877 -0.0784917 0.0958655
0.0668078 0.0178087 0.143213
0.159256 0.0440619 -0.0325816
0.158381 0.0383138 0.344363
0.112876 0.0187085 -0.0120567
0.0186753 -0.0463449 0.431798
0.166118 0.0780553 -0.274196
-0.0538095 0.0323276 0.11298
-0.0261047 0.0178087 0.142299
-0.0230335 0.0325537 0.0546427
-0.124429 -0.021631 -0.184544
0.0103587 0.10925 -0.295875
0.151682 0.0184235 -0.159904
-0.0962155 0.0178087 0.379349
0.101337 0.0187932 -0.0555093
-0.0488307 0.0220218 -0.178955
0.163198 0.0307245 0.149292
-0.0903281 0.0838889 -0.304775
0.0251094 0.0317447 0.322401
-0.0959842 0.0246028 -0.198091
0.00196101 0.0319156 0.201387
0.0665699 0.0178087 0.367364
-0.0683866 0.0242791 -0.0854575
0.0124438 0.0194459 0.016741
0.121738 0.0178087 -0.127884
0.0180026 0.0322523 -0.0495364
-0.023425 0.0354993 0.360195
-0.139956 -0.0510585 0.431798
0.169316 0.0078463 0.431798
0.0413531 0.050031 0.376971
0.0495971 0.0178087 -0.202562
0.168043 0.018306 0.180927
-0.163712 0.0178087 -0.282624
-0.109106 0.000855083 0.011289
0.0696441 0.0178087 0.182205
0.132083 0.0313713 -0.190775
-0.151862 -0.0784917 -0.175884
0.184576 -0.0479974 0.191928
-0.147017 -0.0677574 -0.298403
0.00932829 0.0194688 0.0356515
0.117574 0.0598105 -0.2261
-0.0742279 0.0243265 0.296983
-0.139446 -0.0819879 -0.248992
-0.02123 -0.0784917 0.193502
0.0593948 0.0319484 0.0383289
0.11819 0.0920255 0.405719
-0.0251008 0.0362294 0.361038
-0.0378211 0.0455092 -0.042718
-0.0787887 -0.0784917 0.0526421
-0.015221 0.0320425 0.264876
-0.118629 -0.0225787 -0.322555
0.0512468 0.0315515 0.167595
-0.154387 0.0178087 0.321713
-0.0621599 0.0210129 -0.142888
-0.184576 -0.0424699 0.0229669
0.167662 0.0178087 0.190795
0.0112038 0.0451491 -0.0156817
-0.159772 -0.0908403 -0.426659
0.0360131 0.031664 0.205696
-0.148233 -0.0784917 -0.0642131
-0.15665 -0.111749 -0.237616
0.184576 -0.0340445 0.34168
0.178324 0.0371244 0.362071
-0.128284 -0.0338547 -0.0934976
-0.115478 0.0172542 -0.219561
0.17543 0.0420263 -0.0862016
-0.154296 -0.108704 -0.166322
-0.119117 0.0547183 0.382382
-0.150619 -0.0784917 -0.105553
-0.147508 -0.0686461 -0.209208
-0.145001 0.101813 0.43755
0.0701722 0.0508459 -0.213448
-0.00669237 -0.0784917 0.240671
0.170687 0.018284 0.0158306
0.0887877 0.0436574 0.209179
0.10092 0.0435678 0.302341
0.0288152 -0.0784917 -0.164226
0.184576 -0.0307481 -0.210059
0.184576 -0.0329229 -0.0903516
0.10677 0.0316005 0.0435485
0.0811305 0.0317888 0.0144202
0.122442 0.0443323 -0.134404
0.124663 0.0178087 0.268577
0.0457003 0.0784166 -0.252359
0.0445887 0.0316007 0.166941
-0.184576 0.00374504 0.201115
0.0112968 0.0318466 0.25742
0.007979 0.0194787 -0.10076
-0.160152 -0.0915289 -0.292335
0.160847 0.0178087 0.0974656
0.027819 -0.0784917 -0.23851
-0.127001 -0.0292181 0.0748681
0.172247 -0.0784917 -0.103073
0.0677703 0.0417547 -0.183561
-0.111505 -0.00348696 -0.204681
0.0460667 0.0448931 0.00938867
0.0977188 -0.0784917 0.127978
-0.0394988 0.0198386 0.217853
0.132069 0.0185716 0.194052
-0.0257562 0.0454206 -0.0650344
-0.151817 -0.076445 -0.127481
-0.158607 0.0178087 0.229528
0.0749197 0.0437599 0.306579
0.177119 0.0736862 -0.280128
0.142777 0.0308753 0.158902
0.110268 -0.0784917 0.326945
0.0693826 0.039146 -0.219281
0.11766 -0.0784917 0.385933
0.184576 -0.000674298 0.384076
0.0221525 0.0317664 0.142782
-0.184576 -0.0560206 -0.219214
-0.0403864 0.0455282 -0.142543
-0.176408 -0.109694 -0.102983
-0.178178 -0.104696 -0.0469988
0.0256412 -0.0784917 -0.0448017
-0.098475 0.03839 -0.304838
-0.137786 -0.067998 -0.181004
0.0983758 0.0435866 0.164857
0.0311678 0.0193168 0.147154
0.0103417 0.110892 0.446421
0.0275232 0.0317268 0.212633
-0.0976698 -0.0784917 -0.286822
0.0571244 0.0178087 0.143946
-0.0495275 0.0225571 -0.218216
-0.153901 -0.0802165 -0.0732951
-0.164563 0.0178087 -0.320091
0.0479536 0.0493506 -0.233683
-0.0961584 0.0178087 0.299436
-0.0773296 0.0325014 0.152316
0.16272 -0.0784917 -0.255176
-0.173725 -0.0784917 0.0412892
0.155274 0.0368653 0.361772
0.102475 0.0352807 0.335711
-0.12597 -0.0784917 -0.282094
0.139621 0.0313592 -0.0730389
-0.184576 -0.0280416 0.327618
-0.00860835 0.0178087 0.00173765
-0.175646 -0.0916382 -0.016864
0.141705 0.0313438 -0.18746
0.118519 0.0145435 0.431798
-0.142351 -0.0752948 0.0715994
-0.101167 0.0131793 -0.449765
0.059106 0.0314934 0.305089
-0.138413 -0.0801174 -0.148405
0.0785685 0.0446545 -0.0242959
0.0164723 0.0318084 0.223277
-0.184576 -0.0246418 -0.172127
-0.0569054 0.0536424 -0.239741
-0.184576 0.0145326 0.118722
0.168086 -0.0207942 0.431798
0.184576 -0.0776647 0.262652
0.176003 0.0178087 -0.296775
-0.0532547 0.0178087 -0.257807
-0.0810081 0.0178087 0.36729
-0.065691 0.042793 -0.115384
0.184576 -0.0497747 -0.284296
-0.122897 -0.0276571 0.431798
-0.0648142 0.0328605 -0.114737
-0.106123 -0.0216797 -0.259042
-0.160564 -0.0643429 -0.335298
-0.177425 -0.105212 -0.169171
-0.00787476 0.0324424 -0.159725
-0.132661 -0.0138433 0.0290707
-0.0877185 -0.0784917 -0.164928
0.0720639 0.0178087 0.342588
-0.108576 0.00181441 -0.194527
0.0913702 0.0436382 0.314596
-0.146037 -0.0380527 -0.0287527
-0.0391749 0.0326722 -0.033108
-0.184576 -0.0184805 0.426016
-0.0566237 0.0328004 -0.10835
-0.183968 -0.0784917 -0.0239736
0.114425 0.114784 0.439823
-0.155658 -0.0554642 -0.070214
-0.0303963 0.0454548 -0.0881356
-0.0516844 -0.0784917 0.178459
0.134169 0.0185521 -0.118486
-0.128027 -0.0784917 0.227354
-0.00972641 0.0178087 0.317126
0.0329129 0.0316869 0.230114
0.0628375 0.0314659 0.197687
-0.136268 -0.0762359 -0.294849
-0.154538 -0.109301 -0.330401
0.161389 -0.0784917 -0.286709
0.0460075 0.0320465 0.077467
0.168989 0.0306817 0.243689
0.0427145 -0.0784917 0.0297408
-0.184576 -0.0563103 0.274188
0.0786675 0.0189596 -0.105473
-0.184576 0.0071399 0.19734
0.0427938 0.0320703 -0.159781
0.104107 -0.0784917 0.0445137
0.171385 0.0401492 0.38161
-0.184576 -0.0681812 0.0969933
0.142489 0.0308774 0.209294
0.149424 -0.0784917 -0.201538
0.0797513 0.0446459 -0.0895922
0.151336 0.0761434 -0.249151
0.155243 0.0116992 0.431798
0.157849 0.030764 0.100897
-0.17918 -0.0990669 -0.290188
-0.078881 -0.0784917 0.018562
-0.142811 -0.0784917 -0.259323
0.15743 0.0307671 0.168054
-0.00763613 -0.0784917 -0.215634
-0.14573 -0.0654276 -0.161468
-0.17378 -0.112133 -0.327728
-0.184576 -0.0149858 0.274854
0.16843 -0.0784917 -0.272367
0.153099 -0.0602675 -0.322555
-0.061141 0.0178087 -0.20438
-0.0791132 0.0971092 0.449629
-0.101487 0.0358141 -0.433177
-0.101832 0.0385187 -0.404625
-0.0164749 0.0619954 -0.273876
-0.167334 -0.104527 -0.319553
-0.0718498 0.0231494 0.19845
0.184576 -0.0320854 0.387219
-0.161318 -0.0784917 0.359711
0.107572 0.0311354 0.230524
-0.184576 -0.0494558 -0.214757
-0.0314269 0.019779 0.178676
0.0602275 -0.0784917 0.229418
-0.012361 0.0453224 -0.110229
-0.108339 -0.0160768 -0.180075
-0.0508136 0.0178087 0.393472
0.0259724 0.0317382 0.159767
-0.142 -0.0586771 -0.367438
0.175206 0.0306357 0.294482
0.123117 -0.0784917 -0.303877
-0.184576 0.0145199 -0.231417
0.0856411 0.0317556 -0.124444
0.0424068 0.111476 -0.299016
-0.0407702 0.0322313 0.283836
0.0506719 0.0279302 0.351457
0.0193735 0.031787 0.0983832
0.0720664 0.0313977 0.209034
-0.0217269 0.0325441 -0.0164485
0.0304688 0.0760569 -0.271375
-0.141849 0.0364742 -0.208972
0.075955 0.031369 0.178938
-0.148451 -0.070352 -0.152934
-0.179437 -0.0784917 0.0568095
0.106099 -0.0784917 0.0363981
0.0800619 0.0317966 0.0391332
-0.09976 0.0177691 -0.0997462
-0.143769 0.0178087 0.365564
-0.10702 0.0178087 0.0804856
0.0569601 0.0319663 -0.0160929
0.081633 0.0178087 -0.173879
-0.144302 -0.0918455 -0.248355
0.081637 0.0135596 -0.322555
-0.00730778 -0.0784917 -0.0554473
0.139823 -0.0784917 0.155352
-0.143891 -0.0621 -0.192207
-0.0691118 0.0430108 0.113946
-0.12605 0.0450821 0.351526
-0.0289821 0.0479356 -0.254033
-0.172154 -0.0377903 -0.322555
-0.0954452 0.0255781 -0.174786
-0.130865 -0.0784917 -0.320994
-0.0210776 0.0325393 -0.0144519
-0.136732 -0.0491426 -0.0400445
0.184576 0.0175844 0.420964
-0.139544 -0.0542317 -0.405129
-0.177879 -0.106374 0.0330145
-0.104628 0.00895969 -0.246925
-0.00104864 0.0442558 -0.204147
-0.109846 -0.000556018 -0.185499
0.0934919 0.031698 -0.0566364
-0.169718 -0.0918455 0.329112
-0.171665 -0.0854339 0.397068
0.151007 0.018525 0.360332
0.15611 0.0936532 0.427329
0.0503174 0.10537 -0.319908
-0.176882 0.0178087 0.18567
-0.0702289 -0.0784917 0.355998
0.0577484 0.0191132 -0.153201
0.0622276 0.0314704 0.319582
0.161446 0.0431208 0.20529
0.0707925 0.0447117 -0.10361
0.142612 0.0313373 0.0584333
-0.042698 0.0322455 0.315136
-0.044024 0.0322553 0.247523
0.0709893 0.0314056 0.237372
0.184576 0.00959609 -0.191771
-0.0420395 0.0198459 0.0126314
0.0408089 0.0316286 0.298974
-0.0249247 0.0178087 0.314109
0.0917827 0.0991685 0.433696
0.100821 0.0316442 -0.116659
0.132657 0.0483 0.355241
0.0491426 0.0817937 0.393907
-0.137619 0.0479531 0.374572
0.184576 -0.025084 0.116293
0.0160695 0.0318114 0.227872
-0.100936 0.0156402 -0.39906
0.0383107 0.0316471 0.235223
-0.102917 0.0335992 -0.197346
-0.102659 0.012522 -0.34415
-0.13784 -0.0790813 0.0176309
-0.116876 -0.0784917 -0.107181
0.128598 0.0889865 0.441675
0.0131978 0.0178087 -0.289518
0.178201 0.0384753 -0.0839472
0.0502732 0.0269886 0.345781
-0.142582 -0.0849315 -0.292093
-0.118735 -0.0165719 -0.151293
0.182797 0.0178087 0.27331
-0.0320308 0.0326198 -0.137977
0.0300977 0.0881398 -0.310774
0.0559492 0.0750168 0.386084
-0.0972248 -0.0784917 0.205314
-0.0973858 -0.0784917 0.0158972
-0.0442809 0.0322572 0.137
-0.0960555 0.0244735 -0.124623
0.138672 0.0579223 0.386081
0.184576 -0.00140079 0.223906
0.0450352 0.0449007 0.0128443
0.170782 0.0439773 -0.113547
0.130965 -0.0784917 0.141306
0.0315016 0.032153 -0.180862
0.120737 0.0310381 0.106823
0.0366422 -0.0784917 0.400555
0.0411109 0.0192433 0.11575
-0.136434 -0.076536 -0.25536
-0.00890081 0.0319957 0.0844277
-0.168409 -0.0785407 -0.341807
0.145872 0.0947091 0.428548
-0.165231 -0.100721 -0.297762
-0.06728 0.041989 -0.00754333
0.0598068 0.0403302 0.0826935
-0.08981 0.0399809 0.345637
-0.0709367 0.0421409 0.217824
-0.0345648 0.0197911 -0.0879057
0.0676861 -0.0356346 -0.322555
0.184576 0.0034468 -0.169746
0.110587 0.0178087 -0.0571368
0.0728456 0.0318496 -0.00339869
0.138729 -0.0784917 -0.10935
-0.0800571 0.0176936 0.431798
-0.119229 0.0749034 0.385953
0.0390367 0.0376336 0.0769011
0.0629557 0.106566 -0.319401
-0.0270488 0.0197359 -0.0639299
0.130491 0.0185833 0.303052
0.184576 -0.00365497 0.363262
-0.0409705 -0.0784917 -0.319359
0.0944925 0.105648 -0.313138
-0.152757 -0.0781449 -0.178261
-0.101085 0.0153718 -0.320257
-0.144949 -0.064015 -0.27423
-0.079818 0.101728 0.436651
0.181492 0.0178087 0.0959128
-0.164852 -0.100034 -0.268205
0.051654 0.0905615 0.404029
0.147265 0.0432255 0.239902
0.122331 0.0605631 -0.227162
-0.100872 0.0556892 -0.220284
-0.0314774 0.0197794 0.256974
0.145551 0.0811814 0.412931
0.0361836 0.0178087 0.0542623
-0.0540001 -0.0784917 0.384934
0.133342 0.0433283 0.244684
-0.0340099 0.0321813 0.29924
-0.142582 -0.0877717 -0.302068
-0.073346 0.0369444 0.00151952
0.158045 0.0183798 0.164607
-0.105804 0.00683103 -0.0755117
-0.09665 0.0233977 -0.139253
0.138147 0.0682905 -0.238068
-0.0734743 0.0423842 -0.246198
-0.0701961 -0.0784917 -0.269146
-0.13347 -0.0711717 -0.237877
-0.107069 0.0952162 -0.319174
0.0581571 -0.0784917 0.176054
0.0823226 0.0189328 0.0483196
0.180039 0.0339755 0.110438
0.0702027 0.0190285 0.136294
0.103533 0.0449163 0.371066
-0.0165629 -0.046462 0.431798
-0.11057 -0.0297273 -0.356473
0.0619727 0.0375976 0.0768461
0.184576 -0.0418709 -0.056366
-0.16655 -0.115047 -0.0825162
-0.0626804 0.0200098 0.256523
-0.0629088 0.0200115 0.227714
0.0172883 -0.0784917 -0.03215
0.177162 0.0310836 0.0146897
0.117654 0.0852255 -0.284315
-0.030896 0.0326114 -0.0423716
-0.179017 0.0178087 -0.176221
-0.0344086 0.0295874 0.34431
0.117472 0.0178087 0.0760751
-0.0420389 0.0322406 0.199386
-0.17896 -0.0784917 -0.187856
0.0312591 -0.033691 0.431798
0.145287 0.0178087 0.362409
0.125631 0.0828058 0.414807
-0.041933 0.0290646 0.372499
-0.00572525 0.0319723 0.0904589
0.184576 -0.0366954 0.30022
0.081656 0.0317849 -0.146485
0.169369 -0.0784917 0.370586
-0.124028 -0.0540845 -0.326783
0.0908881 -0.0784917 -0.258289
0.184576 -0.0748734 -0.0271909
0.070205 -0.0784917 0.0797507
0.0775057 0.0429521 0.0864312
-0.0911956 0.033269 -0.400812
-0.0169559 0.0320553 0.0984231
0.015233 0.0178087 0.277307
-0.162457 -0.114101 -0.246947
0.0128658 0.0451368 0.0408672
-0.117948 0.112605 0.444216
-0.0801207 0.032522 0.113602
-0.0743847 0.0329308 -0.123164
-0.000959083 0.101836 -0.285412
0.0399826 0.0178087 0.237341
0.0891568 0.0843564 0.416597
-0.184576 -0.0511454 -0.159127
-0.0579293 0.032358 0.293547
0.184576 -0.0237103 -0.0244914
-0.0651204 0.0200278 0.132948
-0.184576 0.00805608 0.173303
-0.105798 0.0178087 -0.264617
0.0899208 0.072571 0.422724
0.108684 0.0348058 0.379127
0.0729257 -0.0659674 -0.322555
0.0477222 0.0315775 0.271054
-0.102325 0.0131268 -0.0119266
0.0638387 -0.0784917 0.0631649
0.0777268 0.0189666 -0.164833
0.184576 -0.0358136 -0.0450297
0.184576 -0.0511381 0.0682573
-0.025246 0.0178087 -0.0684584
-0.0117564 0.0320167 0.0891199
0.101136 0.0401797 -0.22074
-0.12162 -0.0497264 -0.387647
-0.0520881 0.0801884 -0.299552
-0.114781 -0.0784917 0.38451
0.184576 -0.0667614 -0.290691
0.0338067 0.0440635 0.316981
0.166081 0.0334259 0.357802
0.0975417 0.0316683 -0.128716
0.0460761 0.0178087 -0.211852
-0.113145 -0.00645516 -0.392477
-0.137712 -0.0509171 -0.0506254
0.054193 0.0315297 0.300182
-0.1312 -0.0111997 -0.00714574
0.0910421 0.0234632 0.0812714
-0.103787 0.0145433 -0.184755
-0.143654 -0.0896024 -0.0344984
0.119573 0.0178087 0.0181479
-0.0531597 -0.0784917 -0.135387
-0.0394824 0.0198385 0.155701
-0.170202 -0.0817863 -0.109796
0.0166744 0.0194238 0.257859
0.111788 0.0178087 0.343305
0.0428054 0.0192233 -0.176379
-0.184576 -0.0135294 -0.022974
-0.0979552 0.0210353 -0.130399
0.061013 -0.0784917 -0.0515784
-0.100613 0.0162258 -0.322971
-0.0113357 0.0178087 0.0571669
-0.0462295 0.0322716 0.236054
0.170341 0.0801876 -0.277204
0.179709 0.0178087 -0.136145
0.14972 0.0184413 0.237557
-0.111558 0.0341395 0.342633
0.102846 0.0311704 0.32216
0.0283118 -0.0784917 -0.263971
0.0848918 0.0898035 0.422885
0.00413386 0.0323538 -0.182823
0.128788 0.0185959 0.122118
-0.098018 0.00562723 0.431798
-0.0126601 0.0431041 0.349242
-0.095193 0.0111314 -0.182277
-0.123013 -0.0243142 -0.44403
-0.145046 0.0386649 -0.215629
-0.0356751 0.106943 -0.29262
0.184576 -0.0247841 -0.222925
0.154735 -0.0784917 -0.264581
-0.0138906 0.0320327 0.132631
-0.119716 -0.0183478 0.0717681
0.184576 0.0106964 -0.243753
0.115593 0.108048 -0.294179
-0.0858674 0.0149794 -0.281185
0.0945528 0.018843 0.0360809
0.16688 -0.0784917 -0.279482
0.173251 -0.0834169 0.359582
-0.0562858 0.0428614 0.388426
0.000221706 -0.0784917 0.0388499
-0.0473558 0.0995449 0.434131
0.0662576 0.0314406 0.142744
0.0403341 0.0316321 0.244808
0.0888396 0.0188909 0.157087
0.152276 0.0312663 -0.141343
-0.0238289 0.0197122 -0.0303316
-0.157482 0.0178087 0.201274
-0.132841 -0.0421007 0.0713567
-0.133579 -0.0155038 -0.169311
-0.103714 -0.0706767 -0.322555
-0.00585712 0.0443565 0.145076
0.058599 0.0448012 -0.117155
-0.184576 -0.0122354 -0.168957
-0.153178 -0.0789076 -0.236469
0.161561 0.0178087 0.0751293
0.184576 -0.0736503 0.204299
-0.110811 0.0256996 -0.283623
-0.068799 0.07013 -0.26301
0.176152 0.0967406 0.430894
0.183313 -0.0784917 0.221422
-0.0837983 0.0187241 -0.244617
0.158495 0.0571149 -0.244642
0.0662822 0.0447448 -0.0720307
0.0295518 0.020457 0.0859701
-0.0986301 0.019814 -0.284289
-0.0693427 0.0244977 0.0906666
0.103536 0.0316242 -0.0840061
-0.137371 -0.0784917 -0.0620422
0.102929 0.0316287 -0.127126
-0.139197 -0.0536041 0.0666854
-0.148193 -0.0978173 -0.166189
-0.00783699 0.0324421 -0.153505
-0.0653005 -0.0784917 0.158656
0.143571 0.0184831 -0.122105
0.0954264 0.0878583 -0.310377
0.159548 0.0796821 0.430933
-0.104974 -0.0784917 -0.232039
0.134252 0.0185555 0.231305
0.0272109 0.093879 -0.274182
0.116238 0.0178087 0.297976
-0.115999 0.0178087 0.154779
-0.00888921 0.0178087 0.218844
-0.184576 -0.0326932 -0.195577
-0.113567 0.0207133 -0.0927185
0.184576 -0.0286441 0.219724
-0.0346012 0.0445689 0.211392
-0.172581 0.0178087 0.374752
0.164252 0.0709228 0.401089
0.0605094 0.0178087 0.195672
0.0902916 0.0312631 0.0911671
-0.184576 -0.00675928 0.295883
-0.116581 0.0152571 0.0642729
0.157806 -0.0336461 0.431798
0.101656 0.0316378 0.0742368
-0.184576 -0.0732989 -0.313973
-0.118067 -0.0432959 0.0407382
0.0832772 0.0313149 0.229107
0.0772953 0.0178087 0.0200337
-0.110763 0.0786252 0.429713
0.175954 0.0310924 -0.0754857
0.0404881 -0.0784917 0.132526
-0.184576 -0.0579649 0.359245
-0.121082 0.0178087 -0.0634074
-0.172288 -0.113492 -0.229051
0.148082 -0.0784917 0.361918
0.184576 -0.0151758 0.104673
0.0383841 -0.0784917 -0.022815
0.116454 0.0178087 0.152688
-0.138786 0.0922244 -0.279106
-0.14642 0.0178087 -0.303844
0.0929439 -0.0784917 0.401068
-0.0904514 -0.0784917 0.0403521
-0.0531687 0.0178087 0.218136
-0.11656 0.0152962 -0.137099
-0.015726 0.0325 -0.134847
0.0783405 -0.0784917 -0.021538
-0.0596485 0.0469961 0.373467
0.0749663 0.031834 -0.0552582
0.170738 0.0430521 0.301267
-0.160663 0.0178087 0.339934
-0.0432766 -0.0784917 0.33276
0.0632628 -0.0784917 0.336554
0.0871202 0.0445918 -0.0725615
0.184576 0.0125036 0.0928862
-0.010702 0.0178087 0.200337
-0.124973 -0.0784917 -0.0195738
-0.10461 0.00899061 -0.445524
0.0757725 0.0318281 -0.133808
0.0156605 0.107662 0.443502
-0.123487 0.0987502 0.44889
-0.184576 -0.0624603 -0.11656
0.0734165 0.0318454 0.0186859
0.0757927 -0.0784917 0.167269
-0.0937635 0.000689446 -0.429323
-0.0831285 -0.0148054 -0.322555
-0.00315733 0.100853 -0.284024
0.14578 -0.0784917 0.242198
-0.0913598 0.0370133 -0.384457
-0.0863557 0.0178087 0.0175174
-0.137883 -0.0512269 -0.351187
-0.00612975 0.0178087 0.0999423
-0.0662396 -0.0784917 -0.0197197
0.184576 -0.0525723 -0.198065
0.0266744 0.0178087 0.0405954
0.117646 -0.0784917 0.382517
-0.1074 0.0318745 -0.302831
-0.132653 0.0848344 0.398724
-0.16727 -0.0720258 0.431798
0.0148722 0.0451224 -0.151533
0.0201925 0.0708456 0.400999
-0.0859707 0.0147925 -0.112757
-0.0128298 0.0324788 -0.123516
0.0342589 0.0792959 -0.298293
-0.103358 0.0178087 -0.023771
-0.158082 -0.0598503 -0.0525965
0.111123 0.0444153 0.0563473
-0.0678367 0.027695 0.351185
-0.140629 0.0324946 -0.209894
0.166537 0.0311616 -0.0491553
0.0400664 0.019251 0.212921
-0.105022 -0.0196863 -0.39074
0.027689 -0.0784917 -0.27015
-0.116525 0.0178087 0.02489
-0.0165931 -0.0784917 -0.0218037
-0.140636 -0.056209 -0.276849
0.17524 0.0178087 0.167924
0.0029423 0.0986016 0.413311
-0.0538507 0.0561268 0.40374
0.170334 0.0249404 0.35355
-0.147394 -0.0784917 -0.0255001
0.158219 0.0576604 0.385779
-0.0183285 0.0320655 0.0956923
-0.138015 -0.0235327 -0.364326
0.0061639 0.0595553 -0.22574
0.175132 0.0413706 0.183352
0.0442896 0.0320593 0.0458101
-0.178967 -0.100264 -0.0743718
-0.119546 0.0461611 -0.251528
-0.0554236 0.0327915 -0.0686326
-0.066351 0.0701871 -0.263091
-0.0837034 -0.0494947 0.431798
0.163685 0.0440294 -0.112493
-0.124334 -0.026706 -0.336043
0.114849 0.018694 -0.0190529
0.035101 0.0316708 0.233519
0.0486121 -0.0784917 -0.264273
-0.0556156 0.0456399 -0.0710459
-0.015704 -0.0784917 0.228106
0.164287 0.0178087 0.288281
-0.0427139 0.0178087 0.123645
-0.0388169 0.0326696 0.00994465
-0.0675077 0.0258381 0.349042
-0.122213 0.0919753 0.425392
0.184576 -0.0606703 0.247954
-0.137397 -0.0503472 0.0424325
0.0916502 -0.0233793 -0.322555
-0.118015 -0.0152699 -0.399642
0.14474 0.0184781 0.284256
-0.0846433 -0.0784917 -0.236476
-0.114192 -0.0362832 -0.123222
0.116691 0.0315276 -0.0513686
-0.0313002 0.0178087 0.0624497
-0.0216911 -0.0784917 0.347789
-0.136302 -0.0784917 0.411714
-0.127955 0.0178087 -0.0276372
-0.0108895 0.0196273 0.172363
0.17748 0.0393987 -0.0319441
-0.076704 0.0764058 -0.249521
0.0602203 0.0438685 0.239005
-0.0971266 0.022535 0.0431732
-0.0186359 0.0178087 0.15606
0.0176187 0.0441831 0.267143
-0.146611 -0.0390915 -0.277285
-0.072753 0.0271945 0.0432755
-0.0974184 0.0220065 -0.184007
0.060937 0.0314799 0.108003
0.0786799 0.0318068 -0.147016
0.0618077 0.0178087 -0.0975732
-0.147313 -0.0962247 -0.425986
0.00661882 0.0451828 0.00222039
-0.172404 -0.113409 -0.0748988
-0.0177487 0.0325149 -0.0580438
-0.184576 -0.0782701 0.0757922
0.184576 -0.0560837 -0.0700378
0.154054 0.030792 0.269485
0.153122 0.0307989 0.205922
-0.119191 -0.0173973 -0.323815
-0.0359753 0.0178087 0.0105928
-0.0756027 0.0399166 0.117402
-0.184576 -0.0555122 0.00972578
0.0145268 0.0194306 -0.116806
0.184576 -0.0627265 0.14034
-0.184576 0.000266164 0.132961
0.15987 0.0312106 -0.0700366
-0.0515586 0.109189 0.425533
-0.0556944 0.0327935 -0.120516
-0.135734 -0.0473361 -0.423933
-0.184576 -0.0200078 0.323978
-0.165608 -0.0734709 -0.0671137
0.0776565 0.0313564 0.183536
-0.138085 -0.0236611 -0.154524
0.115637 0.0337827 -0.234059
-0.10124 0.0150914 -0.0851725
0.0751511 -0.0784917 0.174062
0.0691632 0.0318767 0.0317677
-0.163033 -0.0967427 -0.0837107
0.160543 0.0312056 -0.036277
0.177303 0.0310825 -0.0287682
0.0217323 0.104825 -0.32014
-0.0877732 -0.0784917 -0.0620734
0.134383 0.0309373 0.185077
0.184576 -0.0106518 0.0662089
0.155344 0.0178087 -0.23265
0.167486 0.0183075 -0.115084
0.075395 0.0178087 -0.0343058
-0.151679 -0.0761949 0.0533517
0.162707 0.0819433 0.394079
0.0187162 -0.0784917 0.300667
0.17675 0.0178087 -0.239761
-0.0800939 0.0525899 -0.238255
0.110171 -0.0784917 0.321603
0.000247575 0.0452297 -0.0515776
-0.0919734 -0.0784917 0.178348
-0.111755 0.0178087 0.297849
0.0247213 -0.0784917 0.313088
0.0496322 0.027652 0.351136
-0.00205881 0.107331 0.443119
0.156696 0.0307727 0.330281
0.0834679 0.0317716 -0.0430606
-0.0296841 0.0454496 -0.123287
-0.102465 0.0385429 -0.375745
0.0495449 0.0320207 0.0159476
0.160847 -0.0856786 -0.219321
0.0612196 0.0178087 -0.0646615
-0.088914 0.0178087 0.212985
0.158449 0.0307595 0.297136
-0.10337 0.079083 -0.297992
0.0561278 0.0342383 0.336287
0.117226 0.103507 0.438705
-0.0545187 0.0327849 -0.0750316
-0.150345 -0.0678626 -0.322555
-0.0358957 0.0757635 0.406677
0.132193 0.0178087 0.231478
-0.169258 -0.0784917 0.0875426
-0.160133 -0.0784917 0.117764
0.000644911 0.0323798 0.036384
0.124824 0.0426488 -0.181782
0.184576 -0.0746981 0.256171
0.142013 -0.0784917 0.407582
-0.0569799 0.0178087 -0.0272504
0.0610031 0.0608642 0.389477
-0.0341828 0.0993483 0.414173
-0.0663959 0.0424364 -0.0764561
-0.162286 -0.114032 -0.397891
0.1199 0.0310443 0.269526
0.0870115 0.0711107 -0.264394
-0.184576 -0.00585194 -0.311863
-0.143619 0.0178087 -0.20333
-0.0107511 0.0378683 -0.217478
0.159923 -0.0918455 0.354448
0.124031 -0.0784917 0.11338
0.091062 0.0530869 0.360767
0.112355 0.0178087 0.260425
0.0251515 0.0380445 0.382865
0.0858128 0.0317542 -0.187965
-0.165336 -0.115267 -0.390029
0.114199 0.0186987 -0.00113164
-0.0277567 0.0318215 -0.190478
-0.117716 -0.04266 0.0426439
0.0253298 0.0441262 0.182267
-0.0563351 0.0327982 -0.0347375
-0.155023 -0.0822472 -0.247069
0.184576 -0.0632967 0.0854566
-0.133772 0.080563 -0.297547
-0.126541 -0.0784917 0.0991292
-0.156971 -0.0857711 -0.110961
0.0660643 0.0190522 -0.0873456
-0.0180315 -0.0784917 0.378499
0.0776587 0.0178087 0.234161
0.00189721 0.0195329 0.215284
-0.0183415 0.0196824 0.272326
-0.027825 -0.0784917 0.209728
0.173703 0.0831664 0.401344
-0.173027 -0.0868983 -0.320334
0.157204 0.018386 0.226019
-0.0866815 0.0549277 0.382623
0.0375513 -0.0784917 0.0883172
-0.155472 -0.110991 -0.267058
0.0570387 -0.0784917 0.22691
-0.10604 -0.0215294 -0.337916
0.0672894 -0.0776411 0.431798
-0.111414 -0.0312553 -0.0130678
-0.107409 -0.0784917 0.120661
-0.184576 -0.0676692 -0.235846
-0.0942881 -0.0784917 -0.101393
0.176935 0.0316133 0.366435
-0.175088 -0.0784917 0.355131
0.0351716 -0.0406427 0.431798
-0.176734 0.0178087 -0.197286
0.0745007 0.043763 0.230366
-0.145159 0.0582443 0.383689
0.117384 0.0977988 0.412384
0.0289843 0.0321715 -0.175397
0.114324 0.0434688 0.300751
0.0741359 0.0437657 0.241704
-0.157547 -0.0918455 -0.27988
-0.104371 0.0547186 -0.263606
0.016926 0.0587081 -0.24689
-0.083234 0.0682356 -0.282683
-0.053473 0.0814602 0.413253
0.0751368 0.0922911 -0.271941
0.184576 -0.0566003 -0.184452
0.118457 0.0315147 -0.0367133
-0.0452715 0.0178087 0.16301
-0.0305179 -0.0784917 0.289211
-0.178729 0.0178087 -0.139512
0.0816242 0.031327 0.0852883
0.0829268 0.0437007 0.164823
-0.117971 -0.0431219 -0.00454551
-0.0736317 -0.0784917 -0.161274
0.00912884 0.0194795 0.279642
0.0211108 0.0317741 0.214044
-0.0956408 0.051665 0.39859
-0.144561 -0.0912444 -0.0207879
-0.144646 -0.0634667 -0.085872
-0.184576 -0.04629 0.203057
-0.121218 0.0178087 -0.168835
-0.14199 0.0576788 -0.23337
0.0285146 0.0321752 0.0254604
-0.0793428 0.0325162 0.174242
-0.138227 -0.0239167 -0.226319
0.0830563 0.0438777 0.389599
-0.0432541 0.0212098 0.0866652
0.184576 -0.0783443 -0.141729
-0.14219 -0.0590212 -0.0842486
-0.0784443 -0.0741856 0.431798
-0.115157 -0.0100968 -0.182164
0.00440636 0.0318975 0.226587
-0.147974 -0.0694893 -0.169973
0.159149 -0.0808007 -0.219321
-0.0674253 0.0328797 -0.142228
0.0671701 0.0318913 -0.0246025
-0.0332038 0.0459292 0.372235
-0.1779 -0.106258 -0.352845
-0.172238 -0.0854715 -0.34074
-0.0714341 0.0178087 0.0928872
-0.101391 -0.0784917 0.310808
-0.149008 -0.0713616 -0.437775
-0.0441278 -0.0784917 0.182948
0.153883 0.0312545 -0.123687
-0.0998483 0.0176093 -0.341518
-0.124819 -0.0555156 -0.42467
0.0273537 -0.0464752 0.431798
-0.0635076 0.0723655 -0.288512
-0.0961038 -0.00354636 -0.0551837
-0.0161398 0.0233609 0.0824851
0.0927852 0.0231502 -0.185343
0.0305267 0.0193215 0.282398
0.178824 0.0310714 0.00496376
-0.0772254 0.0872136 0.419895
-0.126374 -0.0784917 0.00725631
0.0392775 0.044943 0.0541408
0.0622754 0.0740731 -0.268575
0.164122 -0.0784917 -0.263034
-0.0280906 0.0738605 -0.245929
0.0984694 0.0178087 0.316759
-0.0644862 0.0328581 -0.0543311
-0.0875331 0.0902097 -0.291349
0.0958436 -0.0784917 0.112916
0.123195 -0.0784917 0.0997254
0.164393 0.0183329 0.252728
-0.0581903 0.0536638 0.361433
-0.0327949 0.0197781 0.0209229
-0.184576 -0.040529 -0.26134
0.0513852 0.0320072 -0.10932
-0.0245978 0.0178087 0.402963
0.0182064 0.0322508 -0.167526
0.17692 0.0310853 -0.0220429
-0.154574 -0.0814338 0.0342585
-0.00929084 -0.0784917 0.261083
-0.162995 -0.0966739 -0.0480827
0.165638 0.0183211 -0.146617
0.042249 0.0310569 0.0787773
-0.157644 -0.08699 -0.173727
-0.153897 -0.0802089 -0.423791
-0.0842515 -0.0784917 -0.172883
0.00106288 0.0178087 0.345714
0.151715 0.0822064 -0.280054
0.134935 0.0710852 -0.264358
0.101462 0.0435638 0.208618
0.137842 0.0442192 -0.089222
-0.0295761 0.0178087 -0.204428
-0.184576 -0.00612974 0.255588
-0.00589506 0.0178087 0.1957
0.135865 0.0787683 0.410146
0.0478789 -0.0784917 0.330251
0.059583 0.067082 0.376923
0.0871844 0.0312861 0.0830115
-0.0696924 0.0342842 0.0700737
-0.10721 -0.0784917 -0.261264
-0.0438269 0.0198706 0.200156
0.0103626 -0.0784917 -0.240512
-0.184576 -0.0240796 0.0365258
0.146352 0.0178087 -0.111715
0.167357 0.0894093 0.440779
-0.0335363 0.03157 0.337167
-0.17483 -0.0901609 0.0249098
0.165114 0.107539 0.423627
0.0285507 0.0450219 -0.0636572
-0.10498 -0.0196093 -0.167397
-0.0538206 0.0327798 0.0236485
-0.108131 -0.0253127 -0.105098
0.184576 -0.0535292 -0.0313676
0.0948893 0.0178087 0.201328
-0.105682 0.00705108 -0.022506
-0.0636871 0.0178087 -0.162351
-0.184576 -0.0590405 0.328375
-0.0939194 0.0283394 -0.0206568
-0.148528 -0.0425608 -0.248909
-0.184576 -0.0691975 0.188217
-0.142582 -0.0793387 -0.292741
0.0485327 0.0439548 0.166155
-0.116395 0.0155935 -0.231874
-0.0284194 -0.0784917 0.13577
-0.0948732 0.0266132 0.00307354
-0.0913223 0.0388311 0.344309
0.184576 0.0171604 0.0709767
0.0339046 0.0316796 0.334757
0.119554 0.0658142 -0.234573
0.143245 -0.0188558 0.431798
0.159728 0.0506107 0.357908
0.0496595 0.0648304 -0.233185
-0.00346552 0.0178087 0.362631
0.09146 0.0178087 -0.256988
-0.142582 -0.0794204 -0.244914
0.065292 0.0314477 0.09513
-0.0552735 0.0327904 -0.112773
0.0960103 0.0904105 -0.269286
0.0826181 0.0178087 0.287287
0.111581 0.0423655 0.0859765
0.122112 0.0178087 -0.110745
-0.102485 0.0785726 -0.274926
0.0606676 -0.0784917 -0.301459
0.0617564 0.043671 -0.203322
0.0416186 0.0316226 0.256689
-0.107787 -0.0151531 0.0701473
0.139981 0.0185094 -0.00902826
0.124868 0.0178087 0.224328
-0.110435 -0.0015504 -0.449918
0.0492349 0.0130968 0.431798
-0.111362 0.0305189 0.354445
-0.170778 -0.0896608 -0.219321
0.116191 0.043455 0.276663
-0.176522 0.0178087 -0.255918
-0.0110727 0.044395 0.30969
0.118601 -0.0784917 0.0589359
-0.175185 -0.0908037 -0.278069
0.16242 0.0178087 -0.280786
-0.0585885 0.0456617 -0.0639169
-0.157694 -0.0591485 -0.410847
-0.0716896 0.0324597 0.246783
0.0876731 0.0436657 0.254772
-0.169045 -0.0796927 -0.268749
0.0105634 0.032307 -0.190763
-0.113986 -0.00797731 -0.108269
0.114169 -0.0159819 -0.322555
-0.166859 -0.103667 -0.131406
0.170867 0.0182851 0.140607
0.0905489 0.0188782 0.16011
0.069442 0.0314171 0.230709
-0.14591 -0.0936863 -0.088549
0.131297 0.0442673 -0.0943793
-0.140985 -0.0784917 -0.270674
0.139999 0.0313565 -0.0676618
0.10041 0.0311883 0.232416
0.00892337 0.0178087 -0.136314
0.0753427 0.101886 -0.285482
-0.142582 -0.0889968 0.363258
0.156733 0.0312336 -0.12888
-0.0716723 0.0416853 0.367336
0.184576 -0.0763621 0.142514
-0.170295 -0.109885 -0.323425
0.184576 -0.00213981 0.0526664
0.146925 -0.0784917 0.137996
-0.138631 -0.0525806 -0.113086
-0.00255625 0.10102 -0.306607
-0.128716 -0.0346354 -0.0237365
0.060668 0.0178087 0.000229545
0.0338882 0.0188996 -0.209115
0.100007 0.0413244 0.386652
-0.138687 -0.0784917 -0.042696
-0.0826817 -0.0784917 0.096092
-0.123549 -0.0252836 -0.36204
0.0475295 -0.0243019 -0.322555
-0.137677 -0.0508533 -0.136339
-0.0181442 0.0664302 0.376171
0.048285 0.0315734 0.186254
0.03222 0.0321479 -0.121612
-0.0453919 0.0995315 -0.304505
-0.0985684 -0.0080069 -0.126694
-0.025091 -0.0784917 -0.139935
-0.100417 0.0165793 -0.341908
-0.184576 0.0136854 -0.31417
0.151485 0.030811 0.320071
0.158318 0.0183747 0.0501371
-0.149591 -0.072415 -0.388729
-0.123534 -0.0295953 0.0744985
-0.170957 -0.0784917 0.430238
-0.113486 0.109986 -0.296913
0.102162 -0.00883244 0.431798
-0.184576 -0.035898 0.137321
0.146057 0.0308511 0.134469
0.155694 0.0295297 -0.19872
-0.00852636 0.0714181 0.381929
-0.0650203 0.0178087 -0.0114125
-0.0652605 0.106096 -0.31377
0.0250628 -0.0784917 -0.00922391
0.00551608 0.0477178 -0.209033
0.0588813 0.100904 -0.320394
0.171388 0.0524386 0.395794
0.184576 -0.0149587 -0.150454
0.0420939 0.0178087 -0.316382
0.104651 0.0178087 0.0739732
-0.00970566 0.0324558 -0.00900039
0.0393403 0.0178087 -0.24939
0.17092 0.0422543 -0.171992
0.177611 0.0229958 0.243277
0.0902432 0.0445688 -0.0793436
0.0964319 0.0133866 0.431798
0.158655 0.0431414 0.153509
0.0253857 0.0441258 0.201367
0.0378252 0.0192594 -0.171871
-0.0526607 0.0327713 -0.164866
-0.000895381 0.0319367 0.260253
0.030626 -0.0784917 0.375246
-0.037524 0.047852 0.374455
0.013327 0.0373018 0.342544
-0.162686 -0.0961141 -0.0552121
-0.142551 0.0417041 0.357298
0.121509 0.0591648 0.407248
-0.108839 0.0475387 -0.231126
-0.0621944 0.0200062 0.269599
-0.0184073 0.0146658 -0.322555
-0.0309331 0.0178087 -0.0985281
0.146693 0.0313073 -0.185976
0.136499 -0.0784917 -0.0386694
-0.105987 0.0208502 -0.44691
-0.105156 0.00800415 0.0489773
-0.150212 -0.0784917 0.385341
-0.121014 -0.0784917 0.395125
-0.134383 -0.0728238 -0.033704
0.169407 0.0306786 0.166964
0.0757282 0.0437538 0.317279
0.149449 -0.0918455 -0.253135
-0.0597921 0.0328236 -0.145268
-0.162195 -0.113995 -0.041471
-0.0427425 0.044629 0.126342
0.155261 0.0307831 0.215249
-0.104394 0.0723961 0.402789
-0.0920682 0.0316898 0.0592932
-0.0758442 -0.0784917 -0.141924
-0.184576 -0.0707645 0.109474
-0.172084 0.0178087 0.198074
0.0252121 0.0450111 0.351444
0.154529 0.00386826 -0.322555
0.113096 0.0178087 0.147539
-0.00093988 0.0443202 0.258544
0.131442 0.0980947 -0.302478
-0.184576 0.0124697 0.170814
-0.0595224 -0.0784917 0.237213
0.111437 0.0178087 -0.171478
-0.178626 -0.0784917 -0.237717
-0.168817 -0.107211 -0.422983
-0.018922 0.0320699 0.0972957
-0.152714 -0.0780676 0.0240443
0.0366961 0.0449619 -0.0073383
-0.0493503 0.0322947 0.319954
-0.122544 -0.0784917 -0.165928
-0.0848588 0.0178087 -0.288813
-0.0485144 0.0322885 0.137676
0.184576 -0.00752211 -0.0610893
0.184576 -0.0709231 0.0885224
-0.0336662 0.0326318 -0.142536
-0.105813 0.00681454 -0.120704
0.122613 -0.0784917 -0.109738
0.11336 0.0178087 0.369661
0.0551738 0.0439057 0.215653
-0.0650872 0.044794 0.186965
-0.105032 0.0349302 0.342363
0.121292 0.0178087 0.157652
0.0930049 -0.0784917 0.269389
-0.184576 -0.0565208 0.205527
0.121116 0.0430485 -0.224789
0.0668479 0.0624824 -0.252217
0.0166023 0.0913949 -0.315368
-0.0742495 0.0178087 -0.319293
0.0299597 0.044092 0.272285
0.0306021 0.0193209 0.236011
0.0227937 0.0193786 0.220672
0.010301 0.031854 0.294042
-0.137567 0.0178087 0.0302351
-0.0646691 0.0902529 -0.269064
0.0686166 -0.0784917 -0.113123
0.0690794 0.041452 -0.20019
-0.027348 0.0325854 -0.064774
-0.153724 -0.0798945 -0.0680992
-0.15644 -0.0568784 0.0298006
0.0888864 0.0178087 0.332325
0.177839 0.0306163 0.166995
0.00353586 0.0178087 0.178646
-0.0630561 0.0294277 0.0730728
-0.17573 -0.0917911 -0.389572
0.0124381 0.0178087 0.175387
-0.0129175 0.0320255 0.283927
0.138617 0.030906 0.25242
0.177542 0.0229938 -0.105971
-0.0589567 0.0937914 0.447222
-0.14221 0.0178087 0.402311
-0.133181 0.0587908 -0.226638
0.137017 0.0525385 -0.215837
0.136552 0.0313818 -0.037078
0.173839 0.0429333 0.210486
-0.102196 0.0967122 -0.300526
-0.0821769 0.0216584 -0.0432791
0.0462814 0.0439714 0.156699
-0.114823 -0.0784917 -0.253746
-0.102707 -0.0784917 -0.210083
0.170867 0.0182827 -0.121193
0.184576 -0.0664481 0.252343
0.126583 0.0215755 -0.21683
-0.106807 -0.0229173 -0.302957
0.0209427 0.0546609 -0.218832
0.0324103 0.0321465 -0.143434
-0.15385 -0.0521917 -0.129913
-0.0613668 0.0178087 -0.0679062
-0.16124 -0.0655672 -0.133636
-0.030301 0.0326071 -0.112807
0.145119 0.0178087 0.192827
0.136614 0.0178087 0.264467
-0.0917762 0.0178087 0.028538
0.178656 0.0366464 0.36906
0.184576 0.00508982 0.151976
0.0815983 0.0313273 0.18804
0.15414 0.0184055 -0.0514607
0.137033 0.0178087 -0.240064
-0.127556 -0.0325368 -0.433066
-0.16482 -0.0784917 -0.322021
-0.0244412 0.0178087 -0.18275
0.0838786 0.0178087 0.180864
-0.0930375 0.0374582 -0.412993
-0.0753429 0.0178087 -0.025831
-0.148516 -0.0784917 0.405158
-0.133727 -0.0437045 -0.120442
-0.00821683 0.0178087 0.112298
-0.104717 -0.0191354 -0.398246
-0.125007 -0.0279227 -0.386748
0.0301051 0.0321635 -0.0657673
-0.0532301 0.0327754 -0.129695
-0.184576 -0.021719 -0.0574228
0.157884 0.0312251 -0.167046
-0.173633 -0.112269 -0.0979689
-0.184576 -0.0540878 -0.0307556
-0.0215894 0.0444727 0.193724
0.00761639 -0.0784917 0.42243
0.13756 0.0185311 0.190826
-0.0350732 0.0326421 -0.0475538
0.0160244 0.0503627 0.357622
-0.125551 -0.000975986 -0.164815
-0.0431742 0.0327016 0.0122502
0.178067 0.0719577 -0.26559
-0.122929 0.0677719 0.417184
-0.0502041 0.0323009 0.327722
0.178244 0.0238667 0.035616
0.157131 -0.0918455 0.372869
0.184576 -0.0422956 -0.276881
-0.0502987 0.0178087 -0.212911
-0.161957 -0.0668645 -0.201499
0.100322 -0.0784917 -0.0780924
0.0416361 0.0178087 -0.284058
0.184576 -0.0657515 -0.281739
-0.160209 -0.0916316 -0.403885
-0.184576 -0.00194403 -0.0053931
-0.171208 -0.11154 -0.440456
-0.066819 0.0178087 0.106663
-0.11135 -0.0311395 0.0303311
0.105792 0.0187657 0.282743
-0.182401 -0.0784917 0.163835
-0.0575854 -0.0784917 -0.263927
-0.0453569 0.0322652 0.162685
0.0876563 0.0188935 0.0563608
-0.100182 -0.0109276 -0.240495
-0.0833942 -0.0784917 -0.0305736
0.150198 0.0308205 0.155015
0.133806 0.0428636 0.068946
-0.111494 -0.0784917 0.212976
-0.0540158 0.0323291 0.21664
-0.151422 -0.0477983 0.0642803
-0.109159 -0.0271743 -0.0114999
-0.0502705 -0.0784917 -0.190313
-0.108993 0.0178087 0.0234388
0.027612 0.0183458 -0.210047
-0.101567 -0.013433 0.0179627
0.0752301 0.0718563 -0.265447
-0.0680403 -0.0784917 0.0800526
0.173601 -0.0784917 0.175484
-0.104042 0.0100186 -0.0446982
0.0191204 0.0178087 -0.267004
0.0355902 0.0321232 0.0327523
-0.184576 0.00956071 -0.240681
0.107969 0.0311325 0.260197
-0.10813 -0.0784917 -0.0740286
-0.0445497 0.0446423 0.257721
-0.117671 -0.0425787 0.01285
0.153152 0.0178087 -0.0491317
0.181132 0.030592 0.212265
0.0154966 0.0276589 -0.199468
0.0228697 -0.0784917 0.244322
-0.0798319 0.0344341 0.289998
-0.0901828 0.0952968 0.429227
-0.111396 -0.00328968 -0.178741
-0.0332721 0.0445591 0.0979312
0.0525258 0.0448458 -0.0317519
-0.0870864 0.0127732 -0.12092
0.176851 0.0882723 0.421118
-0.0721605 0.0178087 0.126732
0.0582869 0.0178087 -0.292098
-0.0198996 0.0264651 0.335085
0.141206 0.0315258 0.0791257
0.131153 0.11101 -0.29836
0.0246092 -0.0784917 -0.137067
0.175655 0.0207026 0.184919
-0.163109 0.0178087 -0.0145542
-0.0536769 0.0617332 -0.251159
0.0789568 0.04907 0.35613
-0.145464 -0.064946 -0.184335
0.08126 0.0199566 -0.214546
-0.110778 -0.00217086 -0.122998
-0.144419 -0.0909866 -0.354826
