ply
format ascii 1.0
comment Created by Open3D
element vertex 1622
property double x
property double y
property double z
end_header
0.149906 -0.0141539 0.105818
-0.193415 0.0718749 0.189875
-0.180621 0.262765 0.0728055
-0.130813 -0.176377 0.145718
-0.189098 0.0874464 -0.189875
-0.0152594 -0.0141539 0.0703877
0.0761076 -0.033118 -0.123884
-0.0120004 -0.0454034 0.149727
-0.120012 0.344593 0.186651
0.00233256 0.0695972 0.189875
-0.196447 -0.340074 -0.182963
-0.196447 -0.0665576 0.0241005
-0.196447 -0.213805 0.151629
-0.120012 0.403723 -0.00622023
-0.165634 0.377102 -0.148376
0.154331 -0.153815 0.138417
0.196447 -0.208787 -0.156469
-0.14316 0.30754 -0.0845084
0.108191 0.150328 0.185435
0.110518 -0.0574038 -0.123661
-0.0581608 0.0382473 0.160437
-0.162663 -0.241706 -0.145719
-0.196447 0.25766 0.171384
-0.123933 -0.418756 0.15978
0.0173469 0.0633055 -0.173109
-0.18585 0.41778 0.0162909
0.0926068 0.00379004 -0.178023
0.166312 -0.0365079 -0.189875
0.153935 -0.0867705 -0.189875
0.140514 -0.0686915 0.018607
-0.183548 0.261224 0.123747
-0.168468 0.140819 -0.189875
-0.121379 0.276947 -0.105278
-0.127576 0.283182 0.0741447
-0.14359 0.402372 0.0948751
-0.172111 0.115045 -0.0696399
-0.0854958 -0.0684435 0.110998
0.165826 0.119528 -0.166303
-0.161038 0.206557 0.00274115
-0.168429 0.22353 0.0977272
-0.157024 0.198354 -0.128062
-0.0984053 0.0123783 -0.174786
-0.196447 -0.329727 -0.166521
-0.111502 0.0966338 -0.189875
-0.194361 0.201677 0.0687985
-0.120012 0.249211 -0.182624
-0.15982 -0.0905217 0.14237
-0.196447 0.379207 0.106501
-0.193557 -0.418756 0.183703
-0.120012 0.0568629 -0.139297
-0.120012 0.336969 -0.0791318
-0.196447 -0.123775 -0.14821
-0.118541 -0.367219 0.146676
-0.196447 -0.0282644 0.0615596
-0.156733 0.123288 0.0636568
-0.130743 0.275741 -0.107692
-0.196447 0.107014 -0.0892588
0.156435 -0.187684 0.189875
-0.184816 -0.418756 -0.178133
-0.121379 0.202907 -0.0495198
0.141994 -0.272285 0.138417
-0.0400575 0.0278149 -0.173685
0.147602 -0.0191455 0.189875
0.140514 -0.2163 0.155397
-0.182401 -0.0905217 0.0120007
0.166532 -0.149432 -0.189875
0.196447 -0.0658642 0.000792785
-0.128557 0.225903 -0.11096
-0.196447 0.39241 0.0458156
0.172286 -0.0500652 -0.189875
0.138713 -0.0684435 0.0408234
-0.0346653 0.130101 -0.189875
0.140514 -0.388673 0.158789
-0.118541 -0.393095 0.158227
-0.161007 0.344719 -0.189875
0.0478305 -0.0141539 0.0464442
-0.142074 -0.305545 -0.145719
-0.0630646 0.086633 0.162896
-0.165533 0.1673 -0.0937063
-0.196447 0.339305 0.0669172
-0.170832 -0.118105 -0.189875
-0.0959242 -0.0141539 0.101647
0.0835757 -0.033118 0.0777211
0.140514 -0.249524 -0.161335
-0.151304 0.410991 0.0658817
0.173959 0.109927 -0.160736
0.196447 -0.0521689 -0.0461417
0.167007 -0.407158 -0.189875
0.17783 -0.187857 0.138417
-0.118541 -0.338947 -0.16968
0.19643 -0.372236 0.138417
-0.155957 0.0892533 0.059631
-0.0627781 0.0981472 0.160437
-0.170494 0.108041 -0.0815472
0.196447 -0.416838 0.187485
-0.120012 0.350998 -0.089307
-0.0430326 0.121457 -0.189875
0.196447 -0.0703757 0.152731
-0.127847 0.157086 -0.115474
0.141124 -0.0905217 0.0391602
-0.196447 -0.0742606 -0.171784
0.052215 0.0663402 0.179446
0.0515115 -0.0141539 -0.0886225
-0.14544 0.166404 0.189875
-0.171995 -0.197414 -0.189875
-0.178259 -0.0905217 -0.0547193
-0.120012 0.349517 -0.0939108
-0.120012 0.387644 -0.0765023
-0.188908 0.280091 0.00756433
0.0630758 0.062791 0.160437
-0.0276256 0.149819 0.160437
-0.0264239 -0.0141539 0.118978
0.149931 0.127633 -0.160437
-0.159554 0.179744 0.0353418
0.0488391 0.150328 0.184036
0.195926 0.0522735 -0.16246
0.196447 -0.0488805 0.0186955
-0.118541 -0.0792326 0.116245
-0.115692 -0.0141539 -0.0286321
0.163994 0.0954676 -0.189875
-0.187042 0.296655 0.0750284
-0.120012 0.0574651 -0.189628
0.196447 -0.394425 -0.148798
-0.147991 0.0964459 -0.0664623
0.196447 -0.0882387 -0.0751174
0.0985226 -0.0677457 0.149727
-0.196447 0.0547504 -0.0855589
-0.123302 0.262373 -0.0599762
-0.139395 -0.278595 0.189875
-0.113842 -0.0684435 0.145126
0.186792 -0.183936 0.138417
-0.120012 0.0431921 0.0907249
-0.134092 0.241814 0.189875
-0.120012 0.0665552 0.0937156
-0.196447 0.230636 0.172394
0.052215 0.0755188 0.177318
-0.00603016 0.000798757 0.160437
0.101944 -0.00118981 0.189875
0.18893 -0.0476733 -0.189875
0.0747512 0.0749653 -0.179888
-0.120012 0.375376 0.135167
-0.169979 0.417421 -0.0222797
0.0995371 -0.0141539 -0.0954375
-0.143078 0.22459 -0.189875
-0.196447 -0.282913 -0.163945
-0.184972 0.264548 -0.0278151
-0.130869 0.0949824 0.0691082
-0.145902 0.224742 -0.127838
-0.135225 0.257229 -0.0603136
-0.126854 -0.279635 -0.189875
-0.143815 0.0155035 -0.189875
-0.196447 0.0904329 -0.156646
-0.177391 0.116925 -0.00313794
0.173337 -0.372502 -0.145719
0.0972828 -0.033118 0.129914
0.196447 -0.0890817 0.177486
-0.133399 -0.146096 -0.145719
-0.120012 -0.00734359 0.0630111
-0.0496694 0.114353 -0.189875
-0.124299 0.315382 -0.0564992
-0.196447 -0.00580025 0.0329313
-0.104115 -0.0141539 0.105846
-0.175748 -0.0905217 -0.14405
-0.120012 0.149814 0.149026
-0.190308 0.188809 -0.0922955
-0.125078 0.291261 -0.0855761
-0.136153 0.0253492 -0.189875
-0.190998 -0.313946 -0.189875
0.144785 -0.0141539 0.0583881
-0.14474 -0.349986 0.145718
-0.11561 -0.0559896 -0.189875
-0.148397 0.413653 0.0512053
-0.196447 0.0347706 0.0544868
-0.0150334 -0.033118 -0.133819
-0.177126 0.274784 0.189875
-0.196447 0.0723019 0.0464369
0.169491 0.078579 -0.160437
-0.0021343 -0.0141539 -0.104068
-0.196447 -0.0121622 -0.186224
-0.00605186 -0.0141539 -0.0510828
-0.128038 0.202365 0.00246621
-0.118541 -0.143198 0.17811
-0.118541 -0.210811 -0.17808
-0.121379 0.271185 0.00791489
-0.122246 0.238656 -0.0615319
0.140514 -0.360585 -0.15654
-0.155937 -0.415425 0.189875
-0.174376 0.277795 -0.0269463
-0.190891 -0.409917 -0.189875
-0.155917 -0.0905217 -0.0063818
-0.156907 0.300432 -0.0849746
0.10841 -0.0141539 0.040905
-0.128863 0.270158 -0.0594656
0.176901 0.0153382 0.160437
0.177812 0.0764056 -0.160437
0.0497285 0.0956977 -0.171274
0.126641 -0.0141539 0.114977
0.066555 -0.0141539 -0.088937
-0.131834 0.113902 0.0630411
0.00928912 0.0467306 -0.189875
-0.121379 0.231777 -0.0572515
0.0274018 0.12743 -0.166366
0.184324 -0.402006 -0.189875
-0.193848 0.18871 0.0359299
-0.196447 -0.0679996 -0.032434
-0.115733 0.00730783 0.189875
-0.167476 0.197497 0.0365062
-0.0454036 0.0768934 -0.189875
-0.178799 0.227947 0.133239
0.196447 -0.184026 -0.175046
-0.0512041 0.0639012 -0.160437
-0.0705924 0.138514 0.189875
-0.196447 0.332365 0.0768684
-0.132774 -0.0905217 -0.0401827
-0.193778 0.153107 0.0931076
-0.120012 0.411484 0.0117582
0.196447 -0.0811525 -0.0807775
-0.151967 0.028168 0.189875
-0.178367 0.10496 0.0624546
-0.196447 0.369917 0.100036
-0.157527 0.128013 -0.0962829
-0.118541 -0.343694 -0.167312
0.0173469 0.0433823 -0.188946
-0.0217776 0.124752 0.168346
0.196447 -0.181414 -0.166374
0.159476 -0.0141539 -0.0823828
-0.0294924 0.00154431 -0.189875
-0.120012 0.0711127 -0.122694
0.0743497 0.066152 -0.160437
-0.196447 0.328675 0.117847
-0.0994255 0.104321 -0.160437
-0.196447 0.0666151 -0.0919223
-0.190571 0.24492 0.0396168
-0.0064375 -0.033118 -0.00980277
0.196447 -0.21718 0.176751
0.0976036 -0.0141539 0.0854122
-0.128595 0.359996 0.173733
-0.196447 0.184887 0.17178
-0.195941 0.169129 -0.0340735
-0.144028 0.250472 0.127396
-0.196447 0.187597 0.18191
0.052215 0.092678 0.17353
-0.168486 0.233517 -0.126092
-0.196447 -0.0481754 -0.109952
-0.196447 0.22009 -0.0342806
-0.16057 -0.0338362 0.189875
-0.174808 0.0833376 0.0422011
-0.196447 -0.0787009 -0.10502
-0.118599 0.0226254 -0.189875
-0.154866 0.31275 0.0834165
-0.191915 -0.359751 0.189875
-0.117619 0.150328 0.1716
0.110518 -0.0517496 0.052881
-0.188185 0.191618 -0.0646173
-0.143513 -0.366314 0.145718
-0.134139 0.233204 0.189875
0.0559226 0.0742074 -0.160437
0.166537 -0.418756 -0.189437
0.140514 -0.330999 0.157351
-0.157309 0.285203 0.00789963
0.0546177 0.150328 0.184682
0.0874772 -0.033118 0.110455
0.0234442 -0.033118 0.110634
0.143552 -0.0533995 -0.189875
-0.196447 0.353328 -0.0295252
-0.168603 -0.240869 0.145718
0.110518 -0.0334371 -0.0741176
0.0198328 0.0338291 0.187752
-0.137617 0.335234 -0.032918
-0.132341 0.276324 -0.107653
-0.196447 0.353213 0.0344531
0.167813 0.072593 -0.189875
-0.196447 0.287513 0.175017
-0.181981 0.110626 0.090321
0.148985 -0.326511 0.138417
-0.120012 0.299922 -0.116678
-0.160477 0.220338 0.0700226
-0.121379 0.221053 -0.0562536
0.0324657 -0.00208963 -0.189875
-0.120012 0.409735 0.0235546
-0.187259 -0.345637 0.145718
-0.165854 0.177569 -0.0930327
0.0604343 0.108963 0.189875
0.142248 0.028841 -0.160437
-0.196447 -0.0787402 -0.0468171
-0.121379 0.207097 -0.105137
-0.120012 -0.0139078 -0.0875582
-0.00958433 -0.033118 -0.103455
-0.144471 -0.141634 -0.189875
0.140514 -0.0789042 -0.0108351
-0.159831 0.172706 0.0348801
-0.185489 0.14627 -0.0675918
-0.120012 0.0490112 -0.0696013
-0.133078 -0.097874 -0.189875
-0.0400575 0.0353868 -0.18122
-0.196447 -0.0186477 -0.0692945
-0.0400575 0.0880148 -0.174583
0.0173469 0.0656774 -0.161092
-0.139828 0.114087 0.0946049
-0.120012 0.300402 0.182261
-0.196447 0.39742 0.0368406
-0.17969 0.228217 0.0705394
-0.102568 0.0531771 0.189875
-0.157011 -0.115199 -0.189875
-0.176908 0.250058 0.00559441
0.17378 -0.32314 0.138417
-0.112222 -0.0670803 0.189875
-0.162912 -0.0905217 -0.0681035
0.162715 -0.00971274 -0.189875
-0.135407 -0.326556 0.145718
0.068127 -0.0141539 0.016932
-0.156946 -0.0909232 -0.189875
-0.120012 0.338017 -0.0672821
0.132865 0.136279 0.160437
0.196447 -0.0292272 -0.116336
-0.0812928 0.150328 0.189312
-0.166911 0.175048 0.0945469
-0.140968 0.352482 0.183453
0.193098 0.0527272 0.189875
-0.152862 0.266062 0.0730217
0.183512 -0.0117411 -0.160437
-0.143037 0.320322 -0.0664499
-0.196447 -0.115753 -0.1816
-0.172731 -0.395806 -0.189875
0.0198328 0.0774905 0.163373
-0.118541 -0.179649 0.180702
0.18504 0.0679808 0.160437
-0.118541 -0.285203 -0.155396
0.196447 -0.237145 0.15194
0.160004 -0.109505 -0.145719
0.0772592 -0.0557784 0.149727
-0.196447 0.405514 0.0273634
-0.161703 0.166764 -0.0937414
-0.120012 0.361399 -0.104344
-0.118604 -0.324991 0.145718
-0.171382 -0.224027 0.189875
0.0321947 -0.0141539 -0.169316
-0.0240414 -0.033118 0.136197
-0.187614 0.296769 0.189875
-0.175721 0.0307449 -0.189875
-0.174584 -0.0905217 0.117484
0.156557 -0.276894 0.138417
-0.167537 -0.298624 -0.145719
0.0722453 -0.0548624 0.189875
0.051477 -0.033118 0.0677704
-0.196447 -0.30444 0.160239
-0.196447 0.140772 -0.0435399
-0.178156 -0.0346501 0.189875
-0.178212 0.24986 -0.0882915
-0.0544822 -0.033118 -0.0220213
0.0308541 -0.033118 -0.0860042
-0.196447 -0.152824 0.146246
-0.121379 0.237185 -0.049968
0.196447 -0.310214 -0.172078
0.166168 -0.0481262 -0.189875
-0.118541 -0.118197 0.178279
0.109888 0.0433204 0.176722
0.196447 -0.139113 -0.156286
-0.196447 0.396417 -0.00418619
-0.0279666 -0.0141539 -0.0103203
-0.138788 0.138944 0.0646837
-0.118541 -0.319504 -0.180592
-0.151346 -0.20825 -0.189875
0.0700513 -0.033118 -0.00235164
-0.120012 0.0836054 0.153099
-0.176213 0.0577393 0.189875
0.162261 -0.0141539 0.161332
-0.120012 0.00743702 0.156287
-0.133048 0.17018 0.0667325
-0.159478 0.169588 0.189875
-0.121379 0.186771 0.00263607
-0.00317928 -0.0493182 -0.149068
-0.146511 -0.0905217 0.10643
-0.196447 0.309844 -0.121136
0.196447 -0.0841678 0.0747393
-0.162327 0.216283 0.00337912
-0.0974394 0.118957 -0.17344
-0.196447 0.350364 -0.0727841
0.0683157 -0.0221163 -0.189875
-0.120012 0.344056 -0.0613751
0.123585 -0.0651724 -0.189875
-0.179528 -0.266859 -0.145719
-0.179496 0.140881 0.115881
0.196447 -0.0316656 -0.0133272
0.0605573 0.0840522 -0.160437
-0.196447 0.183658 0.159804
-0.152647 0.157837 0.0659229
0.0104287 0.150328 0.162638
-0.0258242 -0.033118 0.001152
0.0314815 -0.0141539 -0.162249
0.144508 -0.390566 0.189875
0.148538 -0.177714 -0.145719
-0.196447 0.132451 -0.146531
-0.196447 0.131378 0.00605501
0.0711321 0.0174891 0.160437
-0.180285 0.164013 0.127289
-0.144361 -0.0925834 0.189875
-0.196447 0.318041 -0.185965
-0.182387 0.186283 -0.0924612
-0.0221118 -0.0141539 0.0798237
-0.138776 0.158225 -0.000429007
-0.196447 0.146032 0.139774
-0.152481 0.249258 -0.189875
-0.192117 0.416867 -0.0315295
-0.120012 0.152104 -0.133684
-0.195452 0.254306 -0.0879998
-0.172628 0.108225 -0.0817568
-0.134817 0.249762 -0.0882978
-0.186579 0.32262 -0.0630104
0.172373 -0.294145 0.189875
0.195176 -0.0905217 -0.116143
-0.182541 -0.07984 0.189875
-0.0571722 -0.0170002 0.189875
-0.184124 -0.164758 -0.189875
-0.103338 0.150328 0.175185
-0.118541 -0.297679 -0.148477
0.1945 -0.0317061 -0.189875
-0.166808 -0.0632643 -0.189875
0.133042 0.0333915 -0.160437
0.180532 0.0285703 -0.189875
-0.0649234 -0.033118 0.115242
-0.0812051 -0.0620232 0.149727
-0.131853 -0.123814 -0.189875
-0.120012 -0.000330299 0.0216108
-0.0720511 -0.0141539 0.186256
-0.0114673 -0.033118 -0.0175167
0.00521878 0.120571 -0.160437
-0.0983198 0.0218103 -0.162553
0.122959 -0.0141539 0.0107381
-0.196447 0.0333163 0.0536495
-0.170636 0.113781 -0.189875
-0.196447 -0.00534569 -0.0450741
-0.178321 -0.0538267 -0.189875
0.00969996 -0.033118 0.121069
0.107133 0.109152 -0.179465
0.0173469 0.0903435 -0.178238
-0.082301 -0.0432744 -0.128546
-0.134356 0.188773 0.0954472
-0.0385122 -0.033118 0.144985
0.0414754 0.140284 0.189875
0.0737269 0.0399763 -0.160437
-0.00767529 0.0294078 -0.167933
-0.0606642 0.0821485 -0.160437
-0.121379 0.296908 0.0190962
0.140514 -0.354136 -0.174609
-0.0377785 0.0604768 0.185287
-0.178126 0.121139 -0.0964806
0.130176 0.0567386 -0.160437
0.0569821 -0.00718867 0.189875
-0.12714 0.416774 0.0330891
0.0989387 -0.0141539 -0.0647636
0.179946 -0.0670922 -0.189875
-0.181267 -0.40715 0.189875
-0.162854 0.332098 -0.042158
0.132264 -0.0141539 0.0584757
-0.196447 0.154097 0.13362
0.116761 -0.0684435 -0.13743
0.161573 -0.0141539 0.173154
-0.112311 0.0175459 0.189875
-0.0523021 -0.033118 -0.0861586
-0.121379 0.224695 -0.0581527
-0.120012 0.394024 0.0879879
0.151102 0.0692881 0.160437
0.170831 -0.0141539 0.0538814
0.095727 0.00118484 0.164615
0.196447 0.012198 0.178668
-0.160278 0.126141 -0.0689121
-0.120012 0.0654536 -0.189668
-0.121379 0.18535 0.0894306
-0.184256 0.203431 -0.0638424
-0.120012 -0.00454281 -0.108527
-0.133381 0.151908 -0.115814
-0.189672 0.330684 0.0524498
0.00582778 0.00437895 0.160437
-0.120012 0.112835 -0.144869
-0.00767529 0.109487 -0.160603
0.0224347 -0.033118 0.103025
0.196447 -0.00150136 -0.181338
0.107133 0.0657837 -0.178883
-0.0487864 -0.033118 -0.00634652
0.184422 -0.215855 0.189875
0.0497285 0.08792 -0.172157
-0.103971 0.0298272 -0.160437
-0.118541 -0.358753 0.152806
-0.123272 0.250606 0.189875
-0.174963 0.223941 -0.111089
-0.157056 0.277386 -0.107584
-0.103354 0.13573 0.189875
-0.159457 0.129328 -0.0687031
-0.120012 0.0281896 0.121024
-0.179319 0.3379 0.0265074
-0.084664 0.150979 -0.189875
-0.166269 0.196106 0.00205565
-0.123575 -0.0905217 -0.0665081
-0.120012 0.0633042 0.023629
-0.129085 -0.278598 -0.145719
-0.185975 0.166187 0.0664706
-0.143832 0.296892 -0.0256938
-0.138631 -0.0822534 -0.189875
-0.000889808 -0.0392754 0.189875
-0.172216 -0.227994 0.189875
-0.196447 0.365293 -0.163771
-0.120012 0.311755 -0.154345
-0.172136 0.0934618 -0.0390363
0.068377 -0.033118 -0.0242823
-0.13177 0.144412 -0.189875
-0.121437 0.106505 -0.00382139
0.190218 0.0284641 -0.160437
0.140514 -0.239537 0.157999
-0.143637 0.33871 0.0224348
-0.135215 0.141106 -0.0359114
0.196447 -0.198223 -0.160619
0.196447 -0.416185 0.184084
-0.124193 -0.162219 -0.189875
0.0817704 -0.0141539 0.0977039
-0.13638 0.0776588 0.0118755
0.139044 -0.0141539 -0.0119255
-0.187303 -0.231021 -0.189875
-0.0722223 0.127353 -0.163584
-0.182519 0.173522 -0.0337854
-0.1891 -0.0905217 0.0682905
-0.0507789 -0.0684435 0.165338
0.0497285 0.106414 -0.179787
-0.196447 -0.312238 -0.176584
-0.0633199 -0.0141539 0.171343
-0.152863 -0.414621 0.145718
0.196447 -0.345192 0.170689
-0.120012 0.368589 0.142474
-0.0200943 -0.0684435 -0.182505
-0.143452 0.237911 -0.125217
0.194074 -0.0996569 -0.145719
-0.133558 0.301763 -0.0573925
-0.0716419 -0.0365454 0.189875
-0.165322 -0.198028 -0.189875
-0.196447 -0.0479305 0.184868
-0.125845 -0.107101 0.189875
-0.114442 -0.0684435 -0.0488189
-0.0957748 0.0411847 0.166443
0.112817 0.0690601 0.160437
0.156934 -0.369513 -0.145719
-0.196447 -0.0449397 -0.0256833
-0.196447 0.225599 -0.17762
0.196447 -0.367168 -0.168503
-0.00539693 0.0510298 0.162745
-0.082301 -0.0612227 0.0714965
-0.196447 -0.0532864 -0.0739136
-0.195727 0.197179 -0.189875
0.148291 -0.00429458 0.160437
0.140514 -0.145528 0.153196
0.110373 0.128086 0.160437
0.140514 -0.0714428 -0.0344529
-0.150034 0.398693 0.105145
-0.0400575 0.118683 -0.164494
0.131646 -0.0423985 0.189875
-0.122104 0.133502 0.0918216
-0.158241 0.267487 0.0731152
-0.14725 -0.378566 -0.145719
-0.0163004 -0.0141539 0.0560461
0.165976 0.0523422 0.189875
-0.188476 0.217346 -0.0629297
0.143035 -0.166462 -0.189875
-0.185492 0.224372 -0.0304502
-0.134229 -0.265988 0.189875
-0.0372331 -0.0141539 -0.0346897
-0.196447 0.323722 -0.145394
-0.0745115 0.124803 0.178889
0.134278 -0.0182768 0.189875
-0.148599 -0.374843 -0.145719
-0.172729 -0.219408 -0.145719
0.0775065 0.0855427 0.188384
-0.18689 0.116107 -0.0907431
-0.196447 0.173979 -0.16807
-0.136123 0.308005 -0.0569831
-0.0245298 -0.0141539 0.143923
-0.16819 0.247939 -0.0884175
-0.170981 -0.0905217 0.106016
-0.196447 0.215243 -0.155403
-0.196447 -0.176594 -0.178129
-0.0731638 0.135359 0.189875
-0.196447 0.167319 0.152549
-0.167518 -0.251966 -0.189875
-0.120012 0.0198662 0.0730639
-0.144884 0.387276 -0.130797
-0.196447 -0.276352 -0.174276
-0.141016 0.106589 -0.00381585
-0.173828 -0.251005 0.145718
0.196447 -0.101415 0.139953
-0.120012 0.184471 -0.180101
-0.118541 -0.0692975 0.121906
0.0137177 -0.0141539 -0.0711861
-0.124348 0.143237 0.0924602
0.140514 -0.284234 0.14454
-0.196447 0.217882 0.0969069
-0.167802 0.27334 0.0734991
0.184966 -0.136104 -0.145719
-0.121379 0.1645 -0.0604015
-0.167801 0.268963 -0.059544
0.196447 -0.0288273 -0.175109
-0.120012 0.371128 -0.138548
-0.196447 0.0880732 -0.178944
0.149726 -0.0141539 -0.189598
-0.11865 -0.196371 -0.145719
-0.118541 -0.149105 -0.15831
-0.177889 0.218539 -0.111443
-0.0734688 -0.033118 0.0947209
-0.0711806 -0.00628948 -0.189875
0.0509894 -0.0141539 0.176687
-0.120012 -0.00550975 0.019758
-0.0979677 -0.0141539 0.0826833
0.0838324 0.150328 0.182375
-0.154099 0.117118 0.0632521
-0.152292 -0.115689 0.145718
0.140514 -0.347432 -0.164148
0.0633248 -0.033118 0.0844029
0.196447 -0.206484 -0.153748
0.140514 -0.409044 0.141286
0.169336 0.0334448 0.189875
-0.12668 0.131687 0.189875
0.196447 -0.287096 0.145418
0.00243246 -0.033118 -0.0995967
-0.120012 0.360804 0.110999
-0.175342 -0.417204 0.145718
-0.063177 -0.0141539 0.0180858
0.107099 -0.0408827 0.149727
0.0929437 -0.033118 0.086243
-0.196447 0.000130586 0.148975
-0.196447 0.089541 -0.113347
-0.152653 0.27611 0.115791
0.111245 0.148238 -0.189875
0.135233 0.110079 0.160437
-0.121379 0.138977 0.0291513
-0.158111 -0.220718 0.145718
-0.151771 -0.0905217 -0.0670877
0.140514 -0.252201 0.173159
-0.120012 0.015028 0.147659
0.146061 0.136009 -0.168543
0.0918983 -0.00140442 0.160437
-0.196447 0.384079 0.114019
0.127665 -0.0684435 0.0903041
-0.131861 0.232073 -0.0619637
-0.196447 0.12846 -0.158444
-0.120012 0.261388 0.131698
-0.16029 0.216653 0.0377627
-0.0150641 -0.0141539 -0.0133419
-0.121379 0.184601 0.0107965
0.196447 -0.230029 -0.146642
-0.119864 0.019751 -0.160437
-0.157084 -0.385521 0.189875
0.140514 -0.318632 -0.168009
-0.196447 0.0953147 0.175164
-0.123271 0.194964 -0.0643978
0.0131973 -0.0141539 0.0857821
-0.146289 0.166169 -0.0342676
-0.172803 0.260683 -0.108679
0.00492734 0.0261603 0.189875
-0.178728 0.414683 0.0455276
0.0873331 -0.033118 0.0984917
-0.0492098 -0.033118 -0.0105597
-0.120012 0.348904 -0.00807355
-0.120012 0.132884 0.17856
-0.153082 0.106788 0.0867776
0.173544 0.0520916 0.160437
0.11226 0.0698917 -0.160437
0.196447 -0.0474008 -0.176694
-0.154387 0.15805 -0.094313
-0.169023 0.284113 0.189875
-0.124959 0.29404 -0.0258809
-0.118541 -0.360568 0.169401
-0.133203 0.359158 -0.174816
-0.178986 0.0777388 0.0130972
-0.196447 0.345821 -0.104112
0.177635 -0.273472 0.138417
0.140514 -0.0697364 -0.178578
-0.121379 0.259809 -0.0924968
-0.122344 0.218932 0.00355285
-0.0400575 0.073106 -0.164816
-0.196447 -0.330106 -0.184917
-0.129722 0.339453 -0.0101691
-0.127681 -0.380403 0.189875
-0.194936 0.277119 -0.0269906
-0.097817 0.0722204 0.160437
-0.155261 0.116759 -0.189875
-0.139893 0.205626 0.00268006
-0.120012 0.0486681 0.131824
-0.152008 -0.177624 0.145718
-0.158295 0.184439 -0.0650882
-0.121379 0.152407 0.0740128
-0.19149 -0.0136226 0.189875
-0.141703 -0.402218 0.145718
0.174155 -0.396736 0.138417
0.0262592 -0.033118 0.103741
-0.120012 0.248676 -0.133678
-0.156772 0.250677 0.00563504
-0.0280689 -0.0141539 -0.0685006
-0.120012 0.382089 0.0691805
0.196447 -0.0594432 0.167821
-0.196447 0.186824 -0.10791
0.062987 -0.0141539 -0.125255
-0.100387 -0.0684435 0.00975626
0.168219 -0.287231 -0.145719
-0.188088 0.100706 -0.0705804
0.00610051 -0.0141539 0.097926
0.183708 -0.20907 -0.145719
-0.123977 -0.126054 0.145718
0.132781 -0.00281894 0.189875
-0.137184 0.181273 -0.12651
0.109888 0.0648198 0.18301
-0.118541 -0.319329 -0.168124
-0.0128309 -0.033118 0.0962971
-0.132308 0.264744 -0.189875
-0.13117 0.371077 0.158464
-0.0370785 -0.064126 0.149727
-0.194226 0.198176 -0.112779
-0.196447 -0.0812623 -0.0707232
0.0602107 0.0791108 -0.160437
0.073239 0.136469 -0.160437
-0.196447 0.0228001 -0.136817
0.145491 -0.264104 0.189875
0.0847268 0.150328 0.167117
-0.0282614 -0.0141539 -0.165853
-0.172871 -0.192807 -0.145719
-0.0189952 0.152171 -0.175798
0.140514 -0.234238 0.170941
0.189006 -0.138526 -0.145719
0.0849303 -0.0377033 0.189875
-0.196447 -0.0842756 -0.121619
-0.0428427 0.06811 -0.160437
-0.147819 0.186825 0.0678244
0.0583848 -0.033118 0.110917
-0.0757683 -0.0141539 -0.0994154
-0.196447 -0.00713503 0.066886
0.00737372 0.152171 -0.188608
-0.137325 0.25963 -0.189875
-0.135144 0.196781 0.134423
-0.196447 0.267499 -0.029075
0.00811495 -0.0684435 0.158223
0.140514 -0.240199 -0.163408
-0.169007 0.296534 0.00864282
0.196447 -0.0873262 0.155779
-0.120012 0.224934 0.188758
0.196447 -0.0570383 0.0585031
-0.0377785 0.0642691 0.171377
-0.0434911 -0.0141539 0.187662
-0.120012 0.354901 -0.126018
-0.0163387 -0.0454738 0.189875
0.144547 -0.191281 0.189875
0.0557377 -0.033118 0.090735
-0.138479 0.232801 -0.0298974
-0.118541 -0.352705 -0.158815
-0.123279 -0.309638 -0.145719
-0.121379 0.278279 -0.107126
-0.187447 0.206378 -0.112241
-0.120012 0.0266101 -0.0990178
-0.118541 -0.396709 -0.180312
-0.120012 0.327376 0.171236
-0.145045 0.114916 0.0631077
-0.147621 0.319971 0.0741713
-0.178886 0.316736 0.00996794
-0.135723 -0.347416 0.189875
0.0624379 -0.0131459 0.160437
-0.0538407 0.0938048 -0.160437
0.0173469 0.0364367 -0.167701
-0.128818 0.398709 -0.105109
-0.154591 0.287407 -0.0858289
-0.121379 0.29208 0.0396959
0.0963924 -0.033118 -0.111986
-0.182714 -0.0905217 0.0804367
0.110518 -0.042361 -0.0405143
-0.120012 0.35947 0.0650308
-0.188565 -0.418756 0.15534
-0.176857 0.0412243 -0.189875
-0.173475 0.14107 -0.0679329
-0.196447 0.135179 0.0858497
-0.196447 -0.0076 -0.0905045
0.0178773 -0.0141539 -0.0843763
0.196447 -0.183133 -0.167186
-0.142769 0.173991 -0.114365
0.0104101 -0.033118 0.0697448
-0.00134941 -0.0141539 0.0306196
-0.165345 0.207791 0.0691996
-0.196447 0.200344 0.142242
0.0747512 0.123457 -0.188448
-0.174057 -0.418756 0.156192
0.0747272 0.042064 -0.189875
-0.118541 -0.287048 0.156848
-0.0653676 0.0491687 -0.161513
0.186632 0.0884678 -0.184977
-0.018083 0.12743 -0.176672
-0.144568 0.239882 0.00492696
0.140514 -0.203966 0.145386
0.193314 -0.321933 -0.189875
0.125635 -0.0141539 -0.180108
-0.137138 0.185904 0.0677639
-0.16264 0.244285 -0.109755
-0.150289 0.259537 -0.108754
0.0706202 0.10812 -0.160437
-0.196447 -0.0136421 -0.093734
-0.0793163 -0.0141539 -0.0376304
-0.0258627 0.152171 -0.173145
-0.152797 0.258111 -0.108848
0.0543048 -0.033118 -0.0559624
-0.196447 0.0304472 0.107927
-0.181372 -0.0617025 0.189875
-0.196447 0.0665228 0.141199
-0.161643 0.185759 0.13223
0.11384 0.0274935 -0.160437
-0.148396 -0.0919677 -0.145719
0.037715 -0.0141539 0.0966191
0.164672 -0.133497 -0.145719
-0.00539693 0.053337 0.172437
0.196447 -0.0509109 -0.0242665
-0.120012 0.335934 -0.0452228
-0.121379 0.252536 0.0113568
0.131427 -0.0141539 -0.025256
0.136727 -0.0684435 -0.177517
0.000815241 0.0643875 0.189875
0.0338315 0.00379004 -0.174007
-0.103522 0.0661108 -0.189875
-0.141116 0.102101 -0.00411025
-0.121379 0.279233 0.0161107
-0.196447 0.354688 -0.0726622
-0.164232 0.090023 0.189875
0.161214 -0.255863 -0.145719
0.0352838 -0.0141539 0.107295
-0.154667 0.401178 -0.0987473
-0.156119 0.344106 -0.189875
-0.0114367 -0.0141539 0.128533
0.0754121 0.0576724 0.189875
0.0693121 -0.0102097 0.189875
-0.121459 0.233242 0.070869
-0.134347 0.253987 -0.109118
0.143987 -0.248834 0.138417
-0.196447 -0.0674473 -0.113833
0.110518 -0.050303 -0.0844307
0.181531 -0.0824078 -0.189875
-0.196447 -0.0321826 -0.0269691
-0.196447 0.0410056 -0.0552217
0.0940369 -0.033118 -0.0208841
-0.121379 0.211918 0.0240047
-0.153657 0.219636 0.189875
-0.155338 0.202265 0.13492
-0.101346 0.0527825 -0.189875
0.196447 -0.389079 0.151187
-0.140055 0.339065 0.0114325
-0.196447 0.0651139 0.0874271
-0.160985 0.309589 0.00949914
-0.0458209 0.0809187 -0.189875
0.196447 -0.179475 0.154851
0.121696 -0.0141539 0.172529
0.186889 -0.0905217 -0.0372684
0.0493649 -0.0141539 -0.00935749
-0.148677 -0.418756 0.185268
-0.191338 0.272791 0.0734631
-0.121379 0.308482 -0.0484725
-0.196447 0.170902 0.0145825
-0.154 -0.158269 -0.145719
-0.196447 -0.377939 0.162977
-0.187098 0.28556 0.189875
-0.120012 0.000596025 -0.154045
-0.120012 0.356705 -0.172674
-0.145324 -0.0422135 -0.189875
-0.144441 -0.290075 -0.189875
-0.0975849 -0.0684435 -0.0523215
-0.137639 0.290801 -0.0260933
-0.0149963 0.131441 -0.160437
-0.147846 0.294502 -0.0578688
-0.0301124 0.00379004 -0.16217
-0.175105 0.312913 0.0097172
-0.164529 0.12977 -0.102346
-0.126636 0.328925 -0.0235929
0.141249 -0.0141539 0.043267
-0.132952 0.143107 -0.00142065
-0.0594997 -0.0319716 -0.189875
-0.168398 -0.334832 -0.145719
-0.121915 0.238546 0.0987122
0.101057 0.124825 0.161032
0.180083 -0.0905217 -0.073335
0.0677006 -0.033118 -0.0631073
-0.163576 -0.26717 -0.189875
-0.0199524 -0.0141539 -0.173747
-0.0957748 0.0375311 0.17238
0.196447 -0.161361 -0.168066
-0.0565941 -0.0141539 -0.133204
-0.165855 0.381741 -0.140609
-0.167579 -0.250065 -0.189875
-0.184825 -0.177557 -0.145719
-0.140408 -0.0905217 -0.119628
0.161525 -0.110847 0.189875
-0.0843323 -0.0684435 0.111556
-0.0735895 -0.0419653 0.149727
-0.00639577 -0.033118 0.00534087
-0.01251 -0.0582756 0.189875
-0.147497 -0.0905217 -0.07987
-0.165261 0.259862 0.189875
-0.188644 -0.237069 -0.189875
-0.0848703 0.134369 -0.189875
-0.120617 -0.404284 -0.145719
-0.119146 -0.288627 -0.189875
-0.132047 0.0362886 -0.189875
0.033162 -0.0507304 -0.189875
-0.156708 0.292346 -0.0855049
0.140514 -0.204771 -0.166146
0.14448 0.137076 -0.162728
0.17287 0.0632758 0.160437
0.144998 0.134238 -0.189875
-0.139018 0.30396 0.0434893
0.0303357 -0.00665877 0.189875
0.196447 -0.263512 0.177244
-0.196447 0.370821 0.123609
0.0971247 0.124825 0.161367
-0.183846 0.0970898 -0.0677678
-0.196447 -0.0960128 -0.156958
-0.137114 0.335074 0.0407065
-0.120012 0.317188 -0.10548
0.188273 0.0846103 -0.167957
0.0758371 -0.033118 -0.015362
-0.0168909 -0.0141539 -0.029215
-0.146483 -0.167653 -0.145719
0.131079 -0.0684435 -0.123315
0.0654334 -0.0141539 0.0491366
-0.162903 0.223984 -0.0899886
-0.196447 -0.397463 -0.187381
-0.126478 0.289213 0.0745403
0.156936 -0.108761 0.138417
0.130204 -0.0684435 0.0989254
0.0930409 -0.033118 0.0659375
-0.164989 -0.281106 0.145718
-0.0846462 -0.0141539 -0.168603
-0.196447 -0.0463694 0.0588675
-0.175373 0.0835487 -0.00532712
0.11461 0.0801224 0.160437
-0.196447 -0.0279275 -0.132893
-0.120012 0.264914 -0.131275
-0.196447 0.0382082 -0.185092
-0.162758 -0.40965 -0.189875
-0.0749845 -0.033118 -0.143156
-0.196447 -0.033416 0.163399
-0.196447 0.317917 -0.138481
-0.127784 0.251509 0.0720672
-0.196447 0.188176 0.177388
-0.118541 -0.0874242 -0.091609
-0.180695 -0.0273772 -0.189875
-0.148976 0.294408 -0.057875
0.152658 -0.0905217 0.101257
-0.082301 -0.0476874 -0.141331
-0.196447 0.385933 -0.107082
-0.16897 -0.271547 -0.145719
0.196447 -0.399686 -0.173601
-0.196447 0.00978392 -0.00192596
-0.165009 -0.149849 0.189875
-0.130214 -0.229924 -0.189875
0.176649 -0.417962 0.138417
-0.196447 -0.21154 -0.16956
-0.141662 -0.175886 -0.189875
-0.118541 -0.0773552 0.13744
0.149954 -0.0905217 -0.13633
0.160288 -0.418756 0.179703
0.0527764 -0.0141539 0.113046
-0.132928 0.237297 0.0711349
0.0198328 0.0398249 0.168554
-0.168666 0.105229 -0.189875
-0.191968 0.154756 -0.0670352
-0.189352 0.251487 -0.0606903
-0.120012 0.0229422 0.0836333
-0.120012 0.110961 -0.106784
-0.188373 -0.0905217 0.00401312
-0.0993481 0.139276 -0.160437
0.182815 -0.164299 -0.189875
-0.0981531 0.0402082 -0.172247
-0.0908117 -0.0141539 0.162521
-0.196447 0.0884657 -0.0967906
-0.171937 0.1907 -0.12756
0.151452 0.0166518 -0.160437
-0.196447 0.372165 0.0989492
0.0149744 -0.0141539 0.148591
-0.118541 -0.212198 0.181061
-0.189212 0.312625 -0.05668
-0.175387 -0.37187 -0.189875
0.0195232 0.13184 -0.189875
0.183082 -0.384051 0.138417
0.136738 -0.0141539 0.16886
-0.196447 0.382138 0.124296
-0.0425941 -0.00679898 0.160437
-0.040856 0.0486617 -0.189875
-0.172393 0.276454 0.101199
-0.120012 0.0365994 -0.141967
-0.146928 0.0942345 0.0679889
-0.190247 0.121133 0.0910102
-0.0900117 4.79035e-05 0.160437
-0.110223 0.0520599 0.189875
-0.172532 0.00831427 0.189875
0.107133 0.074295 -0.183072
-0.0957748 0.0343555 0.161916
-0.0400575 0.0816673 -0.170377
-0.196447 0.00190937 -0.0773683
-0.0531988 0.0116787 0.189875
0.0518233 0.0911807 -0.160437
-0.11891 -0.160853 -0.145719
-0.165402 0.174592 0.067022
-0.12392 0.32935 -0.050256
0.0326206 -0.0141539 0.145156
-0.145552 0.140896 0.0327937
0.117154 0.0371191 0.160437
0.0188 -0.0141539 -0.04523
0.0693678 0.089708 0.160437
-0.160923 0.226044 -0.127579
0.196447 -0.0667583 0.0149881
-0.139672 0.157981 0.0934274
-0.196447 0.175089 -0.0932241
0.173087 -0.360078 0.138417
-0.181649 0.161397 -0.000220968
-0.118541 -0.317706 -0.160332
0.196447 -0.0588546 0.18397
-0.120012 0.00623324 -0.108413
0.0747512 0.0464665 -0.174657
-0.153884 0.162396 0.093717
0.0198328 0.078788 0.177913
0.194369 -0.201425 0.189875
-0.196447 0.385234 0.00670849
-0.196447 0.381481 0.121773
0.0775065 0.010912 0.176258
-0.160502 0.107696 -0.070122
0.0356265 -0.0372299 0.189875
-0.187311 0.094575 0.0684986
-0.17655 -0.240521 0.189875
-0.119435 -0.27649 -0.189875
0.193359 -0.0141539 0.177843
0.0315982 -0.0141539 -0.03883
-0.121242 -0.31944 0.189875
-0.186832 0.345621 -0.189875
0.136426 0.131345 -0.189875
-0.144201 0.391327 -0.121695
0.0314583 -0.0603693 -0.149068
-0.196447 0.310779 0.127272
0.143113 0.0618187 0.160437
0.0497285 0.106787 -0.182098
-0.164197 -0.418756 0.179969
-0.115953 -0.0684435 -0.113422
0.128087 0.142909 -0.189875
-0.196447 0.231456 -0.171292
-0.196447 0.0644438 -0.187014
0.102981 0.150328 0.187801
-0.178598 -0.309942 0.145718
-0.175143 0.243865 -0.124033
-0.0198301 -0.0141539 0.171257
0.0660847 -0.00184386 0.189875
-0.0972047 -0.0684435 0.0420743
-0.120012 0.35551 0.104577
-0.196447 0.173165 0.146357
-0.15964 -0.314726 -0.189875
0.18789 -0.249469 -0.145719
-0.138906 0.127704 0.0639464
-0.120012 0.102568 0.187507
0.195192 -0.260647 0.189875
-0.120012 0.0700064 -0.11986
-0.082301 -0.0538469 -0.035851
-0.149311 0.251301 0.00567594
0.110518 -0.0459891 0.13396
-0.0702023 -0.0320715 -0.189875
0.194903 -0.0905217 0.0989382
-0.196447 0.0835927 0.182557
-0.120012 0.0246545 0.186911
-0.114296 -0.0194067 0.189875
0.196447 -0.0516784 -0.168937
0.0663491 -0.0124314 0.189875
-0.118818 -0.110322 -0.189875
-0.0117301 -0.033118 0.140078
0.132627 -0.0141539 0.103199
0.0903505 -0.0286166 -0.189875
-0.164136 -0.174115 -0.145719
-0.196447 -0.0111313 0.00559129
0.0508986 -0.0283551 0.189875
-0.151692 0.170133 -0.189875
-0.196447 0.384635 -0.017853
-0.115953 -0.0684435 -0.078323
-0.167339 0.12021 0.0634549
0.196447 -0.0185898 0.139625
-0.121379 0.234257 -0.102744
-0.118541 -0.0819479 -0.0782471
-0.139696 0.130672 0.109151
-0.147164 -0.418756 0.182682
-0.196447 0.361859 0.118315
-0.120012 0.0131699 -0.0258897
-0.056177 -0.033118 -0.0871552
-0.00665148 -0.0141539 0.0152341
0.140514 -0.198905 0.179892
-0.0414243 -0.033118 -0.0191651
-0.124153 -0.367513 0.145718
-0.167432 0.405075 -0.08611
-0.120012 0.000479294 -0.0991401
-0.15968 0.283898 0.110588
0.196447 -0.0933999 -0.149432
-0.153945 0.257372 -0.0282859
-0.142084 -0.0670669 -0.189875
0.0197984 -0.0411898 0.149727
-0.159273 0.295451 0.00857183
-0.12002 -0.0905217 0.110702
-0.157391 0.287339 0.00803974
0.109606 -0.033118 -0.00646865
0.196447 -0.32468 0.172483
-0.120012 0.124005 -0.110945
-0.169282 -0.26408 -0.145719
-0.120012 0.352833 0.0728511
-0.183546 0.233862 -0.126023
-0.178107 -0.000483155 0.189875
-0.148025 -0.11476 -0.145719
0.0174522 0.101252 0.160437
-0.153854 0.0479945 0.189875
-0.176355 0.0950262 0.0691738
0.0905594 -0.0141539 0.167012
-0.182601 0.142915 -0.0678119
0.170636 -0.0141539 0.136448
0.0173469 0.0415443 -0.176685
0.196447 -0.0190054 -0.0220096
-0.196447 -0.23519 0.167403
0.187848 -0.0905217 -0.0159788
-0.182609 0.185508 -0.065018
-0.120476 0.337911 -0.0250307
-0.120012 0.000531412 0.09506
-0.133694 0.204109 -0.0317792
0.140514 -0.140992 0.156331
-0.196447 0.0284583 -0.12452
-0.118541 -0.333993 -0.187047
-0.180503 0.144616 -0.189875
-0.196447 -0.0825879 0.0664053
-0.163309 0.178022 0.094742
0.0954908 0.141724 -0.160437
0.192526 -0.0905217 0.0703556
-0.0165904 -0.028961 -0.189875
-0.120012 0.0339672 0.127554
-0.196447 0.324125 0.0254158
-0.120012 -0.00306094 0.0842718
-0.196447 0.255958 -0.034406
0.0173469 0.109776 -0.166264
-0.15863 0.191705 -0.0325928
-0.082301 -0.0570788 0.087418
0.14118 -0.0141539 -0.184538
0.0870534 -0.0556447 0.149727
-0.150426 -0.105971 0.145718
-0.149313 0.184333 0.00128347
0.120266 -0.0684435 -0.182677
0.140514 -0.257839 0.18825
-0.12279 0.294906 -0.085337
0.123436 0.122917 0.160437
0.130571 0.0341226 -0.189875
-0.0396803 0.152171 -0.177658
-0.107986 -0.0141539 -0.168936
-0.118541 -0.0822548 -0.0067592
0.140514 -0.244482 0.144999
0.0159505 -0.0141539 -0.176029
-0.187145 0.204197 0.00258634
-0.172372 -0.0533356 0.189875
0.0692817 -0.0684435 -0.178247
-0.137612 -0.102608 0.189875
-0.153783 0.207781 -0.112149
0.156656 -0.263314 0.189875
-0.118541 -0.306688 0.154755
-0.126781 0.222632 -0.111175
-0.00803374 0.000204122 -0.189875
0.183687 0.0598076 0.189875
-0.196447 0.330881 0.1408
-0.196447 0.381773 0.130123
-0.119948 -0.308095 0.189875
-0.121379 0.141741 0.0777869
-0.121379 0.289432 0.0259844
0.196447 -0.235244 -0.169946
-0.196447 0.395993 -0.056417
0.0775065 0.0403723 0.171114
-0.120012 0.0216166 -0.164582
-0.120012 0.401123 -0.011043
-0.196447 0.3827 0.116301
0.196447 -0.334735 0.146391
-0.188303 0.337051 -0.0275652
-0.150025 0.216727 -0.0309516
-0.196447 -0.0691831 0.116911
-0.0948556 -0.0684435 0.0686577
-0.0563571 0.150328 0.186957
-0.143208 0.301799 0.00898818
-0.173486 -0.388738 -0.189875
0.0714026 -0.033118 0.11276
-0.194192 0.0935866 -0.0606643
0.110518 -0.0429349 -0.0431527
-0.196447 -0.00119339 0.0779893
-0.155979 -0.130748 -0.189875
0.0747512 0.11124 -0.169026
-0.14006 0.145851 -0.0676192
-0.196447 -0.24691 -0.180892
-0.0986971 -0.0141539 -0.17351
0.150377 0.115459 -0.160437
-0.051453 -0.0141539 -0.034253
-0.0630646 0.0631418 0.176678
0.0775595 -0.0141539 0.157605
-0.174529 0.183475 -0.127087
0.196447 -0.0326858 -0.123479
-0.196447 -0.314008 -0.146897
-0.00539693 0.0425743 0.18749
0.129215 -0.0684435 -0.0767511
-0.082301 -0.0615149 0.110387
-0.196447 -0.0810674 -0.0684838
-0.123912 -0.192694 -0.189875
0.196447 -0.0303185 0.0788356
0.130306 -0.0684435 0.0262175
-0.000543632 -0.033118 -0.0306541
-0.082301 -0.0451257 0.140787
-0.184831 0.133401 -0.00205724
-0.128826 0.312189 0.084056
0.120127 0.14761 0.166105
-0.123291 0.180304 0.0673966
-0.00959162 -0.0141539 -0.14922
-0.010996 -0.0527798 0.189875
-0.196447 0.179057 -0.177436
0.196447 -0.0551337 0.0861428
0.0497285 0.0579764 -0.183862
-0.196447 0.268229 -0.0919802
0.0497285 0.0189228 -0.163287
0.142557 -0.181828 0.138417
-0.185065 0.200673 -0.0320046
-0.18156 0.28965 -0.0261688
0.170294 -0.0141539 -0.162035
0.0427541 0.152171 -0.16901
0.196447 -0.0477043 0.0443613
0.105519 -0.033118 -0.0882256
0.196447 -0.0400376 0.121632
-0.196447 0.41624 0.0048444
0.000274494 -0.033118 0.051015
-0.145729 0.21748 -0.0629209
-0.196447 0.359544 0.00934397
0.196447 -0.0259048 0.0728635
-0.131269 0.412528 -0.0574088
-0.196447 0.0863518 -0.128239
-0.196447 0.0417458 0.0568258
-0.174114 0.104967 -0.00392228
-0.14073 0.160823 0.0661188
-0.193755 -0.0524471 0.189875
0.0747512 0.016524 -0.162325
-0.184052 0.0900155 0.0616743
-0.143717 -0.0402458 0.189875
-0.154443 0.0332161 0.189875
-0.141722 0.179677 0.0353374
-0.182112 -0.361506 -0.189875
-0.0129446 -0.0275083 0.189875
0.0377924 -0.0141539 -0.0725928
0.178191 -0.120534 -0.145719
-0.118541 -0.149519 0.157836
0.166622 -0.225415 -0.145719
-0.196447 0.0623641 0.159471
0.155424 -0.0141539 0.0258882
-0.196447 -0.220626 0.173437
-0.148741 0.380007 0.143512
0.148894 -0.0141539 -0.130621
0.137672 0.081087 -0.189875
-0.174678 -0.26221 0.189875
-0.196447 -0.0548038 0.0532134
0.15175 0.0402377 -0.189875
-0.196447 0.167345 -0.163924
-0.147886 0.211273 -0.189875
-0.15636 -0.0965675 -0.145719
-0.196447 0.213161 -0.159128
-0.144732 0.157232 -0.115464
0.140514 -0.387532 0.178166
0.15066 -0.418756 -0.169194
-0.145425 -0.149117 -0.145719
-0.123209 0.0979198 -0.0387439
-0.196447 0.258148 -0.153719
-0.0478996 -0.033118 0.123993
-0.0691661 -0.0141539 -0.0550195
-0.165347 0.196824 -0.0917699
-0.182787 0.283434 0.042143
-0.00539693 0.101909 0.177017
-0.0298396 -0.0141539 0.105992
0.0475156 -0.00547351 0.189875
-0.196447 0.116857 0.00698803
0.161718 -0.00496261 -0.189875
0.0932283 0.12842 0.160437
-0.121379 0.317808 0.0374385
-0.122635 -0.220976 0.145718
-0.151486 0.153393 0.189875
-0.120012 0.0477759 -0.0311232
-0.127289 0.151463 -0.115843
0.119929 -0.0141539 0.0154507
-0.164296 -0.218456 0.145718
-0.195864 0.385514 -0.134292
0.00505184 0.0199224 -0.160437
0.0740755 0.13048 0.189875
-0.149568 -0.358438 -0.189875
0.155639 0.0653919 0.160437
-0.196447 0.351277 -0.150149
-0.156556 0.248439 0.189875
-0.118541 -0.0795407 -0.161098
0.0386686 -0.0141539 0.083401
-0.132866 0.321968 0.0446705
-0.0955604 -0.0531805 0.189875
0.140514 -0.295142 0.15916
-0.120012 0.0603338 0.029058
0.0900801 -0.0141539 -0.0332349
0.141726 -0.184028 0.189875
-0.120012 0.315043 0.162275
0.171213 -0.107109 0.189875
0.196447 -0.0591059 -0.0249382
0.140514 -0.311026 -0.177233
-0.196447 0.2703 0.182756
0.128868 -0.0684435 -0.17073
-0.15198 0.225728 0.133384
-0.162695 0.077947 0.016277
-0.184684 -0.222696 -0.145719
-0.131584 0.128421 0.0319755
-0.167889 0.283277 -0.106397
-0.147852 0.296906 -0.0944435
0.162501 -0.0905217 -0.0607805
-0.121379 0.229669 0.0767017
-0.0423536 -0.033118 -0.0716406
0.101079 -0.0141539 0.174112
-0.129749 0.0949475 -0.0634239
-0.0997526 -0.0141539 -0.15601
-0.13221 -0.319365 -0.189875
-0.152725 -0.418756 -0.178145
-0.196447 0.264765 0.134901
-0.118541 -0.223457 -0.174349
0.00543086 -0.0389535 0.149727
-0.123613 0.25563 -0.0284001
0.140514 -0.136014 -0.166549
0.16842 0.0171814 0.160437
-0.196447 0.162674 -0.0425546
-0.170694 0.130258 0.189875
0.164019 -0.298889 -0.189875
0.080492 -0.033118 -0.131072
-0.0166332 -0.0422699 0.189875
-0.170013 0.220772 -0.062705
-0.158213 -0.328862 0.189875
-0.148554 0.14258 -0.0358148
-0.138565 -0.225792 0.189875
0.0760206 0.12743 -0.187491
0.0467324 -0.0531077 -0.189875
-0.0164001 -0.033118 -0.102267
-0.190062 -0.262647 -0.189875
-0.180691 -0.045215 -0.189875
-0.196447 -0.0261628 -0.0421396
-0.0615571 -0.0504401 -0.149068
0.14113 -0.0824816 -0.189875
-0.16495 0.349089 0.187842
-0.180964 -0.411603 0.145718
0.18877 0.0834421 -0.16645
0.0417381 -0.033118 0.107129
-0.1943 0.123229 0.189875
-0.133188 -0.0905217 -0.133571
-0.137694 0.137367 -0.107422
0.180779 -0.0905217 0.031699
-0.082301 -0.0660903 0.115715
-0.194168 -0.418756 0.145745
0.19119 -0.37672 -0.189875
-0.196447 0.168972 -0.18694
0.125873 0.123707 -0.189875
0.145299 -0.302849 -0.189875
0.0185958 0.104146 0.189875
0.0614145 0.150328 0.18076
0.0819549 -0.0440223 -0.189875
-0.111983 0.0960006 -0.160437
-0.166661 0.301235 -0.0906463
-0.166652 0.0921134 -0.0576772
0.00861614 -0.0141539 0.180656
-0.152056 0.120078 0.0998591
-0.14946 -0.190801 -0.145719
-0.120012 0.0315443 -0.0297578
-0.196447 0.268831 -0.121886
-0.0990635 -0.0141539 0.0160285
-0.189604 0.207284 0.0027888
0.012278 -0.0141539 -0.146984
-0.196447 -0.374169 -0.156361
0.140514 -0.345662 0.151468
0.169808 0.0543435 0.189875
-0.196447 -0.0912053 0.177264
-0.180333 0.126769 -0.0963645
-0.0543865 0.101381 0.160437
-0.187061 -0.193719 -0.145719
0.196447 -0.0921302 -0.184965
-0.196149 0.143186 0.0649619
0.168429 -0.366822 -0.145719
-0.196447 0.223562 0.00464299
-0.0613168 0.00803477 0.160437
-0.178735 -0.0905217 0.0164789
-0.187702 0.0953522 -0.00455291
-0.196447 -0.277849 0.188627
-0.0712284 0.146263 0.189875
-0.196447 0.347919 0.139259
0.152664 -0.0141539 0.162919
0.104579 0.124825 0.186374
0.144285 -0.205096 -0.145719
0.00650048 -0.033118 -0.0671397
-0.140567 0.0457982 0.189875
-0.0353545 -0.0141539 -0.026674
-0.162746 0.238692 0.0392082
0.108467 -0.033118 -0.112206
-0.0218663 -0.057735 0.149727
-0.130031 0.257308 -0.108901
0.150059 -0.192646 0.138417
0.196447 -0.0847618 -0.134695
0.140514 -0.199457 -0.156405
-0.118541 -0.105138 -0.154143
-0.120012 0.409585 0.022534
-0.16476 0.309793 0.0867885
-0.159712 -0.317585 0.145718
-0.0601292 -0.033118 -0.14901
0.0484285 -0.033118 0.108358
-0.196174 0.0822808 -0.0348316
-0.0161455 0.130801 -0.189875
-0.175675 0.175945 0.189875
-0.12231 0.0165539 -0.189875
-0.135078 0.089297 -0.0519662
-0.120012 0.38554 0.0737755
0.0775065 0.122358 0.165655
-0.118541 -0.198559 -0.163272
-0.0302473 -0.033118 -0.0184488
-0.194746 0.148372 -0.0949476
0.189021 -0.130961 -0.145719
0.164055 -0.343476 -0.145719
0.0283305 -0.033118 -0.0705569
-0.196447 0.0549873 0.154253
0.180854 -0.0141539 -0.102247
-0.184659 0.141851 -0.0678816
0.0951738 -0.033118 0.0596203
-0.129505 0.179967 0.000997064
0.137248 0.0856762 0.160437
-0.174047 -0.418756 -0.171808
-0.159739 0.318172 -0.0696675
-0.196447 0.372699 0.0250565
0.18813 -0.0141539 -0.0428348
-0.179413 -0.183085 -0.145719
0.196447 -0.0439372 -0.182759
-0.132593 0.385233 -0.134761
-0.0999653 0.0944699 -0.189875
0.0716242 -0.0107088 0.160437
-0.196447 -0.389361 0.177677
-0.127288 0.415424 -0.0414446
0.173007 -0.0905217 0.0472841
0.0787781 -0.0684435 0.157465
-0.120012 0.212379 -0.153407
-0.196447 0.0438452 0.176702
0.113211 0.140297 -0.189875
-0.121379 0.146176 -0.0613912
-0.196447 0.288434 -0.128604
-0.193974 -0.310694 -0.189875
-0.158704 0.324385 0.0652206
0.0899126 0.152171 -0.174112
-0.118541 -0.0817677 -0.113073
0.0257462 -0.00864406 -0.160437
0.196447 -0.0893408 -0.108833
-0.173172 -0.200631 -0.145719
-0.192 0.115516 -0.00323034
0.164727 -0.0905217 -0.100623
0.1716 -0.0466242 -0.189875
-0.189555 0.417154 -0.0267425
0.177488 -0.244697 -0.145719
0.0411152 -0.0141539 0.157902
0.121268 -0.0684435 -0.130821
-0.119172 -0.193689 0.145718
-0.120012 0.110562 0.165202
-0.184528 0.118553 -0.0935316
-0.187801 0.112899 0.0935627
0.191485 -0.261245 -0.189875
-0.196447 -0.401937 0.179948
-0.128206 -0.22623 -0.189875
0.140437 -0.0141539 0.137778
-0.0842104 0.141946 -0.189875
0.165616 -0.418756 -0.164932
-0.174778 0.0784849 0.0244918
-0.120012 0.200177 0.151872
0.0747512 0.042431 -0.169993
-0.0414351 0.0535908 0.160437
-0.120012 0.0138821 -3.18252e-05
-0.162108 0.410144 0.069673
0.0173469 0.0753743 -0.177948
-0.180915 0.251794 0.00570828
-0.0232094 -0.033118 -0.0114184
0.175737 0.0572172 -0.160437
-0.0304677 -0.033118 -0.00964575
-0.191569 0.235377 0.00463149
-0.1636 0.191985 0.189875
-0.120012 0.259787 0.185866
-0.142436 0.211183 -0.063334
-0.012143 0.152171 -0.170388
0.196447 -0.362558 -0.148383
-0.0567094 0.0311389 0.160437
-0.120012 0.256286 -0.161043
-0.154318 0.117914 -0.0374325
-0.196447 -0.0891337 0.0634152
-0.190124 0.107339 -0.00376667
0.196447 -0.0361397 0.0962045
-0.172323 0.297341 -0.189875
-0.196447 -0.0151213 -0.0783827
-0.195775 0.302494 -0.0253264
0.139645 -0.0684435 0.106522
-0.065164 -0.033118 0.0487873
0.140514 -0.0853549 0.157871
-0.196447 -0.362154 0.187143
-0.120012 0.0513036 0.0997393
-0.154191 -0.169703 0.189875
-0.120012 0.351529 0.0179737
0.160868 -0.0136788 0.189875
-0.175911 0.248296 0.128135
0.0436124 -0.0141539 -0.0443193
0.140514 -0.168877 -0.165079
0.150526 -0.418756 0.167981
-0.181863 0.339943 -0.00269354
-0.196447 0.328907 0.127474
-0.118541 -0.144593 -0.189063
-0.147609 -0.0905217 -0.000986196
-0.196447 0.276322 -0.117382
-0.19346 0.156345 0.123508
0.133559 0.00963915 -0.160437
-0.0703193 -0.033118 -0.10088
-0.14988 0.159288 -0.000359271
-0.182085 -0.195656 0.189875
-0.116586 -0.0141539 -0.163407
-0.00713505 0.14638 -0.160437
0.143041 -0.329234 -0.145719
0.163584 -0.0967408 0.138417
-0.0756481 -0.0141539 -0.132818
-0.167161 0.277114 0.0737467
-0.0400575 0.0735389 -0.166402
-0.152883 0.368202 -0.163116
-0.118541 -0.404453 -0.177392
-0.00767529 0.0483408 -0.162033
0.149889 -0.0982397 -0.145719
-0.138518 0.209092 0.0029074
-0.166625 0.0938524 -0.189875
0.0726032 0.142029 0.189875
0.0240169 -0.0141539 0.155266
0.120618 -0.0653995 -0.189875
-0.159943 0.103278 0.0815246
-0.160479 -0.227688 0.145718
0.149396 -0.326953 0.138417
-0.153726 -0.221277 -0.145719
0.196447 0.0221113 -0.173425
-0.118541 -0.223885 -0.148397
0.0323447 -0.033118 -0.143533
0.113905 -0.00822628 0.189875
-0.196447 0.228556 0.0121278
0.155458 -0.0905217 -0.10525
-0.118541 -0.355104 0.158813
-0.19453 -0.0905217 -0.0539289
-0.121379 0.255894 -0.0323127
-0.124858 0.399077 -0.104282
0.196447 -0.181505 -0.164235
0.0775065 0.0131369 0.169027
-0.0321906 -0.0141539 -0.0870998
-0.125368 0.339526 0.0183351
0.132759 -0.0684435 0.0711463
-0.167675 -0.231922 -0.189875
0.107133 0.0338107 -0.187865
-0.118783 -0.373921 0.189875
0.181021 -0.0905217 0.087787
0.110518 -0.0439195 -0.137522
-0.196447 0.275738 -0.043143
-0.185414 0.259099 -0.108783
-0.121379 0.215606 -0.109111
0.138644 -0.0141539 -0.0649224
-0.120012 0.0731764 -0.0689244
-0.0322547 -0.033118 -0.0907287
0.149184 -0.316458 0.189875
-0.152355 0.286106 0.00795884
-0.143879 0.218897 0.00355051
0.196447 -0.246598 0.142746
0.143619 -0.28113 0.138417
-0.0666785 0.140931 0.189875
-0.196447 0.190203 -0.165083
-0.120012 0.059687 -0.0987995
-0.120012 0.2646 -0.120672
0.0558869 -0.0141539 0.142088
-0.110338 -0.0282772 -0.189875
0.18681 0.0447162 0.189875
-0.188652 -0.301562 -0.145719
0.196447 -0.0263662 -0.113517
-0.125588 0.150402 -0.0353017
-0.0594815 -0.0141539 0.00356896
-0.00053389 0.021672 -0.160437
0.129855 -0.0680059 -0.189875
-0.0168152 -0.033118 -0.0847841
-0.121379 0.329576 -0.0261548
-0.00704004 -0.0674291 0.189875
-0.159248 0.29475 0.0749035
0.190542 -0.094963 0.189875
-0.120012 0.299164 0.169008
-0.196447 0.249761 0.186533
-0.145373 -0.343068 0.189875
-0.14748 0.111651 -0.0856627
-0.124581 0.31072 -0.056805
0.190451 -0.414034 0.138417
-0.118541 -0.0697327 -0.0486415
-0.167153 0.240191 0.189875
-0.15512 -0.298774 0.189875
0.184332 -0.340279 0.138417
-0.196447 0.118555 0.0770276
-0.113061 -0.0684435 -0.0901961
0.0522931 0.13161 -0.160437
-0.120077 0.012223 0.189875
-0.0400575 0.105345 -0.165996
-0.183355 0.118079 -0.00306221
-0.127353 0.163605 -7.61351e-05
-0.178023 0.0833196 0.0290172
0.182886 -0.0905217 -0.000922777
-0.157355 -0.274738 -0.145719
-0.192174 -0.276464 -0.189875
-0.120012 0.00640995 -0.12807
0.152351 -0.160531 -0.145719
-0.126618 0.295316 0.189875
-0.146227 0.267826 0.189875
-0.120012 0.053894 0.102253
0.0034442 -0.0365351 0.189875
0.192681 -0.0141539 -0.0139706
-0.120012 0.0284269 -0.0693724
0.0825623 -0.0358702 0.149727
-0.147383 0.186256 0.0357689
-0.120012 0.0327829 0.00520472
0.0791455 0.128137 0.160437
0.107668 0.146957 0.189875
0.123643 -0.0445463 0.189875
-0.118541 -0.200635 -0.154503
-0.196447 0.259804 -0.148446
-0.187124 -0.300266 -0.189875
-0.0617659 0.116683 0.160437
-0.00767529 0.111407 -0.171225
0.196447 -0.0739655 0.147732
