ply
format ascii 1.0
comment Created by Open3D
element vertex 1582
property double x
property double y
property double z
end_header
0.0887059 -0.0652018 -0.0934017
-0.103537 -0.0652018 -0.136555
-0.178539 0.306432 -0.0081114
-0.0549124 -0.246573 0.00664685
-0.00777043 -0.345126 0.168268
-0.101925 -0.00858195 -0.000528795
-0.0202013 -0.290069 -0.0365902
0.066374 -0.0652018 0.0262865
0.026144 -0.0652018 -0.171957
-0.176426 0.196462 0.0822313
-0.0171013 -0.0652018 0.0600066
-0.05644 -0.334695 -0.091384
-0.157273 0.24263 -0.0556234
0.0129482 0.000130553 0.158217
0.0574334 -0.0652018 0.0653329
0.00592735 -0.324054 0.00336419
0.159816 -0.351511 0.130001
0.1088 -0.0124382 0.0661592
-0.178296 0.293818 0.0536794
-0.0804598 -0.244091 0.0134266
0.175453 -0.355489 0.148163
-0.0883208 -0.0652018 0.148757
-0.177956 0.276091 0.0636845
0.0105269 -0.0652018 -0.0425153
0.0767238 -0.0652018 0.118391
-0.160538 -0.0358416 -0.165884
-0.177702 0.262866 0.0643747
-0.0758304 -0.0194515 0.169567
-0.166318 -0.0194515 0.0802721
-0.0269943 -0.338199 0.125449
0.123241 -0.0160179 -0.0391733
-0.102147 -0.0652018 -0.110175
-0.0780468 -0.0194515 0.0733774
-0.0852589 -0.332545 0.0434006
0.050767 -0.0652018 -0.131876
-0.174218 -0.0498451 0.0422365
-0.230118 -0.356968 -0.0635844
-0.175126 0.128796 -0.0890957
-0.155754 -0.347094 0.0915309
0.027316 -0.00062446 0.0964142
-0.151441 -0.351966 -0.146075
0.0366178 -0.0194515 0.0602305
-0.0266395 -0.356246 -0.23347
-0.154912 0.265153 -0.00531312
-0.160645 0.301932 0.0659441
-0.00851818 -0.324054 -0.00685144
-0.00433056 0.134699 0.173258
0.0598334 -0.355683 0.222573
0.113921 -0.0135695 -0.00375161
0.0131414 -0.323343 -0.0383571
-0.15689 0.252112 0.0427162
-0.176882 0.220195 -0.132366
0.0942412 -0.0194515 0.090388
0.0772503 -0.0652018 -0.146909
-0.0673578 -0.00330279 0.0232856
-0.0678696 -0.0349689 0.185013
0.149537 -0.0508567 -0.155421
-0.177325 0.243248 0.117954
0.000322493 -0.243909 0.0387925
-0.17495 0.119629 -0.0863383
-0.183571 -0.347736 -0.00639237
-0.0111002 -0.0652018 0.0340186
-0.00227987 -0.0194515 -0.105088
0.186284 -0.353963 -0.15662
-0.172345 0.166562 0.13211
0.0293774 -0.0652018 -0.175886
0.188823 -0.353036 0.10529
-0.0490667 -0.328651 -0.0529307
0.00478232 -0.0194515 -0.183095
-0.177196 0.236539 0.140042
0.1331 -0.0652018 0.108053
-0.158156 0.00811836 0.084899
-0.0461029 -0.340265 0.131974
-0.179385 -0.351219 0.100148
-0.164872 0.0592688 0.111829
0.0800628 -0.0652018 -0.0703919
-0.122318 -0.0194515 0.0200089
-0.159219 0.220781 -0.0739945
0.0474713 0.14866 -0.161158
0.0230141 -0.0652018 0.0402981
-0.013904 -0.0652018 -0.00419605
-0.192007 -0.354184 -0.150936
0.0482892 0.142055 0.166799
-0.0074395 -0.0609901 0.00142679
-0.180249 -0.000912659 -0.0133078
-0.00560083 -0.00607524 0.149167
-0.0149496 0.000345463 -0.0996363
-0.159405 0.228387 0.0672903
-0.121221 -0.350667 0.160076
-0.00622998 0.151488 -0.168561
-0.0465862 -0.0194515 -0.0732507
-0.0992276 -0.0194515 0.0968369
0.0664993 -0.00453682 -0.0624014
0.118071 -0.0652018 -0.0990477
-0.157216 0.345458 -0.0306811
0.0355991 0.0247207 -0.198311
0.0298868 -0.0194515 -0.0605054
0.0264947 0.0682072 -0.195533
-0.00152745 -0.0194515 0.113576
-0.100626 -0.0083182 0.0476791
-0.162349 0.0075532 0.105307
0.0215787 -0.0652018 0.0129551
-0.113406 -0.33604 0.0230849
0.0588467 -0.32862 0.0406149
-0.154198 -0.0235894 0.165385
-0.0340389 -0.000310227 0.0793362
-0.134908 -0.0652018 -0.0185395
-0.179053 0.33318 -0.00419953
-0.0346192 -0.0194515 -0.11388
0.153202 -0.342557 0.0151481
-0.175755 0.161568 0.131076
-0.179343 0.348307 0.104086
-0.0900016 -0.33823 -0.0926237
-0.135594 -0.352503 0.16294
0.0413133 -0.325007 -0.0287032
-0.0541477 -0.333077 -0.0813182
-0.132676 -0.0194515 0.0800503
-0.0226519 -0.0455111 0.185013
-0.0640422 -0.0194515 -0.0127484
-0.107578 -0.334776 -0.0122006
-0.169496 0.0402632 -0.137669
-0.0764695 -0.334284 0.0728677
0.206902 -0.355579 -0.134397
0.0478721 -0.038002 0.185013
-0.154509 0.212027 -0.028819
-0.161238 0.158528 0.174344
0.00655392 -0.33656 0.118038
-0.0519982 -0.00790414 0.159705
-0.0605502 0.130518 -0.167142
0.21284 -0.352728 -0.0225882
-0.158195 0.358337 -0.0270487
-0.187847 0.0815803 0.0278942
-0.21715 -0.353799 -0.0407854
-0.0395738 -0.25481 0.0127634
0.077513 -0.0652018 0.0400106
0.0482892 0.0914962 0.158275
0.0611969 -0.328168 0.0328765
0.109758 -0.0652018 -0.0248532
-0.0882886 -0.00628326 0.124815
-0.0546355 -0.346325 -0.166564
-0.0241278 -0.0194515 -0.184171
0.00753374 0.151488 -0.164084
-0.156456 0.289815 0.0276679
-0.0692426 -0.0194515 -0.185422
-0.166272 -0.0194515 0.0334572
0.0157865 -0.21635 0.0309752
-0.0661972 0.158528 0.157027
-0.217436 -0.353816 0.112276
0.147846 -0.0652018 0.130185
0.025414 0.0293048 0.147514
-0.188515 -0.022466 0.00189907
-0.158409 0.263893 -0.0612754
-0.096765 0.158528 0.184156
0.137181 -0.0194515 -0.139375
-0.0508107 -0.334864 0.096695
-0.0474552 -0.0617429 -0.187661
-0.0791699 -0.0194515 -0.127702
0.0460696 0.0888449 0.194744
-0.155866 0.237115 -0.0401821
-0.17613 0.234247 0.140695
0.00438063 -0.0652018 0.0285324
0.0119812 -0.349038 -0.191205
-0.164411 0.341695 -0.0910606
-0.170912 -0.0652018 0.0789179
-0.151588 0.134699 0.180706
-0.156023 0.240818 -0.0412996
0.150417 -0.356548 0.187404
-0.173218 0.0294915 0.0350528
-0.173974 -0.0493376 0.121097
0.0506683 -0.350044 -0.190786
-0.158982 0.312406 -0.05848
-0.168262 0.322622 -0.111726
-0.0852572 -0.0194515 0.00916082
0.00155238 -0.0194515 0.0992971
-0.136412 -0.355177 0.197867
0.153916 -0.355681 -0.17266
-0.188515 -0.03286 -0.0109492
0.023891 -0.328183 0.0647028
-0.123145 0.153579 0.194744
0.149097 -0.0337123 0.14854
-0.155711 0.161196 -0.0556471
0.0742671 -0.0652018 -0.123032
0.0745648 -0.0194515 0.0358171
0.0397267 -0.0200519 0.185013
0.135186 -0.0652018 0.166
-0.155938 0.0278025 -0.0773155
-0.0697375 -0.00358189 -0.145918
-0.0611478 -0.332987 0.075584
-0.0644668 -0.338901 -0.116032
-0.152526 0.135113 0.00270854
-0.103926 -0.342957 -0.116764
0.110301 -0.0127584 0.156377
0.117136 -0.0652018 -0.072441
-0.121755 -0.0652018 0.113015
-0.163098 -0.0194515 -0.0533171
-0.174218 -0.0588966 -0.0813978
-0.0784307 -0.0479526 0.185013
0.11966 -0.0652018 -0.0363484
0.085868 -0.347087 -0.159812
-0.0167141 -0.219059 -0.0382266
0.00153502 -0.356947 0.237578
-0.0168153 -0.0194515 -0.0921244
0.0644706 -0.0194515 0.143372
-0.028483 -0.0652018 -0.00992705
0.159966 -0.34494 -0.0486729
-0.188515 0.0673464 0.0278169
-0.154764 0.00301604 -0.0718947
-0.122303 -0.0209767 -0.187156
0.163635 -0.344336 0.0137531
-0.0935089 -0.0652018 0.1366
-0.178426 -0.354901 -0.138208
0.1642 -0.349556 0.104463
-0.165502 0.000624951 0.119315
-0.173318 0.0346738 0.0985308
-0.110816 -0.0194515 -0.0326942
-0.153487 0.139935 0.0265108
-0.0771102 -0.0194515 -0.14443
-0.00560083 -0.00151561 -0.155086
-0.0516469 0.158528 0.176295
-0.173621 0.0504781 -0.0525173
-0.0903223 -0.0194515 -0.0261086
0.0245549 -0.343609 -0.159371
-0.170341 0.0112579 0.135495
-0.178989 0.340825 0.1435
-0.175508 0.148688 -0.0406631
0.00694674 -0.345536 0.170672
0.0793212 -0.0652018 -0.0938546
-0.0874153 -0.0194515 -0.117973
-0.0197619 -0.338502 -0.129423
-0.0943566 -0.0304984 -0.187661
0.113286 -0.0381767 0.182405
-0.153913 0.134699 0.155775
0.00316273 0.134699 0.18916
-0.177285 0.32045 -0.14598
0.0877746 -0.0194515 -0.178751
0.077499 -0.0652018 -0.103566
-0.163297 0.085222 0.102989
0.0279733 -0.000670578 -0.091572
0.132482 -0.0194515 0.159395
-0.0617301 -0.336369 -0.0996688
-0.1786 0.309606 -0.0810984
-0.125913 -0.0194515 0.0699691
0.0783921 -0.342319 0.130689
-0.0650914 0.135539 0.194744
-0.16256 0.23623 0.0850157
-0.0822793 -0.349997 -0.180226
-0.154051 0.136069 -0.151243
-0.109849 -0.0652018 0.0863371
0.015218 -0.354273 -0.221901
0.00951164 -0.343418 -0.158253
0.0682812 -0.0194515 0.122007
-0.16552 0.341235 -0.0972283
-0.035721 -0.331736 -0.0827638
0.123371 -0.0652018 0.0261901
0.129969 -0.0194515 0.120606
-0.155448 0.104874 -0.0620067
-0.125135 -0.347407 -0.133611
-0.172769 0.00614857 0.023714
-0.0585415 -0.326413 0.00891024
-0.111934 -0.0194515 0.0689444
-0.10428 -0.35627 0.225056
-0.176325 0.191201 -0.00195701
-0.174017 0.0710824 -0.0480727
-0.181019 0.152713 0.141261
-0.0442315 -0.0194515 0.156492
0.0262674 -0.0652018 0.0338249
0.0850421 -0.00759532 0.0419896
-0.179175 0.339532 0.065712
-0.179063 0.333719 0.0976364
-0.156563 0.130257 0.059862
0.152706 -0.0611609 0.0120482
-0.245566 -0.354441 0.0287291
0.0562831 -0.0652018 0.110163
-0.0438591 -0.000999222 -0.0300932
-0.179298 0.345982 -0.0440324
-0.175507 0.148628 -0.0526042
-0.163572 0.111922 -0.108989
0.0643981 -0.349675 0.184046
-0.0669396 0.151488 0.144227
-0.0831536 0.130518 -0.15946
-0.17509 -0.355845 -0.152222
0.0027128 0.134699 0.157115
-0.0243002 -0.0408346 -0.187661
-0.027288 5.72474e-05 -0.118517
-0.0574733 0.144558 0.194744
-0.128343 0.130518 -0.179698
-0.00607439 -0.0194515 0.0685808
0.0228474 -0.0652018 -0.0114035
-0.138601 -0.353409 0.167319
-0.123297 -0.0652018 -0.155034
0.194779 -0.354125 0.107952
-0.0836061 -0.334317 0.0633696
0.000316057 -0.348919 -0.190505
0.0280627 -0.0138809 0.159705
-0.00122262 -0.0652018 -0.0217588
-0.0530138 0.133318 -0.151243
0.0502424 -0.0652018 0.0381017
0.0170579 -0.0652018 -0.180963
-0.152527 0.0515317 -0.0431387
-0.174218 -0.0286122 0.0083532
-0.0531377 -0.0652018 -0.143912
-0.0664011 0.151488 -0.193544
-0.0085739 -0.350479 -0.199654
-0.0793457 -0.244091 -0.00411838
-0.167305 -0.345532 0.0373144
0.12895 -0.0194515 0.039612
-0.0267 0.134699 0.155595
0.0795539 -0.0194515 0.146878
0.0739995 -0.0194515 -0.0266074
0.0482892 0.0451538 0.146434
0.147301 -0.0429156 0.15278
0.13526 -0.344525 0.0941121
-0.150863 0.00752258 -0.0325059
-0.180897 -0.347545 0.0336714
-0.0363383 -0.000471554 0.0142612
-0.106777 -0.0277687 -0.187661
-0.0893996 -0.0652018 0.0866031
0.057245 -0.35381 -0.211865
-0.099953 -0.339554 -0.093118
0.086459 -0.0652018 0.0316694
0.14663 -0.0261641 0.154141
-0.175142 0.129616 -0.00970312
0.175742 -0.349773 -0.0907391
-0.0993123 -0.341719 -0.111146
0.0118615 -0.338137 0.127285
0.0901856 -0.0652018 0.0924928
0.0433671 -0.330952 -0.0737471
-0.117406 0.151488 -0.194009
-0.0568099 -0.326254 0.0115873
-0.0126076 0.000400169 -0.058561
-0.10305 0.137674 -0.151243
-0.177662 0.260794 -0.115744
0.0264947 0.0555566 -0.192601
0.0180076 0.142522 -0.151243
-0.0474989 -0.0652018 0.10273
-0.0575754 -0.00215548 -0.114615
-0.158075 0.13332 0.0711472
0.116774 -0.339759 -0.0720053
-0.133635 -0.353975 -0.198346
-0.161019 -0.000160219 -0.0866599
0.0665425 -0.0194515 -0.0643861
-0.00560083 -0.002739 -0.134128
-0.0369792 -0.334118 0.0970398
0.100616 -0.0652018 -0.0512553
0.0852289 -0.00762613 -0.0607534
0.148429 -0.34244 -0.0367313
-0.173059 0.0211922 -0.0801208
-0.175461 0.146254 -0.100304
-0.154102 -0.0652018 0.0646963
0.0331502 -0.0194515 0.0271302
0.103453 -0.0112976 0.0611429
0.0474713 0.0394714 -0.180215
-0.0699712 -0.0194515 -0.131185
-0.166143 0.346295 0.0931174
-0.155145 0.0892931 0.0549621
-0.110792 -0.0652018 -0.119577
-0.0414362 -0.339934 -0.131453
-0.00560083 -0.00107383 -0.0148052
-0.160739 0.15505 -0.0905877
-0.0789971 0.134699 0.170552
-0.0615376 -0.0652018 -0.118163
-0.0073541 -0.324043 0.0445491
-0.176716 0.211564 -0.0453602
-0.0413866 -0.000825752 -0.00966003
-0.0108642 0.000440895 -0.089417
0.191353 -0.351902 -0.0841645
-0.111237 -0.355691 -0.203746
-0.104127 -0.0652018 0.0455299
0.125018 -0.0652018 -0.147517
-0.160101 0.149425 -0.0876612
-0.157035 0.33702 -0.0304336
-0.0770091 -0.00443473 0.1161
0.0383623 -0.00139949 0.0778855
-0.166693 0.14327 -0.119727
-0.100214 0.130518 -0.15805
-0.0303499 -0.0652018 0.047132
-0.0819742 -0.00524175 -0.00642239
0.039768 -0.0194515 0.132073
0.0982911 -0.0194515 0.0500306
0.00500944 -0.345393 0.169834
0.134954 -0.343612 0.0854255
-0.0529703 -0.331634 0.0717172
-0.0245675 0.133309 -0.200806
0.117958 -0.346824 0.134593
0.126903 -0.0499779 -0.181585
-0.105521 -0.34285 -0.114829
-0.00503443 0.000550611 0.101903
-0.0493058 0.151488 -0.200263
-0.176856 0.218841 -0.0356817
-0.159747 0.0128221 -0.100196
-0.00735242 -0.0194515 -0.152809
-0.00345775 -0.21635 0.0279085
0.0474713 0.108951 -0.198308
-0.139203 -0.340536 0.0289928
-0.176683 0.20986 -0.083052
-0.174218 -0.0314086 -0.0221038
-0.0854188 -0.254955 -0.00796545
-0.174218 -0.0575831 0.111328
-0.139251 -0.0652018 -0.107871
-0.0458184 0.158528 0.162091
0.0264947 0.072816 -0.173867
0.0776583 -0.0194515 0.0741527
0.00200058 -0.19797 -0.0108873
-0.178201 0.288879 0.140316
0.109554 -0.0243791 0.183438
0.118191 -0.350543 -0.161376
-0.200664 -0.355776 -0.142926
-0.161174 0.297531 -0.0777244
-0.181365 0.150998 0.138119
0.0258691 -0.303705 0.0273889
-0.00300845 -0.350513 -0.199855
-0.173598 0.0492769 0.0095203
-0.0788379 -0.0652018 0.0821268
0.0605811 -0.0194515 0.108073
-0.0801205 -0.0652018 -0.0680752
0.053054 -0.00293893 -0.137347
-0.166091 0.10619 0.113179
-0.0932255 -0.341083 0.110953
0.0511021 -0.335961 0.103815
-0.174257 0.0835912 0.0556664
0.136265 -0.353659 0.170829
0.0278068 -0.0652018 -0.112568
0.049591 -0.0237496 0.185013
0.146048 -0.0652018 0.0806283
0.0322539 0.080358 0.194744
-0.118902 -0.0652018 0.175153
-0.10096 -0.0194515 0.071396
0.0955384 -0.0504507 -0.187661
-0.132579 -0.33904 0.0076988
0.15814 -0.344951 0.0544941
-0.0256726 9.49819e-05 -0.154413
0.0733355 -0.0652018 -0.058319
-0.183993 -0.354465 0.16477
0.0451688 -0.324858 -0.0209252
-0.174846 0.114224 -0.151029
-0.149241 -0.0194515 -0.0701097
-0.043111 -0.0652018 -0.15543
0.0356313 0.116167 -0.200806
-0.167548 0.335145 0.10064
-0.00392583 -0.0194515 -0.00512252
-0.175325 0.139182 -0.00965982
-0.178346 0.296422 0.0779485
-0.125009 -0.354924 0.213861
-0.133567 -0.339208 0.00908962
0.0626782 -0.0652018 -0.058668
-0.0199987 -0.0194515 0.163565
-0.176682 0.209799 -0.074275
-0.154372 -0.0652018 -0.117386
-0.177606 0.257895 0.0408034
-0.018447 -0.241703 -0.0374134
0.173009 -0.345935 -0.0224186
-0.0777537 -0.0194515 0.161305
-0.154546 0.152405 -0.0441781
-0.12382 0.158528 0.186575
0.0293499 -0.0194515 -0.0880435
0.0524385 -0.00286675 -0.113085
-0.133475 -0.0157634 0.0317047
-0.163541 0.358235 -0.0299613
0.114852 -0.0652018 0.137312
-0.177203 0.236915 0.135094
-0.00776888 -0.341243 -0.145498
0.136225 -0.0652018 -0.146672
-0.0542501 -0.0194515 0.0734948
0.0320496 -0.314661 0.0196415
-0.0921731 -0.0652018 -0.049824
-0.176647 0.0552326 0.0314003
-0.105229 -0.0194515 -0.0908669
0.0219576 -0.00680295 0.159705
-0.140706 -0.017663 -0.112398
0.0177163 -0.323369 0.0370285
-0.129068 -0.352898 -0.170554
-0.177872 0.35796 -0.140456
-0.186902 0.0712656 0.0314003
-0.175306 0.138181 -0.0241398
0.102288 -0.011049 -0.131285
0.088227 -0.0652018 0.165353
-0.160081 0.330602 -0.0643033
0.106972 -0.0385483 -0.187421
0.0452267 -0.0194515 0.0756194
-0.177241 0.2389 0.0184381
-0.178403 0.299367 0.0886082
-0.188515 0.0152869 -0.00273425
-0.171389 -0.0194515 0.0116779
-0.147025 -0.0193231 0.128501
-0.168643 0.211705 0.115415
-0.173725 0.0558679 -0.118133
-0.179156 0.338584 0.0934993
0.0382854 -0.00139408 -0.0140774
-0.0851614 -0.331117 0.0165915
0.0301289 -0.260573 0.0231266
0.145417 -0.0194515 -0.120538
0.163141 -0.355291 -0.178424
-0.0969823 -0.0652018 0.174487
-0.17103 0.347953 -0.121448
-0.238986 -0.356009 -0.0211064
-0.174218 -0.00345406 0.0155908
-0.153118 0.143329 -0.151243
0.00240721 -0.137666 0.00847104
0.140168 -0.352372 0.158666
-0.0559426 0.140801 -0.200806
-0.0168954 -0.0194515 -0.0574548
-0.137119 -0.0652018 0.00997618
0.0726894 -0.0194515 -0.0174082
0.109909 -0.353621 -0.189705
-0.094091 -0.348678 -0.165377
-0.175614 0.154217 -0.0372647
0.144125 -0.0383779 0.158646
0.152706 -0.0335586 -0.100243
-0.157205 0.130772 -0.0717848
0.118123 -0.0652018 -0.0145877
-0.156972 0.176327 -0.0631832
-0.0996605 0.134699 0.152952
0.0147752 8.7874e-05 -0.0335802
-0.0231582 -0.354756 0.224736
0.185348 -0.355287 -0.132523
-0.0442749 0.130518 -0.193256
-0.15335 -0.352482 0.148588
-0.0467955 -0.0652018 0.151908
-0.178948 0.327757 -0.0979141
0.0870733 -0.347161 -0.159475
-0.0908525 -0.0652018 -0.0127233
-0.173735 0.164908 0.137024
-0.0687717 -0.00346862 0.154179
0.1421 -0.340663 -0.0222813
-0.151241 -0.0194515 -0.0313439
0.152588 -0.0419264 0.130836
-0.0818494 -0.330388 0.00186245
0.147237 -0.343434 0.0592685
0.0444394 -0.0478851 -0.187661
-0.0444922 0.134699 0.187631
-0.112548 -0.357506 0.220928
-0.157827 0.116565 0.0715827
-0.100218 -0.334152 0.0278505
-0.0386239 -0.354079 0.219578
-0.0876328 0.134699 0.155643
0.0315052 -0.0194515 -0.0974727
0.0300453 -0.000815952 0.152506
0.0350795 -0.266851 -0.0158052
-0.170076 0.214972 0.121055
0.0314986 -0.324039 -0.0322712
0.0482892 0.148995 0.15711
-0.115658 -0.355154 -0.196642
-0.159528 0.0963385 -0.0901304
0.0234812 -0.21635 0.0055811
-0.178649 0.312153 -0.0378643
-0.0674734 -0.0652018 -0.148196
-0.0695614 -0.00356124 -0.026834
-0.113418 -0.0110338 -0.104965
-0.152721 0.0740873 -0.040027
0.0853521 -0.336244 -0.08019
-0.00773235 0.158528 0.157121
-0.174416 0.0918689 0.129338
0.117637 -0.0145458 -0.147772
0.0302048 0.0229626 0.167561
-0.0899306 -0.0194515 0.121773
-0.0857558 -0.343959 -0.137227
-0.0323042 -0.346459 0.174651
0.0887194 -0.335599 -0.0691216
-0.167082 -0.000276652 0.108723
-0.0718177 -0.0194515 0.149568
-0.170076 0.111726 0.127909
0.062182 -0.00400947 -0.04839
0.1247 -0.0652018 0.14346
0.150863 -0.0652018 -0.00463094
0.101947 -0.0109763 -0.1152
0.121473 -0.0652018 0.106014
-0.160741 0.0022313 0.0988901
-0.166814 0.298956 0.100476
0.0769034 -0.329691 0.0149503
-0.131265 -0.0151831 -0.0612904
-0.188515 -0.0330122 0.0109669
-0.208756 -0.353526 -0.12133
-0.095545 -0.0194515 -0.0342721
0.0975662 -0.0652018 0.128277
-0.152404 0.129318 0.00226994
0.0075744 -0.324054 0.0273565
-0.104341 -0.351094 -0.175438
0.178287 -0.346835 -0.02656
-0.0331466 -0.0172428 -0.1615
0.0281036 -0.0652018 0.147383
-0.00271745 0.151488 -0.189799
-0.152031 0.0942869 -0.0210007
0.0469987 0.0474324 0.144227
-0.0492534 -0.339068 0.123574
-0.0262362 -0.337649 0.122302
-0.0603452 -0.0652018 0.168491
-0.0653675 -0.0652018 0.112495
0.119645 -0.0194515 0.00525641
0.0298969 -0.330035 0.0741697
-0.168133 0.295933 -0.113361
0.025414 0.127687 0.17439
-0.119665 -0.0652018 0.00921074
-0.0594466 0.134699 0.145373
0.0186749 0.151488 -0.172543
0.0473454 -0.00226943 0.000114925
-0.109601 -0.0102195 0.0742508
0.00360001 -0.0363902 -0.187661
-0.157029 0.349837 -0.0244297
-0.196762 -0.353548 -0.138053
0.22884 -0.356828 0.0622796
-0.161422 0.106594 -0.0994953
-0.177107 0.231897 -0.0603275
-0.151699 0.130518 -0.153268
-0.175823 0.186678 -0.149808
-0.0447878 -0.32441 0.0135839
-0.0238805 -0.0652018 0.146545
-0.178864 0.323357 -0.0917239
0.177869 -0.350649 -0.096558
-0.0185717 -0.327041 0.0593881
0.0382831 -0.298015 0.000282245
-0.165337 -0.0444325 0.150828
0.0328658 0.117343 -0.200806
0.112471 -0.0132215 0.107208
-0.171352 -0.0194515 0.115689
0.0371345 0.151488 -0.176632
-0.109792 0.134699 0.152623
0.00881085 -0.348778 -0.189679
-0.206457 -0.354254 0.0823136
-0.140208 0.134699 0.148881
0.175714 -0.354576 0.138691
-0.102571 -0.0194515 0.132558
-0.174132 0.0770631 0.0620072
0.0424813 0.0247207 -0.184531
-0.0955131 0.158528 0.144278
-0.181177 0.135993 -0.146579
0.0426652 -0.0652018 -0.0125819
0.0547785 -0.325771 -0.0047848
-0.0767198 -0.00440079 0.12835
-0.179226 0.34222 0.0535438
-0.167344 -0.0474785 0.146758
-0.174218 0.0272637 0.025548
-0.0802113 -0.0194515 -0.0762895
-0.154871 0.149873 -0.0490358
-0.0681806 -0.330017 0.0417022
-0.135133 -0.346772 0.1167
-0.163127 0.147875 0.194744
-0.105538 -0.0194515 0.0968189
-0.148741 0.14558 0.194744
0.2043 -0.351398 -0.0347607
-0.0958579 -0.353676 -0.222344
-0.0910965 -0.0194515 0.142757
-0.157948 0.214706 -0.0650317
-0.109647 -0.0652018 0.113913
0.0258814 0.0363316 0.194744
-0.151547 0.0921216 -0.00327813
0.146626 -0.0194515 -0.0918511
0.0801323 -0.335015 0.0751132
-0.151787 0.0802322 -0.0220544
0.063633 -0.00417964 -0.0871458
0.0923418 -0.0652018 -0.00877267
0.0537103 -0.00301591 -0.136389
-0.129639 -0.0652018 0.000466824
0.0633826 -0.357437 0.238135
0.127138 -0.0194515 0.111018
0.0410866 -0.354354 -0.22047
0.0474713 0.109406 -0.198428
0.0264947 0.106286 -0.1718
-0.0228506 -0.0652018 0.00331573
0.211438 -0.356195 0.103825
-0.150612 0.0244247 0.0110015
-0.0709677 -0.0194515 0.179726
0.108745 -0.0194515 -0.0359
-0.160815 0.208049 0.0783722
0.192382 -0.349477 0.0350012
0.135247 -0.0652018 0.028059
-0.0229155 -0.0194515 0.00911294
-0.0414614 -0.0359277 0.185013
-0.030887 -0.357569 -0.246043
0.0854485 -0.33874 -0.0996188
-0.114578 -0.344529 -0.120421
-0.108311 -0.351515 0.175603
-0.126015 -0.0194515 -0.116831
-0.154837 0.226467 -0.0294698
0.0915284 -0.332039 -0.0131415
-0.0323937 -0.0220564 -0.187661
0.0834583 -0.0652018 -0.0193338
-0.138369 -0.0170491 0.154527
-0.226192 -0.356197 -0.0584576
-0.179706 0.143888 -0.162319
-0.0760158 -0.00431823 0.129023
-0.179521 0.357565 -0.0312789
0.0258807 0.0535939 0.194744
-0.157996 0.333023 -0.0439195
0.0567577 -0.0652018 0.12802
-0.169074 -0.350138 -0.103568
0.138216 -0.0194515 -0.0111298
-0.178416 0.300038 -0.00489724
-0.174411 0.0915932 -0.0649982
-0.0247706 -0.243881 -0.0344078
-0.15314 0.17514 -0.00363577
-0.00429319 -0.334273 -0.104631
0.121688 -0.346971 -0.132951
-0.037989 -0.330314 -0.0730375
-0.173742 -0.349735 0.0931123
0.0617259 -0.328811 0.0385545
-0.0679738 -0.00337503 -0.131585
0.0482892 0.0385149 0.144826
-0.173472 0.0427029 -0.106611
-0.175561 0.139393 -0.158874
-0.174876 0.229622 0.136671
-0.175643 0.148847 0.136474
-0.0796184 -0.330221 0.0166569
-0.158635 0.0333827 -0.0918792
-0.0529526 -0.346308 0.167011
-0.00673487 0.148732 0.194744
-0.129748 -0.343898 0.0954428
-0.161488 0.140787 -0.0962322
-0.0788439 0.130518 -0.170681
-0.135537 -0.0163053 0.115415
-0.175313 0.138517 0.131263
0.0622268 -0.0194515 0.163727
-0.163663 0.00193999 -0.118384
-0.0574731 -0.00214348 -0.033301
-0.0779898 -0.0652018 -0.0054152
-0.171871 0.21112 -0.134531
0.103473 -0.334732 -0.0288298
0.0478118 -0.00232412 -0.0282325
-0.131819 0.134699 0.16523
0.139944 -0.344245 -0.0848651
-0.170105 0.0107181 -0.141733
-0.172839 -0.348413 0.0749412
-0.128667 -0.353737 -0.20495
-0.221182 -0.354131 0.108062
0.152706 -0.045895 -0.10356
0.0877521 -0.352772 0.195553
-0.174218 -0.0651562 -0.00177735
-0.0176239 -0.0194515 0.0771378
-0.0028101 0.000498653 0.0781883
-0.175697 0.140351 0.182703
-0.172925 0.0142463 -0.125008
-0.0175489 -0.324054 -0.0284553
-0.175691 0.158196 0.123127
0.0241828 -0.0344166 -0.187661
0.107673 -0.0194515 0.0712689
-0.120441 -0.012532 -0.159113
-0.0988074 -0.0537709 0.185013
-0.148108 0.151488 -0.198589
-0.0450682 -0.345731 0.166014
-0.176394 0.194821 0.0371849
-0.177083 0.230648 0.0156918
0.0264947 0.116186 -0.17084
-0.0595111 -0.246043 -0.0139528
-0.0808955 0.151488 -0.169142
0.014451 -0.0652018 0.0302745
-0.0929402 -0.0070505 0.0150373
-0.0143983 0.00035834 0.0475671
-0.183087 -0.0379906 -0.0133078
0.161188 -0.343919 0.0136199
0.0512494 -0.00272729 -0.0968761
-0.0388326 -0.357227 0.238915
-0.00982198 0.000465239 0.11977
-0.0645583 -0.0194515 -0.00659382
0.0819965 -0.0652018 0.123723
0.0231066 0.130518 -0.177735
-0.00947478 -0.0194515 0.156636
-0.178331 0.295646 0.0618227
-0.15156 0.00917507 -0.0411422
-0.164631 0.190135 0.100081
-0.133436 -0.0157532 0.082689
-0.083852 -0.341234 0.11886
-0.0064641 -0.337701 0.12473
0.119595 -0.0652018 -0.0191889
-0.151514 0.0480019 -0.0308492
-0.174546 0.214589 -0.143546
-0.0662639 0.144361 -0.200806
-0.100917 -0.00836691 -0.0476776
-0.127827 -0.0194515 0.160816
0.152706 -0.0306345 -0.137756
-0.0252968 0.000103759 0.135726
0.0474713 0.059208 -0.19209
-0.145394 -0.0194515 -0.11466
-0.177164 0.234859 0.00388378
0.0482892 0.0781511 0.186337
-0.175697 0.146324 0.148139
0.0282094 -0.0385025 -0.187661
-0.178786 0.319296 -0.143844
-0.175301 0.137896 -0.107238
0.0482892 0.0786157 0.16828
-0.17572 0.159727 0.0118453
-0.173332 -0.0520371 -0.137713
-0.166647 0.347886 -0.102744
0.0474713 0.0890578 -0.171175
-0.0632707 -0.0652018 0.16283
-0.173263 0.0318301 -0.0178473
-0.155823 0.134445 0.0534882
0.0677517 -0.0194515 0.0729748
-0.172757 0.00549711 0.119621
-0.128473 -0.0194515 0.165715
-0.164752 0.151488 -0.183858
0.195498 -0.350168 -0.0385099
0.143564 -0.0194515 -0.082731
0.103924 -0.0194515 -0.0859399
-0.0420699 -0.308615 5.41025e-05
-0.0254092 -0.0652018 -0.0164847
0.0166927 4.30835e-05 0.158984
0.0482892 0.108978 0.170733
-0.0416758 -0.0652018 -0.0938503
-0.0727534 -0.0179708 -0.1615
0.102397 -0.337751 0.0717633
0.0846661 -0.0652018 -0.150032
-0.0928805 -0.0194515 -0.0916847
-0.0728124 -0.334087 -0.0750778
-0.163597 0.204921 0.0940551
0.06108 -0.0652018 0.144416
0.0473905 0.0742448 0.144227
0.0388093 0.0562587 0.144227
0.148438 -0.0194515 0.143227
-0.145886 -0.0652018 0.0476865
-0.165071 0.201474 -0.108044
-0.186864 -0.348297 -0.0187274
-0.0150548 0.158528 0.164707
0.102529 -0.0652018 -0.11241
0.035082 -0.0652018 0.133736
-0.113724 -0.0110991 0.153302
-0.00984923 -0.165959 0.00599774
-0.0443453 -0.00103333 0.135561
-0.173337 0.0356719 0.119402
0.0163149 -0.344814 0.166435
-0.0630318 0.130518 -0.198997
-0.0260505 -0.0208042 -0.187661
0.00299631 -0.29022 -0.0407017
-0.222911 -0.35713 0.0862496
-0.115743 0.158528 0.158885
0.12608 -0.339365 -0.0471783
-0.149789 -0.341985 -0.0239318
-0.174218 -0.0463228 0.00254061
-0.00256719 -0.0652018 -0.0847191
0.0158207 -0.0194515 0.132241
0.0163928 5.00892e-05 0.0862826
-0.146486 -0.0652018 -0.101528
0.13859 -0.0632118 -0.172787
-0.0996741 -0.3335 0.0171428
-0.0226133 -0.0652018 -0.104366
-0.070326 -0.0652018 0.0582136
-0.174002 0.0702801 -0.116127
0.0668847 -0.0194515 0.0655066
0.051281 -0.32901 -0.053925
-0.150478 0.0282773 -0.00988923
-0.176155 0.182386 -0.033273
-0.159348 0.0755333 -0.0913457
-0.00560083 -0.0104457 0.142882
0.0974678 -0.0194515 0.126338
0.02719 -0.343927 -0.160697
-0.0433826 -0.255132 0.00618897
-0.0801967 -0.0652018 -0.147153
-0.151529 -0.342271 -0.0142383
-0.174218 -0.0499524 -0.114437
-0.114562 -0.0652018 0.0625862
0.138323 -0.340819 -0.0370781
-0.0430654 -0.000943538 -0.147612
-0.0177099 -0.328112 -0.0662707
-0.17849 0.30391 -0.133071
-0.0755894 -0.0194515 0.0727087
-0.200327 -0.354967 -0.108726
0.0295899 -0.0652018 -0.0442446
0.0776532 -0.0194515 0.0798607
0.0731662 -0.0652018 -0.0342899
0.119261 -0.0194515 -0.17857
0.221356 -0.35688 0.0862976
-0.174346 0.0881855 -0.00569298
0.00990527 -0.235698 0.0373413
-0.0518656 -0.0652018 -0.0514913
0.152706 -0.0212538 -0.00546534
-0.179263 0.34415 0.0557254
-0.14675 -0.0194515 -0.0151026
-0.176088 0.17889 0.131263
-0.169056 -0.0652018 -0.00118335
-0.177663 0.260832 0.0715165
0.0149423 -0.0652018 -0.0513469
0.0422534 -0.0194515 0.175574
-0.188515 -0.00956273 0.0211325
0.0377274 -0.0194515 -0.0419702
0.0353007 0.132411 -0.200806
-0.150428 0.0298663 -0.000246087
-0.164667 0.342046 -0.092437
0.00287346 -0.0194515 0.0985874
0.0558503 -0.0652018 0.0923638
-0.160643 0.193 0.0790202
0.124091 -0.337592 -0.0119409
0.00684983 0.000273005 0.1136
-0.173799 0.0597131 -0.142023
0.036949 0.0417658 -0.151243
-0.12514 -0.354926 0.188099
-0.0916835 -0.0652018 0.0483361
-0.144273 -0.0194515 -0.0115256
0.110553 -0.0194515 0.0739929
-0.156514 -0.0194515 0.127667
-0.0209814 0.000204564 -0.0716806
-0.176166 0.182925 -0.0446196
-0.00578766 -0.0194515 0.159549
-0.179066 -0.347363 -0.0358761
-0.160691 0.0560297 0.0938057
0.0347507 -0.35628 0.233667
0.10051 -0.333775 -0.0198006
0.245048 -0.354353 0.0376943
-0.132074 -0.34182 0.071509
-0.0261553 -0.327887 -0.0621436
-0.0509465 0.148234 -0.151243
-0.154375 -0.348543 -0.10789
-0.131324 -0.0194515 0.0411801
0.0482892 0.104888 0.17486
0.00570582 -0.242666 0.0381181
-0.17802 0.279421 0.0894834
0.0603979 -0.0194515 0.120722
0.0156678 -0.346253 -0.174874
0.0405573 -0.0652018 0.105926
-0.0215987 -0.0194515 0.142872
-0.00188006 -0.0652018 0.165201
-0.00216393 -0.110987 0.00955348
0.100021 -0.0194515 -0.0657457
-0.155993 0.244197 -0.0400636
0.146766 -0.0194515 0.0645984
0.0630124 -0.0530713 0.185013
-0.179317 0.34697 -0.069815
-0.188515 0.0240016 0.00389653
-0.0612129 -0.0194515 0.0258705
0.0883489 -0.0240253 -0.187661
-0.0734288 -0.0194515 -0.127859
-0.179425 0.352566 -0.0666165
0.0583301 -0.00355771 -0.0591027
0.214614 -0.35507 -0.0726865
-0.1766 0.205549 0.0220754
-0.00560083 -0.00253305 -0.0677021
-0.172768 0.320429 0.123357
-0.160906 0.272734 0.0720137
0.108198 -0.0138592 0.159705
0.152706 -0.0435519 -0.0986547
0.0632261 -0.0194515 -0.0315824
0.0172352 -0.332989 0.0964983
0.00910411 -0.353721 0.240508
-0.178603 0.0336489 0.0314003
-0.16913 -0.0494486 0.14308
0.0567911 -0.333048 0.079187
-0.174824 0.1131 0.0163617
0.0264947 0.0362158 -0.194911
-0.0899383 0.158528 0.146484
0.0448852 -0.0652018 -0.00365891
-0.0730427 -0.00396953 -0.0868437
0.0722971 -0.330312 -0.0389838
-0.159306 0.106337 -0.0878474
-0.172561 0.310588 -0.13031
0.124647 -0.0652018 -0.00946217
0.0779077 -0.0128635 0.159705
0.0109886 0.000176326 0.152053
-0.173964 0.0683108 0.0623042
0.0376082 -0.314546 0.00380026
0.0858383 -0.00772664 -0.0974416
-0.170571 0.140505 -0.134728
0.0811186 -0.350087 0.181156
0.0463389 0.13343 0.194744
0.00343623 -0.326753 -0.0605323
-0.0634301 -0.33948 0.120984
-0.0909268 -0.0194515 0.0026421
-0.167979 -0.0652018 0.0379693
-0.0549338 -0.0652018 0.0782956
0.0206418 -0.355954 -0.231758
0.075679 -0.336801 0.0926679
0.110444 -0.0127889 0.0674813
-0.152408 0.111821 0.0155759
0.0336334 -0.0194515 -0.0580668
-0.157518 0.247582 -0.0567905
-0.202801 -0.351016 0.00202834
-0.154399 0.165498 0.0319838
-0.0911408 -0.0194515 0.140098
-0.0117756 -0.0194515 0.083343
-0.162514 0.237881 -0.091602
0.0482892 0.156131 0.175037
0.00933368 -0.0194515 0.142118
0.0998052 -0.0652018 -0.00667637
-0.00985318 -0.0649735 -0.00820429
0.0264947 0.0451506 -0.17628
0.0408471 -0.0194515 0.149388
0.0264947 0.111877 -0.168341
0.0636614 -0.0229037 0.185013
0.152706 -0.042871 -0.00657696
0.143886 -0.0513732 -0.166254
-0.173884 0.0641562 0.102157
-0.177638 0.259565 0.0323271
-0.152916 -0.0194515 0.132582
-0.155755 0.130518 -0.151616
-0.105363 -0.0181199 0.159705
0.025414 0.118978 0.178204
-0.0652593 0.151488 -0.173075
0.0207409 -0.229638 0.0321936
-0.177266 0.240201 -0.0743614
-0.175696 0.158463 0.0299593
-0.100513 0.146934 0.194744
-0.144696 -0.0187113 -0.0348647
0.0160542 -0.0184847 -0.162454
-0.157542 0.272882 0.0460023
-0.157095 0.0155509 0.0782536
-0.110298 -0.33524 0.00841274
-0.156851 0.196793 -0.059187
-0.055893 0.141518 -0.200806
-0.121011 0.142611 -0.200806
-0.18754 -0.35211 -0.0978262
-0.174218 0.0762812 -0.00158806
0.110594 -0.342247 0.105335
0.0125262 -0.0194515 0.0986514
-0.174218 0.0688823 -0.00836406
0.0195761 -8.14195e-05 0.159357
-0.188515 0.0573125 0.00651234
-0.0408752 -0.243942 0.00959088
0.105729 -0.351369 0.176422
0.026482 -0.0194515 0.122538
-0.0124759 -0.324054 0.00581672
-0.174051 0.0728389 0.0301023
-0.158938 -0.0575434 0.160035
-0.0144545 0.158528 0.156147
0.0467591 -0.0652018 -0.151937
-0.157356 0.272146 0.043771
-0.169939 0.341412 -0.117334
0.098969 -0.0652018 -0.03171
0.111313 -0.0129745 0.00728397
-0.246135 -0.357036 -0.0333229
-0.0637683 -0.257019 0.0130175
0.108303 -0.0652018 0.0312296
0.20173 -0.351141 -0.0377981
-0.177463 0.25046 0.0752247
0.0550749 -0.0652018 0.00710547
-0.0910987 -0.334549 -0.0553705
-0.152173 0.115584 0.00356014
-0.172663 0.00059639 0.143125
-0.157118 0.256865 -0.0515205
-0.112099 0.151488 -0.19351
0.0604751 -0.329992 -0.0520646
-0.17513 0.129016 0.143283
-0.0274553 -0.0194515 -0.174944
0.237263 -0.354764 0.067545
0.0845107 -0.0194515 -0.0352569
-0.030922 -9.15472e-05 0.108777
-0.176983 0.225437 -0.0601208
0.127423 -0.0652018 0.108046
-0.175697 0.148824 0.156891
0.036918 -0.324013 0.0248363
-0.0525167 0.140852 -0.151243
0.134395 -0.0652018 0.031718
-0.157844 0.31552 0.0392882
0.0549269 -0.00315859 -0.124911
0.0536249 -0.0652018 0.000562489
-0.168924 0.19483 0.117995
0.0474713 0.0275769 -0.16707
0.152509 -0.0325144 0.132048
0.0923811 -0.334876 0.056871
0.152706 -0.0549525 -0.0478957
0.122316 -0.0194515 0.164698
-0.177958 0.276191 -0.078397
0.0342942 -0.332791 -0.0897356
-0.14737 0.130518 -0.19294
-0.176114 0.180214 -0.109866
-0.112568 -0.345124 0.126185
0.137563 -0.0652018 0.0139489
-0.0766875 -0.335374 -0.081595
-0.179349 0.348596 0.0478643
-0.172215 0.075771 -0.144706
0.00750833 -0.145785 -0.00553841
0.073759 -0.0194515 0.0629828
0.0184597 -0.21635 0.0293337
0.216449 -0.353797 -0.0428833
0.00800861 0.134699 0.181879
0.100885 -0.0652018 -0.170375
-0.0894637 -0.336985 -0.0819254
-0.15205 0.158528 0.162984
-0.092602 -0.0194515 0.0137515
0.0506449 -0.0194515 0.118603
-0.0159949 0.137063 0.194744
-0.156844 -0.0652018 0.0546742
-0.164905 -0.349267 -0.100613
-0.164139 0.115755 0.104079
-0.112454 -0.0194515 0.00952833
-0.204288 -0.355818 0.111749
-0.241281 -0.354363 -0.0506021
0.0522252 -0.0194515 -0.00092978
0.075047 -0.0652018 -0.0344688
-0.0136767 -0.25132 -0.0396519
-0.109966 -0.0652018 0.0227623
-0.122993 -0.340708 -0.0729218
-0.00630777 0.000547328 0.156271
-0.114531 -0.353687 -0.212286
0.104656 -0.0115542 -0.0774911
-0.152936 0.106832 0.0276183
0.0860579 -0.351368 -0.18745
-0.150889 0.0520277 -0.00813019
0.0255032 0.0535254 0.144227
-0.188515 0.0247239 0.0103561
0.019602 -0.0237429 0.185013
-0.148513 -0.0194515 0.101029
-0.165663 0.274061 0.0976068
-0.186473 0.0767777 -0.0133078
-0.139837 -0.0174347 0.0436619
-0.0499179 -0.335455 -0.101082
-0.174321 0.086908 0.122061
0.00496902 -0.0958103 -0.00901262
-0.15469 0.13781 0.0426739
-0.159174 0.0919823 0.0816244
0.00926458 0.134699 0.165784
-0.0627965 -0.0194515 -0.0513093
0.0843724 -0.0652018 -0.00268277
0.0859843 -0.0635046 0.185013
-0.188515 0.0169536 0.000362958
-0.136717 0.14039 0.194744
-0.0646772 0.148982 0.144227
-0.1617 -0.00017331 0.0670809
0.0833459 -0.0380493 0.185013
-0.176274 0.188544 0.0316499
-0.0132529 -0.0194515 0.0373014
-0.0375883 -0.271954 0.0169942
-0.21205 -0.352593 0.000194285
0.0358663 -0.00663764 -0.162454
-0.0423559 -0.340382 -0.133919
0.0599134 -0.00374341 0.0362055
-0.0578959 -0.0652018 -0.162224
-0.110892 0.130518 -0.180527
0.160401 -0.356473 0.173691
0.00385472 0.158528 0.181003
0.0652493 -0.0194515 -0.108873
-0.00560083 -0.0181632 -0.119626
-0.178953 0.327978 0.0211495
-0.174218 -0.0303283 -0.0394429
0.110318 -0.353582 -0.189128
-0.160377 -0.0194515 -0.0595084
-0.0108925 -0.286107 0.0378059
0.08496 -0.00758178 0.106644
-0.0317384 0.135901 0.194744
-0.170425 -0.000340681 0.11729
-0.151522 -0.354325 0.192605
-0.0854188 -0.256905 -0.024903
-0.00275027 -0.32838 -0.0700765
-0.0895984 0.134699 0.152806
-0.178142 0.357955 -0.030643
-0.158072 0.351948 0.0331471
-0.101322 -0.00845333 -0.124976
0.0443822 0.0667722 -0.200806
-0.179127 0.337077 0.084832
-0.142898 -0.0240415 0.174281
-0.123084 -0.0194515 0.0678922
-0.0513597 -0.0194515 -0.0697214
0.0357746 -0.0194515 -0.0233345
-0.0552725 -0.0652018 -0.0524856
-0.0461226 -0.339218 -0.125514
-0.0473955 -0.250432 -0.0113855
0.00620551 -0.17969 -0.00769299
0.125349 -0.0165716 -0.0175179
-0.10293 -0.0194515 0.139325
0.0483899 -0.0194515 -0.0163595
-0.00126483 -0.0652018 -0.00748001
-0.00347789 -0.344725 0.165916
0.0349949 -0.21635 0.00851069
-0.0271574 0.152879 0.194744
-0.0121268 -0.182457 -0.00444469
-0.0687719 0.13975 0.144227
0.0579856 -0.00351731 -0.0791025
-0.0668373 -0.328442 0.022237
0.0855818 -0.0194515 -0.159882
-0.188715 -0.353246 0.107529
-0.146375 -0.0652018 -0.0203322
0.0784478 -0.00650764 0.118663
0.212752 -0.355148 0.0799033
-0.0510393 -0.0436459 0.185013
0.0834401 -0.00733108 0.0723018
-0.0433034 -0.0194515 -0.150686
-0.164492 -0.0353299 0.152188
0.0945762 -0.349909 -0.173938
-0.0673352 -0.346307 0.16233
0.232125 -0.353953 -0.0709933
-0.165987 0.110686 0.112369
-0.0129026 0.141595 0.144227
-0.156547 0.243921 -0.0473385
0.000553889 -0.248185 0.0387635
-0.204572 -0.355581 0.108999
-0.0960732 -0.0194515 0.070283
0.0441805 -0.0194515 -0.16613
-0.0029673 -0.0581954 0.185013
-0.177012 0.357976 -0.0310496
-0.0165458 -0.0194515 -0.169176
-0.178838 0.322003 -0.0761399
-0.0229588 -0.0652018 0.131438
-0.000767682 0.000450944 -0.00230815
-0.155405 0.0576025 -0.0687294
-0.0430493 -0.0194515 -0.102488
-0.173809 0.0602538 0.017155
-0.0143389 -0.0194515 -0.18383
-0.0235626 -0.324054 0.027345
-0.153024 0.142769 0.0163968
-0.110051 -0.0301534 -0.187661
0.0672402 -0.0194515 0.0213149
-0.12323 -0.341217 -0.0776688
0.00895783 -0.303885 0.0377107
0.198585 -0.355797 0.145782
-0.178888 0.324593 0.00265799
-0.175386 0.0232908 -0.0133078
-0.00875677 -0.171924 0.00716368
0.0264947 0.0281808 -0.179759
0.00324538 -0.169315 0.00807764
-0.167223 0.243062 0.106794
-0.154555 0.0588131 -0.0619443
-0.0695368 -0.0194515 0.146524
-0.124157 -0.0334149 0.182685
0.00743987 0.000259222 0.146641
-0.160922 0.290417 0.069814
-0.0294848 -0.287885 -0.0299902
-0.15795 -0.0194515 -0.0533737
-0.131636 -0.0152806 -0.0167638
-0.18617 0.0287443 0.0314003
0.0990797 -0.348178 0.158121
-0.178517 0.305303 0.075497
0.0461459 -0.0194515 -0.131546
-0.0731567 -0.356559 -0.223647
0.207512 -0.351819 -0.026562
0.00208094 -0.333327 0.0990811
-0.0396128 -0.0194515 -0.135897
-0.176874 0.219802 -0.112541
-0.177547 0.254827 -0.123233
-0.00579757 -0.334916 0.1084
-0.174169 0.0789882 -0.0589719
-0.146235 -0.341369 0.00885428
0.0978404 -0.0523923 0.184941
-0.16537 -0.0194515 0.104313
-0.107071 -0.0652018 -0.00112005
-0.128944 -0.0420999 -0.185845
-0.157309 0.205602 0.0544118
-0.176908 0.221579 0.0209588
-0.159755 -0.350278 0.117778
-0.157406 0.289612 0.0400568
-0.155787 0.220953 0.0361688
0.0152866 -0.351511 0.205709
-0.109401 -0.0194515 0.083316
-0.0354673 -0.343291 -0.154087
0.0481049 -0.0194515 0.124545
0.140064 -0.0194515 0.0822331
-0.0185672 0.134699 0.154786
-0.148655 -0.0194515 0.0282179
-0.151744 0.0768736 0.0158725
0.0318841 -0.324282 -0.0337469
-0.160355 0.130518 -0.153822
-0.0252016 -0.00488434 -0.1615
-0.0803532 -0.338334 0.100384
0.0309568 -0.000879903 0.0391332
-0.19581 -0.356704 -0.13227
0.0482892 0.109425 0.178983
0.0394218 -0.348824 -0.186919
0.132992 -0.0652018 -0.125974
-0.16582 0.0241609 0.118743
-0.0604555 0.151488 -0.176821
0.00542231 0.000306351 -0.011364
-0.154495 -0.0652018 0.0698784
0.0482892 0.117739 0.174471
-0.174934 0.118797 -0.0976114
-0.0821952 -0.0194515 -0.0630691
0.0082701 -0.0194515 -0.0919587
-0.121759 -0.0194515 0.132182
0.0576275 -0.0445472 0.185013
-0.129898 -0.0652018 0.0459424
0.0985017 -0.0102413 -0.152131
-0.12291 -0.0130587 0.0986208
-0.0707641 -0.00370229 -0.137709
-0.177887 0.272504 -0.0692771
0.0387213 -0.0652018 0.0271056
-0.151043 0.0286036 0.0225674
-0.181824 0.0815803 0.024008
-0.173726 -0.0287663 0.124882
-0.00560083 -0.0106492 0.129724
-0.0965799 0.147359 0.144227
-0.174728 0.108092 -0.0488039
0.0136885 -0.219481 0.0355661
-0.175354 0.260116 -0.143315
-0.176037 0.17621 0.0917069
-0.174218 0.0787141 0.00617492
-0.175204 0.132869 -0.141906
0.00134185 -0.0676622 -0.0121026
0.152706 -0.0605986 0.0552261
0.0950653 -0.351208 0.183
0.111889 -0.0194515 0.104273
-0.153329 0.166484 -0.0175124
-0.166598 0.268804 -0.109038
-0.169786 0.11669 0.12658
-0.0616685 -0.00263554 -0.00899307
-0.0330096 -0.350816 0.20128
0.0482892 0.1187 0.148368
-0.152944 0.140029 -0.0223287
0.0482892 0.156479 0.194496
-0.158542 0.0095553 -0.0938936
0.0482892 0.154757 0.158949
0.0482892 0.138957 0.161797
-0.0278431 -0.0652018 0.110484
-0.0483829 -0.325296 -0.019345
-0.0791284 -0.244146 0.00815143
0.0474713 0.0608229 -0.17941
-0.0239129 -0.0652018 0.150755
0.205076 -0.353744 0.0768946
-0.0895396 -0.0064896 -0.119723
-0.0452813 -0.00109901 0.145101
-0.0184548 0.000263583 -0.069921
-0.174218 -0.0287682 -0.0248237
-0.00560083 -0.0146801 -0.133032
-0.0586602 -0.00228271 0.125733
-0.17061 -0.0652018 0.111177
-0.174172 0.079164 0.0393601
-0.100488 -0.335501 -0.0519441
0.152706 -0.0357705 0.0896007
0.0482489 -0.345859 0.165768
-0.16135 0.331671 -0.0739957
-0.0397972 -0.253713 0.0052945
-0.189182 -0.356244 0.136794
-0.156252 0.327676 0.00368946
-0.0560594 -0.338171 0.115834
-0.0287538 2.3007e-05 0.0854473
-0.149872 -0.34553 -0.0840265
-0.168935 0.0821354 -0.13295
-0.180051 0.141937 0.145817
0.121817 -0.356968 0.205313
-0.178111 0.00923195 0.0314003
-0.145141 -0.341889 0.0363932
-0.164156 0.0138521 -0.119509
-0.09005 0.151488 -0.165058
-0.157379 0.338409 -0.0345545
-0.179072 0.334214 -0.0206795
-0.188515 0.0556464 0.016768
-0.0546083 -0.328625 -0.0464995
-0.0242846 -0.340857 -0.142715
-0.165137 0.315546 0.0908216
-0.15869 0.249511 0.0585798
-0.154861 0.0724134 0.0552739
0.152414 -0.0415898 0.133493
-0.121239 -0.0652018 0.0464481
-0.130328 -0.354194 0.179024
-0.0966686 0.134699 0.182657
-0.170145 0.309022 -0.120863
0.151058 -0.022635 -0.150867
0.0498611 -0.0194515 0.112846
-0.151777 -0.0652018 0.108252
-0.0611534 -0.0194515 0.109604
-0.172678 0.00136471 -0.106365
0.0666758 -0.0652018 0.00591983
0.100646 -0.0106988 0.121523
0.169896 -0.345404 -0.018874
-0.00560083 -0.00861414 0.106492
-0.175004 0.122434 -0.0543082
-0.0242044 0.000129277 -0.0905355
-0.153277 0.161108 -0.019534
0.00584336 0.000296515 -0.0107661
-0.129616 0.143981 -0.151243
-0.188515 0.0686452 0.0152334
0.109446 -0.012576 -0.0247773
-0.0853636 0.151488 -0.157831
-0.174236 0.0824548 -0.06101
-0.174664 0.104738 0.143705
0.0754447 -0.354367 0.233234
-0.231321 -0.353941 0.0732564
0.243286 -0.357048 -0.0477473
0.0392179 -0.0194515 -0.172965
-0.152594 9.67383e-05 0.0484617
0.118057 -0.014656 -0.0395383
-0.071206 -0.0194515 -0.149405
-0.175205 0.132933 0.122914
-0.118556 -0.0121298 -0.151235
-0.173553 0.04694 0.139346
-0.157055 -0.0652018 -0.10119
-0.153024 -0.0207416 -0.17347
-0.154019 0.10967 -0.0480084
0.0637951 -0.0652018 -0.00462164
-0.130978 0.158528 0.171191
0.0439153 0.158528 0.169272
0.0510948 -0.350958 -0.196281
0.162748 -0.345842 0.0572221
-0.0122123 -0.0652018 -0.11951
-0.00560083 -0.00228931 0.0578798
0.140569 -0.340402 -0.00320167
-0.173742 0.0567496 0.0745581
-0.169331 0.192715 -0.126921
-0.00560083 -0.00452701 -0.128778
-0.173017 0.0190279 -0.0614457
0.147685 -0.344437 0.0761247
0.209075 -0.352086 0.00453397
-0.0865319 -0.0652018 0.0766806
-0.157268 0.158528 0.148089
-0.0863106 -0.005957 0.00277566
-0.113001 -0.353101 -0.183692
-0.175858 0.166922 -0.0199593
-0.174218 -0.0333729 0.0849609
-0.188515 0.0095927 0.0276483
0.106587 -0.0194515 0.0273882
0.0371704 -0.00131586 0.062148
0.141862 -0.0194515 0.119785
-0.174218 -0.0243793 -0.100636
-0.144857 -0.0194515 -0.0994741
-0.0317923 -0.036986 0.185013
0.0373192 -0.0013263 0.0875112
-0.0430441 -0.0652018 0.0684417
-0.177808 0.268422 -0.150929
0.0394853 -0.0194515 -0.117653
-0.0994685 -0.00812729 -0.150899
-0.154668 0.145155 0.0405537
0.05617 -0.334979 0.0936389
-0.0946306 -0.00732932 -0.149435
-0.147226 -0.0251246 0.171389
0.0175479 -0.244098 0.0337551
-0.0863263 -0.33953 0.104713
0.0290331 -0.330469 0.0771293
-0.118395 -0.0120955 -0.0375076
0.0409885 -0.00158374 -0.11733
-0.0839381 -0.0496752 0.185013
-0.154813 0.237674 0.0150342
0.202125 -0.352465 -0.0616999
-0.179047 0.0241518 0.0314003
0.0310701 -0.0374715 0.185013
-0.188257 -0.348535 0.0257176
0.206888 -0.357116 0.121125
-0.178715 0.315628 -0.0358569
-0.154543 0.239089 0.00345634
-0.0991271 -0.349048 0.164398
-0.174243 0.334849 0.127497
-0.17839 0.298686 -0.101986
-0.0115718 -0.0194515 0.00554382
-0.163473 0.190673 0.0948836
0.0430295 0.0901814 0.144227
0.0677164 -0.328985 -0.0298297
-0.176509 0.223771 0.142703
-0.162952 0.0601281 -0.110588
-0.0968566 -0.00769648 0.0789069
-0.175452 0.23608 -0.145247
-0.159158 -0.345868 0.0687654
-0.165193 0.166936 0.104377
0.0886934 -0.351017 -0.184429
-0.00566806 -0.0194515 -0.0548149
-0.159857 0.272305 -0.0712629
0.0755586 -0.0432935 0.185013
0.135856 -0.354018 -0.201763
0.00595802 -0.21635 0.0271351
0.0728807 -0.0652018 0.182135
0.205587 -0.355195 0.102858
-0.0293619 -0.0652018 -0.151846
-0.178133 0.285341 -0.0774621
0.00214495 -0.34641 -0.175795
0.0264947 0.0812782 -0.172723
-0.0422195 -0.00088419 0.0418191
-0.179181 0.33985 -0.00725684
-0.0385838 -0.000629105 -0.0081846
-0.00560083 -0.00263738 0.0521391
-0.174024 0.0714455 -0.0930123
-0.159409 0.185648 -0.0800055
-0.178026 0.279724 -0.0059727
-0.174218 -0.00792982 0.00792813
-0.0299832 0.130518 -0.180238
0.0480606 -0.0652018 -0.186515
-0.171229 0.0553992 -0.142651
-0.106399 -0.0652018 0.0620525
-0.0235384 -0.0335979 -0.187661
0.0377454 -0.0013562 -0.0907767
-0.0595629 -0.326654 -0.0106921
-0.115087 -0.0605849 0.184455
-0.122886 -0.337387 -0.00118705
-0.177764 0.266096 0.014638
-0.174218 -0.0331756 -0.0651347
-0.17214 0.358069 0.0324982
-0.0362496 -0.254504 -0.0123238
0.098414 -0.0652018 0.0445435
-0.136081 -0.0194515 0.10072
-0.163789 -0.000213441 -0.117856
0.07667 -0.329505 0.00798907
0.0587261 -0.0194515 -0.121493
0.0649183 -0.350653 -0.189907
0.12257 -0.0158416 -0.129401
0.0855723 -0.349649 0.177008
0.224944 -0.354792 -0.0312321
-0.178935 0.327059 0.0714819
0.028512 -0.241775 -0.0267701
-0.00609278 -0.177167 -0.010822
-0.0704353 -0.0652018 0.0450472
-0.0171246 -0.0652018 0.091784
-0.084448 -0.0628548 -0.187661
0.105228 -0.338188 -0.0722269
-0.178807 0.320383 -0.149705
-0.0279988 4.06427e-05 -0.138853
-0.179278 0.344911 -0.0165017
-0.151857 0.0461322 -0.0357764
-0.173247 0.0309982 -0.106397
0.0392525 0.0408988 0.144227
-0.188681 -0.3511 -0.0771944
-0.177718 0.263694 0.116771
0.0974128 -0.33486 -0.0497874
0.00504341 -0.353707 -0.241262
0.100063 -0.0105743 -0.0220014
0.128438 -0.0195793 -0.180752
0.107475 -0.056463 -0.187388
-0.174218 0.0275704 -0.00243069
0.0333254 -0.33866 0.126234
-0.178248 0.291306 -0.0327082
0.0474713 0.137917 -0.16501
-0.143859 -0.0652018 0.0329337
-0.103011 -0.0088137 -0.0609988
-0.124895 -0.0135097 0.136476
-0.175564 0.151602 -0.0109731
-0.175425 0.144352 0.0624421
-0.173952 0.0677031 0.135261
-0.0917326 0.141869 0.144227
0.152706 -0.0578894 -0.0443255
-0.00515934 -0.0562468 0.185013
0.0274703 -0.347876 -0.184393
-0.178932 -0.351532 0.1039
-0.0980179 -0.00788802 -0.0223325
0.042738 -0.0194515 0.0125004
-0.00560083 -0.0182463 0.00534189
0.0905356 -0.00854182 0.0406832
-0.00327884 -0.236919 0.0392436
-0.0666154 -0.0652018 0.120718
-0.157701 0.237233 0.052733
-0.00245358 -0.287184 -0.0412008
0.0102529 0.130518 -0.178956
-0.174312 0.148664 0.140094
-0.110278 -0.0652018 0.00533774
-0.175718 0.159639 0.112897
0.113546 -0.355904 0.203611
-0.0110788 0.134699 0.190184
-0.148882 -0.344963 0.0797279
-0.0424072 -0.356503 0.233291
-0.17313 -0.0194515 0.0167287
-0.0913209 -0.00678341 -0.0956131
0.0431372 -0.350974 -0.198966
-0.120899 -0.0194515 0.0877505
-0.0157907 0.000325813 0.158676
0.0148685 8.56967e-05 -0.132891
-0.06626 0.158528 0.153205
-0.173817 0.060695 -0.0941995
-0.0847144 -0.00569372 -0.099588
0.152597 -0.0311055 0.130697
-0.0951328 -0.00741215 0.0994634
0.128053 -0.0194515 0.0786877
0.0482892 0.150981 0.163197
0.160448 -0.344668 0.0420255
-0.154513 0.0528925 0.055485
-0.155602 0.278992 -0.0218638
0.0949667 -0.0652018 0.182431
0.0651887 -0.336123 0.0953779
0.039336 -0.0652018 -0.130822
-0.178355 -0.349374 -0.0762217
-0.175343 0.140107 0.067512
-0.0358878 -0.0158597 0.159705
-0.0168795 0.000300381 0.105671
-0.00838507 -0.0652018 0.0599736
0.0322905 0.10606 0.194744
-0.0365369 -0.289153 -0.0210708
0.00183778 -0.0652018 0.160388
-0.0693328 -0.0652018 0.164062
-0.178191 0.288319 0.0393468
0.0717189 -0.00539775 -0.126306
-0.0822599 0.13553 -0.151243
-0.174218 -0.0250465 -0.0182569
0.0301178 0.0320779 0.194744
-0.0894401 -0.00647319 0.0802009
-0.158174 0.0190902 0.0838328
0.060112 -0.0194515 0.1793
-0.155017 0.104405 -0.0587294
0.0512819 -0.0194515 -0.053745
-0.0993076 -0.0652018 0.149094
-0.000713607 -0.350892 -0.202078
-0.166267 -0.354071 0.146653
-0.176602 0.205624 -0.0562241
-0.170637 -0.0208745 0.138643
-0.172916 0.0137816 -0.129533
0.0603616 -0.019292 -0.162454
0.178101 -0.348459 0.0596336
0.00572599 -0.0257951 -0.187661
-0.00923833 -0.0652018 0.0643624
-0.0580791 -0.00221456 -0.0738347
0.0601132 -0.0194515 -0.180451
-0.173965 0.0683831 0.0513992
-0.179676 0.142343 0.162655
0.150705 -0.346597 0.0935202
-0.137461 -0.348945 0.135166
0.0300778 -0.0194515 0.0426144
-0.160586 0.318874 -0.0699751
-0.0687781 -0.0216081 0.185013
0.0288656 -0.300192 0.0245813
-0.00718129 -0.339562 0.135639
-0.111927 -0.0652018 -0.00504144
0.0847351 -0.00754468 0.0239411
0.152706 -0.0264993 -0.0827008
0.111552 -0.0652018 0.129328
-0.173529 0.0456986 0.0139128
0.148398 -0.346991 -0.100625
-0.146297 -0.0191317 0.0149676
