ply
format ascii 1.0
comment Created by Open3D
element vertex 1664
property double x
property double y
property double z
end_header
-0.130165 -0.131377 0.391637
-0.13015 -0.13296 0.379602
0.13177 -0.107483 0.431254
0.150023 -0.106184 0.431229
0.21556 -0.105588 0.400235
0.215608 -0.110579 0.362272
-0.189369 -0.127266 0.431674
-0.180358 -0.12664 0.431662
-0.130175 -0.127276 0.399503
-0.13014 -0.130882 0.371416
-0.130124 -0.132491 0.358885
0.188099 -0.10104 0.431181
0.215534 -0.100511 0.420428
0.215547 -0.101791 0.41046
0.215601 -0.107253 0.367914
-0.162598 -0.122384 0.431639
-0.13015 -0.126703 0.379602
-0.130114 -0.130367 0.350359
0.137904 -0.102009 0.431246
0.158986 -0.10058 0.431218
0.205023 -0.0974583 0.431156
0.213338 -0.0968946 0.431144
0.215573 -0.101933 0.389743
0.215623 -0.106818 0.350757
-0.207662 -0.122342 0.431698
-0.198471 -0.121735 0.431685
-0.132338 -0.117361 0.431598
-0.13019 -0.119729 0.411072
-0.130165 -0.122104 0.391637
0.170769 -0.097317 0.431202
0.179485 -0.0967406 0.43119
0.215587 -0.100733 0.378973
-0.18036 -0.117485 0.43166
-0.153851 -0.115777 0.431624
-0.145183 -0.115218 0.431614
-0.130204 -0.115352 0.422375
-0.13014 -0.121421 0.371416
0.13177 -0.0973669 0.431254
0.150024 -0.0961903 0.43123
0.21556 -0.0956501 0.400235
0.215608 -0.100172 0.362272
-0.189371 -0.115 0.431672
-0.130175 -0.115009 0.399503
-0.13015 -0.117317 0.379602
-0.130124 -0.119721 0.358885
-0.130114 -0.12071 0.350359
0.188097 -0.0913018 0.431178
0.215534 -0.0908231 0.420428
0.215547 -0.0919794 0.41046
0.215601 -0.0969152 0.367914
-0.198471 -0.112489 0.431684
-0.171436 -0.110837 0.431649
-0.13019 -0.110635 0.411072
0.137904 -0.0919339 0.431246
0.158985 -0.090646 0.431216
0.210577 -0.0874934 0.431148
0.215573 -0.091866 0.389743
0.215623 -0.096268 0.350757
-0.212291 -0.110228 0.431705
-0.15821 -0.107014 0.431634
-0.149501 -0.106496 0.431624
-0.140879 -0.105984 0.43161
-0.132338 -0.105477 0.431598
-0.130204 -0.106363 0.422375
-0.130165 -0.109739 0.391637
-0.13014 -0.11196 0.371416
0.170768 -0.0874623 0.431201
0.179484 -0.0869443 0.431189
0.199425 -0.0857591 0.431163
0.215587 -0.0905319 0.378973
0.215608 -0.092366 0.362272
-0.18937 -0.1058 0.431673
-0.180358 -0.105279 0.431662
-0.130175 -0.105808 0.399503
-0.130124 -0.110143 0.358885
-0.130114 -0.111053 0.350359
0.13177 -0.0872508 0.431254
0.150023 -0.0861967 0.431228
0.21556 -0.0857124 0.400235
-0.171434 -0.101727 0.431651
-0.13019 -0.101542 0.411072
-0.13015 -0.104804 0.379602
0.188098 -0.0815628 0.431179
0.215534 -0.0811353 0.420428
0.215547 -0.0821683 0.41046
0.215601 -0.0865776 0.367914
-0.21229 -0.100913 0.431706
-0.198471 -0.100161 0.431684
-0.149503 -0.0974969 0.431622
-0.140878 -0.0970276 0.431611
-0.132338 -0.0965631 0.431598
-0.130204 -0.0973747 0.422375
-0.130165 -0.100465 0.391637
-0.13014 -0.102498 0.371416
0.137905 -0.0818589 0.431247
0.158986 -0.0807119 0.431218
0.215573 -0.0817985 0.389743
0.215623 -0.0857181 0.350757
-0.18937 -0.0965995 0.431673
-0.180358 -0.0961243 0.431661
-0.158212 -0.0949563 0.431633
-0.130175 -0.0966073 0.399503
-0.130124 -0.100565 0.358885
-0.130114 -0.101396 0.350359
0.173686 -0.0774534 0.431198
0.199425 -0.0760961 0.431163
0.207806 -0.0756541 0.431152
0.215587 -0.0803311 0.378973
0.215608 -0.0819585 0.362272
-0.13019 -0.0924488 0.411072
-0.13015 -0.0954182 0.379602
0.13177 -0.0771348 0.431254
0.150023 -0.0762028 0.431229
0.21556 -0.0757747 0.400235
-0.212289 -0.0915979 0.431706
-0.198471 -0.0909158 0.431685
-0.171432 -0.0895802 0.431652
-0.130165 -0.0911914 0.391637
0.185239 -0.071965 0.431184
0.215534 -0.0714475 0.420428
0.215547 -0.0723572 0.41046
0.215601 -0.07624 0.367914
-0.189367 -0.0873993 0.431675
-0.180356 -0.0869693 0.431663
-0.158213 -0.085913 0.431632
-0.149504 -0.0854974 0.431621
-0.140879 -0.0850859 0.43161
-0.132338 -0.0846784 0.431598
-0.130204 -0.0853901 0.422375
-0.130175 -0.0874066 0.399503
-0.13014 -0.089883 0.371416
-0.130124 -0.0909878 0.358885
-0.130114 -0.0917396 0.350359
0.137905 -0.071784 0.431247
0.158986 -0.0707782 0.431218
0.215573 -0.071731 0.389743
0.215623 -0.0751681 0.350757
-0.13015 -0.0860328 0.379602
0.176592 -0.0674841 0.431195
0.193785 -0.0666925 0.431173
0.205023 -0.0661753 0.431157
0.213338 -0.0657926 0.431144
0.215587 -0.0701303 0.378973
0.215608 -0.0715511 0.362272
0.179491 -0.133462 -0.345379
0.189242 -0.133013 -0.345392
0.198928 -0.132567 -0.345405
0.20855 -0.132124 -0.345418
-0.212289 -0.0822829 0.431706
-0.19847 -0.08167 0.431685
-0.171434 -0.0804705 0.43165
-0.13019 -0.0803244 0.411072
-0.130165 -0.0819177 0.391637
0.13177 -0.0670187 0.431254
0.150023 -0.066209 0.431229
0.21556 -0.065837 0.400235
0.134781 -0.130592 -0.345319
0.144836 -0.130146 -0.345333
0.154821 -0.129703 -0.345346
0.164739 -0.129263 -0.34536
0.216575 -0.129098 -0.371445
0.2166 -0.130751 -0.391618
0.216625 -0.132448 -0.412315
-0.158214 -0.0768696 0.431632
-0.149505 -0.0764978 0.43162
-0.140881 -0.0761296 0.431609
-0.132338 -0.0757649 0.431598
-0.130204 -0.0764017 0.422375
-0.13014 -0.0804217 0.371416
-0.130124 -0.0814101 0.358885
-0.130114 -0.0820828 0.350359
0.185239 -0.062207 0.431184
0.215534 -0.0617597 0.420428
0.215601 -0.0659023 0.367914
0.215623 -0.0672557 0.350757
0.17459 -0.123965 -0.345373
0.184375 -0.123547 -0.345385
0.194094 -0.123132 -0.345396
0.213336 -0.122311 -0.345424
-0.18937 -0.075133 0.431673
-0.180358 -0.0747633 0.431662
-0.130175 -0.075139 0.399503
-0.13015 -0.0766474 0.379602
0.137905 -0.061709 0.431247
0.158986 -0.0608444 0.431218
0.215547 -0.0600932 0.41046
0.215573 -0.0616634 0.389743
0.215587 -0.0624797 0.378973
-0.129174 -0.132498 -0.357305
-0.129158 -0.133424 -0.369523
0.134782 -0.120736 -0.345318
0.144836 -0.120324 -0.345333
0.154821 -0.119914 -0.345348
0.164739 -0.119507 -0.345358
0.203747 -0.117907 -0.34541
0.216575 -0.119354 -0.371445
0.2166 -0.120883 -0.391618
0.216625 -0.122452 -0.412315
-0.198472 -0.0724245 0.431684
-0.171434 -0.0713606 0.431651
-0.13019 -0.0712311 0.411072
0.193784 -0.056992 0.431171
0.205023 -0.0565499 0.431156
0.213338 -0.0562228 0.431144
0.215608 -0.0611436 0.362272
-0.129142 -0.128879 -0.381913
-0.129126 -0.129792 -0.394479
-0.12911 -0.130719 -0.407224
-0.129094 -0.131659 -0.420152
0.17459 -0.114242 -0.345371
0.184375 -0.113857 -0.345382
0.194094 -0.113475 -0.345397
-0.212289 -0.0698628 0.431706
-0.149501 -0.0674977 0.431624
-0.140879 -0.067173 0.431611
-0.132338 -0.0668514 0.431598
-0.130204 -0.0674132 0.422375
-0.130165 -0.0695527 0.391637
-0.13014 -0.0709603 0.371416
-0.130124 -0.0718325 0.358885
-0.130114 -0.072426 0.350359
0.13177 -0.0569027 0.431254
0.150024 -0.056215 0.431231
0.167841 -0.055544 0.431206
0.21556 -0.0558994 0.400235
-0.129174 -0.121682 -0.357305
-0.129158 -0.122532 -0.369523
0.134782 -0.11088 -0.345318
0.144836 -0.110501 -0.34533
0.154823 -0.110125 -0.345341
0.16474 -0.109751 -0.345356
0.203747 -0.108282 -0.34541
0.213337 -0.107921 -0.345423
0.216575 -0.109611 -0.371445
0.2166 -0.111015 -0.391618
0.216625 -0.112456 -0.412315
-0.18937 -0.0659331 0.431673
-0.180358 -0.0656086 0.431662
-0.15821 -0.0648113 0.431634
-0.130175 -0.0659383 0.399503
-0.13015 -0.067262 0.379602
0.185238 -0.0524493 0.431182
0.215534 -0.0520719 0.420428
0.215601 -0.0555647 0.367914
0.215623 -0.0567058 0.350757
-0.129158 -0.117086 -0.369523
-0.129142 -0.11791 -0.381913
-0.129126 -0.118746 -0.394479
-0.12911 -0.119594 -0.407224
-0.129094 -0.120454 -0.420152
0.174592 -0.104519 -0.345367
0.184376 -0.104167 -0.34538
0.194095 -0.103817 -0.345393
-0.171434 -0.0622507 0.431651
-0.13019 -0.0621377 0.411072
0.137904 -0.0516341 0.431246
0.158986 -0.0509107 0.431217
0.215547 -0.0502821 0.41046
0.215573 -0.051596 0.389743
0.215587 -0.052279 0.378973
-0.129174 -0.110866 -0.357305
-0.129142 -0.112426 -0.381913
0.134782 -0.101024 -0.345316
0.144837 -0.100679 -0.345328
0.154823 -0.100336 -0.345341
0.164741 -0.0999955 -0.345354
0.203747 -0.0986572 -0.345411
0.213337 -0.098328 -0.345423
0.216575 -0.099868 -0.371444
0.2166 -0.101147 -0.391618
0.216625 -0.10246 -0.412314
-0.212289 -0.0605478 0.431706
-0.198471 -0.0600969 0.431684
-0.130165 -0.0602791 0.391637
-0.13014 -0.0614989 0.371416
-0.130124 -0.0622548 0.358885
0.193783 -0.0472913 0.431171
0.205023 -0.0469244 0.431156
0.213338 -0.046653 0.431144
0.215608 -0.0507362 0.362272
-0.129158 -0.106195 -0.369523
-0.129126 -0.1077 -0.394479
-0.12911 -0.108469 -0.407224
-0.129094 -0.109249 -0.420152
0.174591 -0.0947963 -0.34537
0.184375 -0.0944769 -0.345384
0.194094 -0.0941597 -0.345397
-0.189368 -0.056733 0.431674
-0.180358 -0.0564539 0.431662
-0.158212 -0.055768 0.431633
-0.149503 -0.0554983 0.431622
-0.140878 -0.0552311 0.431611
-0.132338 -0.0549667 0.431598
-0.130204 -0.0554287 0.422375
-0.130175 -0.0567376 0.399503
-0.130114 -0.0595503 0.350359
0.13177 -0.0467867 0.431254
0.150023 -0.0462213 0.43123
0.167841 -0.0456695 0.431206
0.21556 -0.0459617 0.400235
-0.129174 -0.100049 -0.357305
-0.129142 -0.101458 -0.381913
-0.129126 -0.102177 -0.394479
0.134783 -0.0911677 -0.345315
0.144837 -0.0908563 -0.345328
0.154822 -0.0905471 -0.345342
0.16474 -0.0902399 -0.345355
0.203747 -0.089032 -0.34541
0.213337 -0.0887351 -0.345423
0.216575 -0.0901247 -0.371444
0.2166 -0.0912793 -0.391617
0.216625 -0.0924638 -0.412314
-0.13015 -0.0547481 0.379602
0.215534 -0.0423841 0.420428
0.215601 -0.0452271 0.367914
0.215623 -0.0461559 0.350757
-0.129158 -0.0953028 -0.369523
-0.12911 -0.0973438 -0.407224
-0.129094 -0.0980437 -0.420152
0.174591 -0.0850736 -0.34537
0.184375 -0.084787 -0.345384
0.194094 -0.0845023 -0.345397
-0.212289 -0.0512327 0.431706
-0.198471 -0.0508512 0.431685
-0.171435 -0.0501043 0.43165
-0.13019 -0.0500133 0.411072
-0.130165 -0.0510053 0.391637
-0.13014 -0.0520375 0.371416
0.137904 -0.0415592 0.431246
0.158986 -0.0409769 0.431218
0.179485 -0.0404107 0.43119
0.215547 -0.0404709 0.41046
0.215573 -0.0415284 0.389743
0.215587 -0.0420782 0.378973
-0.129174 -0.0892333 -0.357305
-0.129142 -0.0904893 -0.381913
-0.129126 -0.0911307 -0.394479
-0.129094 -0.0924412 -0.420152
0.134783 -0.0813117 -0.345315
0.144836 -0.0810342 -0.345332
0.154821 -0.0807584 -0.345346
0.164739 -0.0804845 -0.345359
0.203748 -0.0794068 -0.345409
0.213337 -0.0791421 -0.345423
0.216575 -0.0803815 -0.371444
0.2166 -0.0814112 -0.391617
0.216625 -0.0824677 -0.412313
-0.184853 -0.0474159 0.431667
-0.158213 -0.0467246 0.431632
-0.149503 -0.0464985 0.431622
-0.140878 -0.0462747 0.431611
-0.132338 -0.0460532 0.431598
-0.130204 -0.0464402 0.422375
-0.130124 -0.0494846 0.358885
-0.130114 -0.0498934 0.350359
0.199427 -0.0374439 0.431166
0.207806 -0.0372266 0.431152
0.215608 -0.0403288 0.362272
-0.129158 -0.0844111 -0.369523
-0.12911 -0.0862188 -0.407224
0.174592 -0.0753507 -0.345367
0.184376 -0.0750968 -0.34538
0.194095 -0.0748446 -0.345393
-0.130175 -0.04447 0.399503
-0.13015 -0.0453628 0.379602
0.13177 -0.0366706 0.431254
0.150023 -0.0362275 0.431229
0.167841 -0.035795 0.431207
0.188099 -0.0353032 0.431181
0.21556 -0.036024 0.400235
0.215601 -0.0374739 0.367914
-0.129174 -0.0784171 -0.357305
-0.129142 -0.0795209 -0.381913
-0.129126 -0.0800846 -0.394479
-0.129094 -0.0812362 -0.420152
0.134783 -0.0714557 -0.345315
0.144837 -0.0712117 -0.345329
0.154823 -0.0709693 -0.345341
0.164741 -0.0707285 -0.345354
0.203748 -0.0697818 -0.345409
0.213337 -0.0695491 -0.345423
0.216575 -0.0706383 -0.371444
0.2166 -0.0715432 -0.391617
0.216625 -0.0724716 -0.412313
-0.212289 -0.0419177 0.431706
-0.198468 -0.0416054 0.431687
-0.175887 -0.0410951 0.431654
-0.13019 -0.04092 0.411072
-0.130165 -0.0417316 0.391637
0.215623 -0.035606 0.350757
-0.129158 -0.0735193 -0.369523
-0.12911 -0.0750938 -0.407224
0.174592 -0.0656281 -0.345367
0.184376 -0.0654069 -0.34538
0.194095 -0.0651873 -0.345393
-0.149501 -0.0374987 0.431624
-0.140878 -0.0373183 0.431611
-0.132338 -0.0371397 0.431598
-0.130204 -0.0374518 0.422375
-0.13014 -0.0394224 0.371416
-0.130124 -0.0399069 0.358885
-0.130114 -0.0402367 0.350359
0.137905 -0.0314842 0.431247
0.158985 -0.0310431 0.431217
0.179485 -0.0306141 0.43119
0.215534 -0.0302744 0.420428
0.215547 -0.0306598 0.41046
0.215573 -0.0314609 0.389743
0.215587 -0.0318774 0.378973
-0.129174 -0.067601 -0.357305
-0.129142 -0.0685526 -0.381913
-0.129126 -0.0690385 -0.394479
-0.129094 -0.0700312 -0.420152
0.134783 -0.0615998 -0.345315
0.144837 -0.0613894 -0.345329
0.154823 -0.0611804 -0.345341
0.16474 -0.0609729 -0.345354
0.203747 -0.0601568 -0.345411
0.213337 -0.0599561 -0.345423
0.216575 -0.0608951 -0.371444
0.2166 -0.0616752 -0.391616
0.216625 -0.0624755 -0.412313
-0.18937 -0.0352665 0.431673
-0.167004 -0.0348359 0.431645
-0.130175 -0.0352693 0.399503
-0.13015 -0.0359774 0.379602
0.215608 -0.0299214 0.362272
-0.129174 -0.0621929 -0.357305
-0.129158 -0.0626276 -0.369523
-0.12911 -0.0639688 -0.407224
0.174591 -0.0559055 -0.34537
0.184375 -0.0557172 -0.345384
0.194094 -0.0555301 -0.345397
-0.203056 -0.0324405 0.43169
-0.180359 -0.0320415 0.431661
-0.13019 -0.0318267 0.411072
-0.130165 -0.032458 0.391637
0.13177 -0.0265546 0.431254
0.150024 -0.0262337 0.43123
0.167842 -0.0259205 0.431207
0.188099 -0.0255644 0.431181
0.199427 -0.0253653 0.431166
0.207806 -0.0252181 0.431152
0.21556 -0.0260864 0.400235
0.215601 -0.0271363 0.367914
-0.129158 -0.0571817 -0.369523
-0.129142 -0.0575842 -0.381913
-0.129126 -0.0579923 -0.394479
-0.129094 -0.0588262 -0.420152
0.134783 -0.0517438 -0.345315
0.144837 -0.0515671 -0.345328
0.154823 -0.0513916 -0.345342
0.16474 -0.0512173 -0.345356
0.203747 -0.0505317 -0.345411
0.213337 -0.0503631 -0.345423
0.216576 -0.0511518 -0.371443
0.2166 -0.0518071 -0.391616
0.216625 -0.0524794 -0.412313
-0.13014 -0.029961 0.371416
-0.130124 -0.0303293 0.358885
-0.130114 -0.0305799 0.350359
0.215623 -0.0250561 0.350757
-0.129174 -0.0513767 -0.357305
-0.129142 -0.0521 -0.381913
-0.129126 -0.0524692 -0.394479
-0.12911 -0.0528438 -0.407224
0.17459 -0.0461829 -0.345371
0.184375 -0.0460273 -0.345385
0.194093 -0.0458727 -0.345398
-0.193908 -0.0261311 0.43168
-0.171433 -0.0258112 0.431651
-0.15821 -0.0256231 0.431635
-0.149501 -0.0254991 0.431624
-0.140878 -0.0253764 0.431611
-0.132338 -0.025255 0.431598
-0.130204 -0.0254672 0.422375
-0.130175 -0.0260686 0.399503
-0.13015 -0.026592 0.379602
0.137905 -0.0214092 0.431247
0.158986 -0.0211093 0.431218
0.179486 -0.0208175 0.431192
0.215534 -0.0205866 0.420428
0.215547 -0.0208487 0.41046
0.215573 -0.0213934 0.389743
0.215587 -0.0216766 0.378973
0.215608 -0.0221158 0.362272
-0.129158 -0.0462899 -0.369523
-0.12911 -0.0472813 -0.407224
-0.129094 -0.0476212 -0.420152
0.134783 -0.0418878 -0.345315
0.144836 -0.0417448 -0.34533
0.154822 -0.0416027 -0.345343
0.16474 -0.0414616 -0.345356
0.203748 -0.0409065 -0.345409
0.213337 -0.0407701 -0.345423
0.216576 -0.0414086 -0.371443
0.2166 -0.0419391 -0.391616
0.216625 -0.0424833 -0.412313
-0.129174 -0.0405606 -0.357305
-0.129142 -0.0411315 -0.381913
-0.129126 -0.0414231 -0.394479
-0.129094 -0.0420187 -0.420152
0.174592 -0.03646 -0.345367
0.184376 -0.0363372 -0.34538
0.194095 -0.0362151 -0.345393
-0.212289 -0.0201826 0.431706
-0.184853 -0.0198841 0.431667
-0.13019 -0.0197022 0.411072
-0.130165 -0.020093 0.391637
-0.13014 -0.0204996 0.371416
-0.130124 -0.0207516 0.358885
-0.130114 -0.0209231 0.350359
0.13177 -0.0164386 0.431254
0.150023 -0.0162399 0.431229
0.167841 -0.0160461 0.431205
0.188098 -0.0158256 0.431179
0.199425 -0.0157024 0.431163
0.207806 -0.0156112 0.431152
0.21556 -0.0161487 0.400235
0.215601 -0.0167986 0.367914
0.215623 -0.0171436 0.350757
-0.129158 -0.0353982 -0.369523
-0.12911 -0.0361563 -0.407224
0.134783 -0.0320319 -0.345315
0.144837 -0.0319225 -0.345329
0.154822 -0.0318138 -0.345342
0.16474 -0.0317059 -0.345356
0.203747 -0.0312815 -0.345411
0.213337 -0.0311772 -0.345423
0.216576 -0.0316654 -0.371443
0.2166 -0.0320711 -0.391616
0.216625 -0.0324872 -0.412312
-0.198472 -0.0169504 0.431684
-0.175886 -0.0167424 0.431655
-0.167006 -0.0166607 0.431644
-0.153847 -0.0165395 0.431627
-0.145181 -0.0164597 0.431616
-0.136599 -0.0163807 0.431604
-0.130204 -0.0164788 0.422375
-0.130175 -0.0168679 0.399503
-0.13015 -0.0172066 0.379602
-0.129174 -0.0297444 -0.357305
-0.129142 -0.0301631 -0.381913
-0.129126 -0.0303769 -0.394479
-0.129094 -0.0308137 -0.420152
0.174591 -0.0267374 -0.345368
0.184376 -0.0266473 -0.34538
0.194094 -0.0265578 -0.345394
0.137905 -0.0113343 0.431247
0.158986 -0.0111755 0.431218
0.179485 -0.0110211 0.43119
0.215534 -0.0108988 0.420428
0.215547 -0.0110375 0.41046
0.215573 -0.0113259 0.389743
0.215587 -0.0114759 0.378973
0.215608 -0.0117084 0.362272
-0.129158 -0.0245064 -0.369523
-0.12911 -0.0250313 -0.407224
0.134783 -0.0221759 -0.345315
0.144837 -0.0221002 -0.345329
0.154823 -0.0220249 -0.345341
0.164741 -0.0219502 -0.345354
0.203748 -0.0216564 -0.345408
0.213337 -0.0215842 -0.345423
0.216576 -0.0219222 -0.371443
0.2166 -0.022203 -0.391615
0.216626 -0.0224912 -0.412312
-0.212289 -0.0108676 0.431706
-0.18937 -0.0107333 0.431673
-0.13019 -0.0106089 0.411072
-0.130165 -0.0108193 0.391637
-0.13014 -0.0110383 0.371416
-0.130124 -0.0111739 0.358885
-0.130114 -0.0112663 0.350359
-0.129174 -0.0189283 -0.357305
-0.129142 -0.0191947 -0.381913
-0.129126 -0.0193308 -0.394479
-0.129094 -0.0196087 -0.420152
0.174591 -0.0170147 -0.34537
0.184375 -0.0169574 -0.345384
0.194094 -0.0169005 -0.345397
-0.149501 -0.00749975 0.431624
-0.140878 -0.00746366 0.431611
-0.132338 -0.00742793 0.431598
-0.130204 -0.00749036 0.422375
0.13177 -0.00632253 0.431254
0.150023 -0.00624613 0.431229
0.167841 -0.00617155 0.431206
0.188099 -0.00608677 0.43118
0.199427 -0.00603935 0.431166
0.207806 -0.0060043 0.431152
0.21556 -0.00621105 0.400235
0.215601 -0.00646102 0.367914
0.215623 -0.0065937 0.350757
-0.129158 -0.0136147 -0.369523
-0.12911 -0.0139063 -0.407224
0.134783 -0.01232 -0.345315
0.144836 -0.0122779 -0.345332
0.154822 -0.0122361 -0.345345
0.164739 -0.0121946 -0.345358
0.203747 -0.0120314 -0.345411
0.213337 -0.0119912 -0.345423
0.216576 -0.012179 -0.371443
0.2166 -0.012335 -0.391615
0.216626 -0.0124951 -0.412312
-0.198471 -0.00462284 0.431684
-0.180358 -0.00457735 0.431661
-0.171434 -0.00455494 0.43165
-0.158211 -0.00452173 0.431634
-0.130175 -0.00460036 0.399503
-0.13015 -0.00469271 0.379602
-0.129174 -0.00811213 -0.357305
-0.129142 -0.00822632 -0.381913
-0.129126 -0.00828463 -0.394479
-0.129094 -0.00840376 -0.420152
0.174591 -0.00729203 -0.345369
0.184375 -0.00726746 -0.345383
0.194094 -0.00724306 -0.345396
-0.212289 -0.00155252 0.431706
-0.189369 -0.00153334 0.431673
-0.13019 -0.00151556 0.411072
-0.130165 -0.00154563 0.391637
-0.13014 -0.00157691 0.371416
-0.130124 -0.00159629 0.358885
-0.130114 -0.00160948 0.350359
0.137904 -0.00125938 0.431246
0.158986 -0.00124173 0.431217
0.179486 -0.00122457 0.431191
0.215534 -0.00121098 0.420428
0.215547 -0.0012264 0.41046
0.215573 -0.00125845 0.389743
0.215587 -0.0012751 0.378973
0.215608 -0.00130094 0.362272
-0.129158 -0.00272295 -0.369523
-0.12911 -0.00278127 -0.407224
0.134783 -0.00246401 -0.345315
0.144837 -0.00245559 -0.345328
0.154822 -0.00244723 -0.345342
0.16474 -0.00243893 -0.345356
0.203747 -0.00240629 -0.34541
0.213337 -0.00239826 -0.345423
0.216576 -0.00243582 -0.371443
0.2166 -0.00246702 -0.391615
0.216626 -0.00249903 -0.412312
-0.129174 0.00270406 -0.357305
-0.129158 0.00272295 -0.369523
-0.129142 0.00274212 -0.381913
-0.129126 0.00276156 -0.394479
-0.12911 0.00278127 -0.407224
-0.129094 0.00280127 -0.420152
-0.19847 0.00462282 0.431685
-0.180357 0.00457732 0.431662
-0.171433 0.00455491 0.431651
-0.158211 0.00452171 0.431634
-0.149502 0.00449984 0.431623
-0.140878 0.00447818 0.431612
-0.132338 0.00445674 0.431598
-0.130204 0.0044942 0.422375
-0.130175 0.00460033 0.399503
-0.13015 0.00469268 0.379602
0.13177 0.0037935 0.431254
0.150023 0.00374767 0.431229
0.167841 0.00370292 0.431206
0.188099 0.00365205 0.43118
0.199426 0.0036236 0.431166
0.207806 0.00360257 0.431152
0.21556 0.00372661 0.400235
0.215601 0.0038766 0.367914
0.215623 0.00395621 0.350757
0.174591 0.007292 -0.345369
0.184376 0.00726742 -0.345381
0.194095 0.007243 -0.345392
-0.212289 0.00776254 0.431706
-0.189367 0.00766661 0.431675
-0.13019 0.00757778 0.411072
-0.130165 0.00772809 0.391637
-0.13014 0.00788448 0.371416
-0.130124 0.00798139 0.358885
-0.130114 0.00804733 0.350359
-0.129174 0.0135202 -0.357305
-0.129158 0.0136147 -0.369523
-0.129142 0.0137105 -0.381913
-0.129126 0.0138077 -0.394479
-0.12911 0.0139063 -0.407224
-0.129094 0.0140063 -0.420152
0.134782 0.01232 -0.345316
0.144836 0.0122779 -0.34533
0.154821 0.0122361 -0.345346
0.164739 0.0121946 -0.345358
0.203747 0.0120314 -0.34541
0.213337 0.0119912 -0.345423
0.216576 0.012179 -0.371443
0.216601 0.012335 -0.391615
0.216626 0.0124951 -0.412311
0.137904 0.00881557 0.431246
0.158984 0.00869208 0.431216
0.179485 0.00857194 0.43119
0.215534 0.00847681 0.420428
0.215547 0.00858473 0.41046
0.215573 0.00880905 0.389743
0.215587 0.00892566 0.378973
0.215608 0.00910648 0.362272
0.174591 0.0170147 -0.345369
0.184376 0.0169573 -0.34538
0.194095 0.0169004 -0.345394
-0.198469 0.0138685 0.431687
-0.180355 0.013732 0.431664
-0.171432 0.0136648 0.431652
-0.15821 0.0135651 0.431635
-0.149501 0.0134995 0.431623
-0.140878 0.0134346 0.431612
-0.132338 0.0133703 0.431598
-0.130204 0.0134826 0.422375
-0.130175 0.013801 0.399503
-0.13015 0.0140781 0.379602
-0.129174 0.0243363 -0.357305
-0.129158 0.0245064 -0.369523
-0.129142 0.0246789 -0.381913
-0.129126 0.0248538 -0.394479
-0.12911 0.0250313 -0.407224
-0.129094 0.0252112 -0.420152
0.134782 0.022176 -0.345317
0.144837 0.0221002 -0.345329
0.154822 0.022025 -0.345342
0.16474 0.0219503 -0.345356
0.203747 0.0216564 -0.34541
0.213337 0.0215842 -0.345423
0.216576 0.0219222 -0.371443
0.216601 0.022203 -0.391614
0.216626 0.0224912 -0.412311
-0.130124 0.0175591 0.358885
-0.130114 0.0177041 0.350359
0.13177 0.0139096 0.431254
0.150022 0.0137416 0.431227
0.16784 0.0135775 0.431205
0.188098 0.0133909 0.431179
0.199426 0.0132866 0.431165
0.207806 0.0132095 0.431152
0.21556 0.0136643 0.400235
0.215601 0.0142142 0.367914
0.215623 0.0145061 0.350757
0.174592 0.0267374 -0.345367
0.184376 0.0266473 -0.34538
0.194095 0.0265578 -0.345393
-0.21229 0.0201826 0.431706
-0.189368 0.0199332 0.431674
-0.13019 0.0197022 0.411072
-0.130165 0.020093 0.391637
-0.13014 0.0204996 0.371416
-0.129174 0.0351525 -0.357305
-0.129158 0.0353982 -0.369523
-0.129142 0.0356473 -0.381913
-0.129126 0.0359 -0.394479
-0.12911 0.0361563 -0.407224
-0.129094 0.0364162 -0.420152
0.134782 0.032032 -0.345318
0.144837 0.0319225 -0.345328
0.154821 0.0318139 -0.345346
0.164739 0.031706 -0.345358
0.203747 0.0312815 -0.345409
0.213337 0.0311772 -0.345423
0.216576 0.0316654 -0.371443
0.216601 0.032071 -0.391614
0.216626 0.0324872 -0.412311
-0.19847 0.0231142 0.431685
-0.180357 0.0228867 0.431662
-0.171433 0.0227747 0.431651
-0.158211 0.0226086 0.431634
-0.130199 0.0225578 0.418636
-0.130175 0.0230018 0.399503
-0.13015 0.0234635 0.379602
0.137904 0.0188906 0.431245
0.158985 0.0186259 0.431216
0.179485 0.0183685 0.431191
0.215534 0.0181646 0.420428
0.215547 0.0183959 0.41046
0.215573 0.0188766 0.389743
0.215587 0.0191265 0.378973
0.215608 0.0195139 0.362272
0.174591 0.0364601 -0.345369
0.184376 0.0363372 -0.345381
0.194095 0.0362152 -0.345392
-0.149501 0.0254991 0.431624
-0.140878 0.0253764 0.431612
-0.132338 0.025255 0.431598
0.215631 0.0225731 0.344881
-0.129174 0.0459686 -0.357305
-0.129158 0.0462899 -0.369523
-0.129142 0.0466157 -0.381913
-0.129126 0.0469461 -0.394479
-0.12911 0.0472813 -0.407224
-0.129094 0.0476212 -0.420152
0.134781 0.041888 -0.345319
0.144836 0.0417448 -0.34533
0.154822 0.0416027 -0.345343
0.16474 0.0414615 -0.345354
0.203747 0.0409066 -0.34541
0.213337 0.0407701 -0.345423
0.216576 0.0414086 -0.371443
0.216601 0.041939 -0.391614
0.216626 0.0424833 -0.41231
-0.21229 0.0294977 0.431705
-0.18937 0.0291332 0.431673
-0.13019 0.0287955 0.411072
-0.130165 0.0293667 0.391637
-0.13014 0.029961 0.371416
-0.130124 0.0303293 0.358885
-0.130114 0.0305799 0.350359
0.13177 0.0240256 0.431254
0.150023 0.0237353 0.431229
0.167841 0.0234519 0.431207
0.188099 0.0231297 0.43118
0.199426 0.0229495 0.431166
0.207806 0.0228163 0.431153
0.21556 0.023602 0.400235
0.215601 0.0245519 0.367914
-0.12911 0.0528438 -0.407224
0.174592 0.0461827 -0.345367
0.184376 0.0460271 -0.34538
0.194095 0.0458725 -0.345393
-0.13015 0.0328489 0.379602
0.215616 0.0275052 0.356554
-0.129174 0.0567848 -0.357305
-0.129158 0.0571817 -0.369523
-0.129142 0.0575841 -0.381913
-0.129126 0.0579923 -0.394479
-0.129094 0.0588262 -0.420152
0.134782 0.0517439 -0.345318
0.144837 0.0515671 -0.345328
0.154823 0.0513915 -0.345341
0.164741 0.0512172 -0.345354
0.203747 0.0505316 -0.345409
0.213336 0.0503631 -0.345424
0.216576 0.0511518 -0.371443
0.216601 0.051807 -0.391614
0.216626 0.0524793 -0.41231
-0.198469 0.0354416 0.431687
-0.180355 0.0350929 0.431664
-0.171432 0.0349211 0.431652
-0.15821 0.0346665 0.431635
-0.149501 0.0344988 0.431624
-0.140878 0.0343328 0.431611
-0.132338 0.0341685 0.431598
-0.130204 0.0344557 0.422375
-0.130175 0.0352693 0.399503
0.137903 0.0289656 0.431245
0.158986 0.0285596 0.431218
0.179486 0.0281649 0.431192
0.215534 0.0278524 0.420428
0.215547 0.028207 0.41046
0.215573 0.0289441 0.389743
0.215587 0.0293272 0.378973
-0.129158 0.0626276 -0.369523
-0.12911 0.0639688 -0.407224
0.17459 0.0559056 -0.345372
0.184375 0.0557172 -0.345385
0.194093 0.0555301 -0.345398
-0.212291 0.0388127 0.431705
-0.189367 0.038333 0.431675
-0.13019 0.0378888 0.411072
-0.130165 0.0386404 0.391637
-0.13014 0.0394224 0.371416
-0.130124 0.0399069 0.358885
-0.130114 0.0402366 0.350359
0.215631 0.0331957 0.344881
-0.129174 0.0676009 -0.357305
-0.129142 0.0685525 -0.381913
-0.129126 0.0690384 -0.394479
-0.129094 0.0700312 -0.420152
0.134782 0.0615999 -0.345318
0.144837 0.0613894 -0.345328
0.154822 0.0611804 -0.345342
0.16474 0.0609729 -0.345356
0.203747 0.0601567 -0.34541
0.213336 0.0599561 -0.345424
0.216576 0.060895 -0.371443
0.216601 0.061675 -0.391614
0.216626 0.0624753 -0.41231
0.13177 0.0341416 0.431254
0.150022 0.0337292 0.431227
0.16784 0.0333265 0.431205
0.188098 0.0328686 0.431179
0.199427 0.0326125 0.431166
0.21556 0.0335396 0.400235
0.215601 0.0348895 0.367914
-0.129158 0.0735193 -0.369523
-0.12911 0.0750938 -0.407224
0.174591 0.0656282 -0.345369
0.184376 0.065407 -0.345381
0.194095 0.0651872 -0.345392
-0.19847 0.0446874 0.431685
-0.180357 0.0442476 0.431662
-0.171433 0.044031 0.431651
-0.158211 0.04371 0.431634
-0.149502 0.0434986 0.431623
-0.140878 0.0432892 0.431611
-0.132338 0.043082 0.431598
-0.130204 0.0434441 0.422375
-0.130175 0.0444701 0.399503
-0.13015 0.0453628 0.379602
0.207806 0.0348249 0.431153
0.215608 0.0377269 0.362272
-0.129174 0.0784172 -0.357305
-0.129142 0.079521 -0.381913
-0.129126 0.0800846 -0.394479
-0.129094 0.0812363 -0.420152
0.134782 0.0714559 -0.345317
0.144837 0.0712117 -0.345328
0.154821 0.0709696 -0.345346
0.164739 0.0707287 -0.345358
0.203748 0.0697818 -0.345409
0.213336 0.0695492 -0.345424
0.216576 0.0706383 -0.371443
0.216601 0.0715431 -0.391614
0.216626 0.0724714 -0.412309
-0.212291 0.0481278 0.431705
-0.18937 0.0475331 0.431673
-0.130165 0.0479141 0.391637
-0.13014 0.0488837 0.371416
-0.130124 0.0494846 0.358885
-0.130114 0.0498934 0.350359
0.137903 0.0390405 0.431245
0.158985 0.0384935 0.431216
0.179485 0.0379615 0.43119
0.215534 0.0375402 0.420428
0.215547 0.0380182 0.41046
0.215573 0.0390116 0.389743
0.215587 0.039528 0.378973
-0.129158 0.0844111 -0.369523
-0.12911 0.0862188 -0.407224
0.174591 0.0753507 -0.345367
0.184376 0.0750968 -0.345379
0.194095 0.0748446 -0.345393
-0.13019 0.0500133 0.411072
0.215601 0.0426427 0.367914
0.215623 0.0435184 0.350757
-0.129174 0.0892333 -0.357305
-0.129142 0.0904894 -0.381913
-0.129126 0.0911308 -0.394479
-0.129094 0.0924412 -0.420152
0.134782 0.0813119 -0.345317
0.144837 0.081034 -0.345328
0.154821 0.0807585 -0.345346
0.164739 0.0804844 -0.345358
0.203748 0.0794068 -0.345407
0.213336 0.0791421 -0.345424
0.216576 0.0803815 -0.371443
0.216601 0.0814111 -0.391614
0.216626 0.0824675 -0.412309
-0.198471 0.0539331 0.431685
-0.180357 0.0534023 0.431662
-0.171433 0.0531408 0.431651
-0.15821 0.0527534 0.431634
-0.130199 0.0526349 0.418636
-0.130175 0.0536707 0.399503
-0.13015 0.0547481 0.379602
0.13177 0.0442577 0.431254
0.150023 0.0437229 0.431229
0.167841 0.0432009 0.431206
0.188099 0.0426073 0.43118
0.21556 0.0434773 0.400235
-0.129158 0.0953028 -0.369523
-0.12911 0.0973438 -0.407224
-0.129094 0.0980437 -0.420152
0.174591 0.0850735 -0.345369
0.184376 0.0847868 -0.345381
0.194095 0.084502 -0.345392
-0.149503 0.0554982 0.431622
-0.140878 0.0552311 0.431611
-0.132338 0.0549667 0.431598
-0.13014 0.0583451 0.371416
-0.130124 0.0590623 0.358885
-0.130114 0.0595503 0.350359
0.199426 0.0446912 0.431166
0.207806 0.0444317 0.431153
0.215608 0.0481344 0.362272
-0.129174 0.100049 -0.357305
-0.129142 0.101458 -0.381913
-0.129126 0.102177 -0.394479
-0.12911 0.102906 -0.407224
0.134782 0.0911679 -0.345318
0.144836 0.0908564 -0.34533
0.154822 0.0905471 -0.345342
0.16474 0.0902399 -0.345354
0.203747 0.089032 -0.34541
0.213336 0.0887351 -0.345424
0.216576 0.0901247 -0.371443
0.216601 0.0912791 -0.391614
0.216626 0.0924635 -0.412309
-0.212291 0.0605479 0.431704
-0.189369 0.0597996 0.431674
-0.13019 0.0591066 0.411072
-0.130165 0.060279 0.391637
0.137904 0.0491154 0.431246
0.158986 0.0484272 0.431218
0.179486 0.0477579 0.431192
0.21554 0.0475267 0.415475
0.215573 0.0490791 0.389743
0.215587 0.0497288 0.378973
-0.129158 0.106195 -0.369523
-0.129126 0.1077 -0.394479
-0.129094 0.109249 -0.420152
0.174592 0.0947961 -0.345367
0.184376 0.0944766 -0.34538
0.194095 0.0941594 -0.345393
-0.19847 0.0631787 0.431685
-0.180357 0.062557 0.431662
-0.130175 0.0628714 0.399503
-0.13015 0.0641336 0.379602
0.215601 0.0529803 0.367914
0.215623 0.0540683 0.350757
-0.129174 0.110866 -0.357305
-0.129142 0.112426 -0.381913
-0.12911 0.114031 -0.407224
0.134782 0.101024 -0.345317
0.144837 0.100679 -0.345328
0.154822 0.100336 -0.345343
0.16474 0.0999956 -0.345355
0.203748 0.098657 -0.345408
0.213336 0.0983281 -0.345424
0.216576 0.0998679 -0.371443
0.216601 0.101147 -0.391614
0.216626 0.10246 -0.412309
-0.171432 0.0652872 0.431652
-0.15821 0.0648113 0.431635
-0.149501 0.0644978 0.431623
-0.140878 0.0641874 0.431611
-0.132338 0.0638802 0.431598
-0.130204 0.0644171 0.422375
-0.13014 0.0678065 0.371416
-0.130124 0.0686399 0.358885
-0.130114 0.069207 0.350359
0.13177 0.0543737 0.431254
0.150024 0.0537166 0.43123
0.167842 0.0530753 0.431207
0.215553 0.0530727 0.40538
-0.129158 0.117086 -0.369523
-0.129142 0.11791 -0.381913
-0.129126 0.118746 -0.394479
-0.121165 0.119053 -0.403411
-0.111442 0.119054 -0.408689
-0.101718 0.119054 -0.413967
-0.0919948 0.119055 -0.419245
-0.0822712 0.119055 -0.424523
0.174591 0.104519 -0.345369
0.184376 0.104167 -0.345382
0.194094 0.103817 -0.345395
-0.212291 0.069863 0.431705
-0.189367 0.0689994 0.431675
-0.13019 0.0681999 0.411072
-0.130165 0.0695527 0.391637
0.188099 0.0547809 0.43118
0.199426 0.0543542 0.431165
0.207806 0.0540386 0.431153
0.215608 0.0585418 0.362272
-0.11441 0.119048 -0.327494
-0.105143 0.119053 -0.332587
-0.0958782 0.119058 -0.337685
-0.0865746 0.119056 -0.342703
-0.0772874 0.119057 -0.347756
-0.0633611 0.11906 -0.355346
-0.0540634 0.11906 -0.360376
-0.0447656 0.119059 -0.365407
-0.0354684 0.119058 -0.370438
-0.0261683 0.119057 -0.375462
-0.0168446 0.119051 -0.380427
-0.00290263 0.11905 -0.38798
0.00638872 0.119051 -0.393023
0.0156801 0.119051 -0.398066
0.0249718 0.119052 -0.40311
0.0342635 0.119052 -0.408153
0.0435553 0.119053 -0.413196
0.052847 0.119053 -0.41824
0.0667847 0.119054 -0.425805
0.0760767 0.119054 -0.430848
0.134782 0.11088 -0.345317
0.144837 0.110501 -0.345328
0.154822 0.110125 -0.345342
0.16474 0.109751 -0.345355
0.203748 0.108282 -0.345407
0.213336 0.107921 -0.345424
0.216576 0.109611 -0.371443
0.216601 0.111015 -0.391614
0.216626 0.112456 -0.412309
-0.13015 0.073519 0.379602
0.137904 0.0591903 0.431246
0.158986 0.058361 0.431217
0.179486 0.0575545 0.431191
0.215566 0.0587627 0.395023
0.21558 0.0595355 0.384393
-0.0860535 0.119055 -0.270238
-0.0771633 0.119057 -0.275079
-0.0637899 0.119052 -0.282261
-0.0549365 0.119061 -0.28718
-0.0460179 0.119057 -0.291961
-0.0371219 0.119057 -0.29679
-0.0237783 0.119058 -0.304036
-0.0148817 0.119058 -0.308865
-0.00598717 0.119059 -0.313698
0.00290418 0.119061 -0.31854
0.0162761 0.119056 -0.325717
0.0251887 0.119052 -0.330504
0.0340723 0.119056 -0.335366
0.0429556 0.119059 -0.34023
0.0562999 0.11906 -0.347476
0.0652059 0.119058 -0.352279
0.0741115 0.119057 -0.357083
0.0830148 0.119055 -0.361893
0.0963714 0.119053 -0.369101
0.105279 0.11905 -0.373895
0.114176 0.119051 -0.378721
0.174591 0.114242 -0.345369
0.184376 0.113857 -0.345381
0.194095 0.113474 -0.345394
-0.19847 0.0755062 0.431686
-0.180356 0.0747631 0.431663
-0.171433 0.0743971 0.431651
-0.15821 0.0738547 0.431634
-0.149501 0.0734975 0.431624
-0.140878 0.0731438 0.431612
-0.132338 0.0727937 0.431599
-0.130204 0.0734055 0.422375
-0.130175 0.075139 0.399503
-0.130135 0.0775819 0.367273
-0.130119 0.0785394 0.35464
-0.130108 0.079191 0.346043
0.215534 0.0593377 0.420428
0.215594 0.062896 0.37348
0.215623 0.0646182 0.350757
-0.0599502 0.119051 -0.217532
-0.0514418 0.119056 -0.222213
-0.0386425 0.119057 -0.229161
-0.0301096 0.119057 -0.233793
-0.0215756 0.119057 -0.238423
-0.00877839 0.119058 -0.245376
-0.000257373 0.119062 -0.250036
0.00829369 0.119058 -0.254627
0.0211242 0.119052 -0.261502
0.0296542 0.119053 -0.266141
0.0381737 0.119057 -0.270807
0.0509611 0.11906 -0.277787
0.0595024 0.119059 -0.282399
0.0680447 0.119057 -0.287008
0.0808577 0.119055 -0.29392
0.0893885 0.119056 -0.298559
0.0979137 0.119058 -0.303216
0.110738 0.119053 -0.310093
0.119294 0.119047 -0.314654
0.127823 0.119049 -0.319298
0.14063 0.119047 -0.326223
0.149149 0.119052 -0.330902
0.157659 0.119059 -0.335612
0.203747 0.117907 -0.345411
0.213337 0.117514 -0.345423
0.216576 0.119354 -0.371443
0.216601 0.120883 -0.391614
0.216626 0.122452 -0.412309
-0.212291 0.0791781 0.431705
-0.18937 0.0781997 0.431673
-0.130165 0.0788265 0.391637
0.13177 0.0644898 0.431254
0.150023 0.0637106 0.431229
0.167841 0.0629499 0.431206
0.215547 0.062546 0.41046
-0.0359448 0.119056 -0.169061
-0.0236475 0.119057 -0.175737
-0.0154492 0.119057 -0.180187
-0.00726879 0.119062 -0.184676
0.00504494 0.119059 -0.191318
0.0132603 0.119056 -0.19573
0.0255794 0.119052 -0.202356
0.033768 0.119054 -0.206829
0.0460903 0.119049 -0.213444
0.0542461 0.11906 -0.217999
0.0665572 0.119057 -0.224642
0.0747644 0.119056 -0.22907
0.0829738 0.119053 -0.233492
0.0952568 0.119058 -0.240208
0.103493 0.119049 -0.244555
0.115798 0.119047 -0.251207
0.123994 0.119048 -0.255665
0.136281 0.119052 -0.262373
0.144474 0.119054 -0.26684
0.15266 0.119058 -0.27133
0.16496 0.119058 -0.278002
0.173164 0.119058 -0.282439
0.185472 0.119055 -0.28908
0.19366 0.119059 -0.293573
0.205975 0.119055 -0.300187
0.214189 0.11905 -0.304579
0.216501 0.119686 -0.31389
0.216525 0.121162 -0.332601
-0.13019 0.0803244 0.411072
-0.13015 0.0829043 0.379602
-0.214949 0.119057 -0.0151143
-0.20707 0.119059 -0.0194094
0.188098 0.0645198 0.431179
0.199426 0.0640171 0.431166
0.207806 0.0636455 0.431152
0.215608 0.0689492 0.362272
-0.0137287 0.119057 -0.124204
-0.0058558 0.119061 -0.128519
0.00599414 0.119058 -0.134909
0.0138994 0.119055 -0.139156
0.0257521 0.119051 -0.145537
0.0336331 0.119054 -0.149837
0.0454481 0.119059 -0.156303
0.0533355 0.11906 -0.16059
0.065182 0.119057 -0.166983
0.0730794 0.119056 -0.171245
0.0849205 0.119054 -0.17765
0.0928004 0.119057 -0.181957
0.104666 0.11905 -0.188295
0.112539 0.119054 -0.192622
0.124396 0.119049 -0.198981
0.136212 0.119054 -0.205456
0.144089 0.119059 -0.209775
0.155947 0.119052 -0.216124
0.163816 0.119059 -0.220473
0.175664 0.119055 -0.226852
0.183557 0.119055 -0.231123
0.195378 0.11906 -0.237593
0.203279 0.119056 -0.241836
0.215135 0.119049 -0.248179
0.21643 0.119995 -0.260402
0.216453 0.121422 -0.27781
0.216476 0.122883 -0.295637
0.216573 0.129098 -0.371453
0.216599 0.130752 -0.39162
0.216626 0.132448 -0.412311
-0.198469 0.0847517 0.431687
-0.180355 0.0839177 0.431664
-0.171432 0.0835069 0.431652
-0.15821 0.0828981 0.431635
-0.130199 0.082712 0.418636
-0.130175 0.0843397 0.399503
-0.130124 0.0877953 0.358885
-0.130114 0.0885206 0.350359
-0.21364 0.119056 0.0369525
-0.206048 0.119058 0.0328143
-0.194614 0.119054 0.0266678
-0.186992 0.119051 0.0225701
-0.175572 0.119049 0.0164069
0.137904 0.0692654 0.431245
0.158984 0.068295 0.431216
0.21556 0.0683215 0.400235
0.215573 0.0692141 0.389743
0.215623 0.0725307 0.350757
0.00687426 0.119057 -0.0826033
0.0144896 0.119055 -0.0867027
0.0259122 0.119051 -0.0928513
0.0335066 0.119053 -0.0969933
0.0448933 0.119058 -0.103219
0.0562964 0.119059 -0.10941
0.0639068 0.119057 -0.113518
0.0753222 0.119055 -0.11968
0.0829272 0.119055 -0.123799
0.0943205 0.119058 -0.130015
0.105755 0.11905 -0.136125
0.113341 0.119055 -0.140293
0.124769 0.119049 -0.146419
0.136156 0.119054 -0.152651
0.14375 0.119057 -0.156803
0.15518 0.11905 -0.162917
0.162759 0.119058 -0.167115
0.17418 0.119053 -0.173251
0.185578 0.119056 -0.17946
0.193175 0.119058 -0.183606
0.204588 0.119056 -0.189766
0.216013 0.119049 -0.195881
0.216364 0.120282 -0.210557
0.216385 0.121664 -0.226793
0.216497 0.129075 -0.313906
0.216521 0.130666 -0.332618
0.216546 0.132298 -0.351797
-0.212291 0.0884931 0.431705
-0.149501 0.0854971 0.431624
-0.140878 0.0850857 0.431612
-0.132338 0.0846783 0.431599
-0.130165 0.0881001 0.391637
-0.13014 0.089883 0.371416
-0.216086 0.119055 0.0873613
-0.205097 0.119058 0.0813732
-0.194069 0.119054 0.0754352
-0.186716 0.119052 0.0714779
-0.175696 0.11905 0.0655299
-0.164706 0.119052 0.0595438
-0.157382 0.119054 0.0555484
-0.146383 0.119055 0.0495728
0.179485 0.0698002 0.43119
0.215534 0.0690255 0.420428
0.215587 0.0726805 0.378973
0.215601 0.0736555 0.367914
0.026061 0.119051 -0.0438625
0.0333889 0.119053 -0.0478585
0.0443774 0.119057 -0.053861
0.0553777 0.119059 -0.0598398
0.0627212 0.119057 -0.0638043
0.0737366 0.119055 -0.0697494
0.0847467 0.119054 -0.0757058
0.0957338 0.119059 -0.0817169
0.10307 0.119059 -0.0856979
0.114087 0.119056 -0.0916358
0.125115 0.11905 -0.0975449
0.136105 0.119054 -0.103552
0.143451 0.119052 -0.107507
0.154462 0.11905 -0.113456
0.165453 0.119054 -0.119465
0.1728 0.119051 -0.123413
0.183793 0.119055 -0.129417
0.194789 0.119059 -0.135416
0.205805 0.119055 -0.14135
0.213154 0.119051 -0.145286
0.216303 0.120551 -0.163996
0.216322 0.121889 -0.179174
0.216405 0.127553 -0.243414
0.216426 0.129052 -0.260418
0.216449 0.130587 -0.277826
-0.189368 0.0904661 0.431674
-0.13019 0.0894177 0.411072
-0.214827 0.119055 0.132424
-0.204211 0.119058 0.12664
-0.197113 0.119056 0.122808
-0.186458 0.119053 0.117071
-0.175812 0.119051 0.111323
-0.165169 0.119049 0.105573
-0.154546 0.11905 0.0997975
-0.147464 0.119051 0.0959473
-0.136853 0.119055 0.0901539
-0.126215 0.119054 0.084398
0.13177 0.0746058 0.431254
0.150022 0.0737046 0.431227
0.16784 0.0728245 0.431205
0.0438965 0.119057 -0.00784981
0.0545214 0.119059 -0.0136309
0.065163 0.119056 -0.0193765
0.0758127 0.119052 -0.0251038
0.0828884 0.119055 -0.0289748
0.093511 0.119058 -0.0347623
0.104141 0.119059 -0.0405335
0.114783 0.119056 -0.0462769
0.125438 0.11905 -0.0519841
0.132522 0.119051 -0.055838
0.143156 0.119051 -0.0615976
0.153785 0.119052 -0.0673716
0.164416 0.119053 -0.0731397
0.175051 0.119052 -0.0788955
0.185669 0.119056 -0.0847027
0.192756 0.119057 -0.0885514
0.203389 0.119057 -0.0943149
0.21404 0.119051 -0.100021
0.216245 0.120803 -0.120402
0.216263 0.122101 -0.134624
0.21634 0.127583 -0.1947
0.216361 0.129032 -0.210572
0.216382 0.130513 -0.226806
-0.198472 0.0939977 0.431684
-0.180358 0.0930727 0.431662
-0.171433 0.0926169 0.431651
-0.130175 0.0935404 0.399503
-0.13015 0.0954182 0.379602
-0.130119 0.0977735 0.35464
-0.130108 0.0985847 0.346043
-0.213651 0.119055 0.174531
-0.206806 0.119057 0.170802
-0.19652 0.119056 0.165229
-0.186218 0.119053 0.159674
-0.175921 0.119051 0.154115
-0.165621 0.119049 0.148559
-0.155361 0.119053 0.142955
-0.145082 0.119053 0.137374
-0.134812 0.119056 0.131781
-0.124526 0.119055 0.126209
-0.114247 0.119057 0.120625
-0.107394 0.119057 0.116905
0.188099 0.0742585 0.43118
0.199427 0.07368 0.431166
0.207806 0.0732524 0.431152
0.215547 0.0748099 0.41046
0.215608 0.0793566 0.362272
0.0605831 0.119057 0.0258429
0.0708806 0.119054 0.020295
0.0777372 0.119054 0.0165794
0.0880166 0.119055 0.0109947
0.0982849 0.119059 0.00538397
0.108592 0.119053 -0.000138879
0.118891 0.119049 -0.00567889
0.129166 0.119051 -0.0112741
0.139464 0.119047 -0.016813
0.149729 0.119052 -0.0224351
0.160014 0.119052 -0.0280091
0.170306 0.11905 -0.0335615
0.180575 0.119054 -0.0391763
0.190857 0.119055 -0.0447599
0.197706 0.119057 -0.0484966
0.208 0.119054 -0.0540438
0.216174 0.119805 -0.0664244
0.216191 0.121039 -0.0795033
0.21628 0.127611 -0.14916
0.216299 0.129012 -0.164008
0.216319 0.130444 -0.179184
-0.212291 0.0978082 0.431705
-0.15821 0.0949561 0.431634
-0.149502 0.0944968 0.431623
-0.140878 0.0940421 0.431612
-0.132338 0.0935918 0.431599
-0.130204 0.0943785 0.422375
-0.13016 0.0977617 0.387658
-0.13014 0.0993444 0.371416
-0.215863 0.119054 0.21577
-0.205922 0.119056 0.210355
-0.195965 0.119056 0.204956
-0.185993 0.119054 0.199573
-0.176023 0.119052 0.194189
-0.166053 0.11905 0.188806
-0.1561 0.119051 0.183403
-0.146137 0.11905 0.178012
-0.136235 0.119059 0.172546
-0.126268 0.119058 0.167158
-0.116308 0.119057 0.161763
-0.106351 0.119058 0.156364
-0.0963856 0.119056 0.150976
-0.0864344 0.119057 0.145568
0.137903 0.0793404 0.431245
0.158986 0.0782286 0.431217
0.21556 0.0782591 0.400235
0.215573 0.0792816 0.389743
0.215623 0.0830806 0.350757
0.0762267 0.119053 0.0574297
0.0828601 0.119055 0.0538208
0.0928045 0.119058 0.0483947
0.10276 0.119059 0.0429904
0.112729 0.119056 0.0376186
0.122712 0.119049 0.0322773
0.132653 0.119053 0.0268404
0.142592 0.119059 0.0213992
0.152551 0.119058 0.0160031
0.16254 0.119049 0.0106846
0.175805 0.119052 0.00345802
0.185749 0.119057 -0.00197744
0.195706 0.119057 -0.00737989
0.205667 0.119056 -0.0127661
0.215642 0.11905 -0.0181135
0.216124 0.120061 -0.0287449
0.21614 0.121261 -0.0410557
0.216224 0.127637 -0.106493
0.216242 0.128994 -0.120412
0.216261 0.130379 -0.134631
-0.18937 0.0996663 0.431673
-0.13019 0.0985111 0.411072
-0.214728 0.119054 0.252721
-0.205092 0.119056 0.247474
-0.195444 0.119057 0.242238
-0.185782 0.119055 0.237017
-0.176118 0.119053 0.231798
-0.166455 0.119051 0.22658
-0.156812 0.119052 0.221339
-0.147169 0.119054 0.216098
-0.134338 0.11906 0.209078
-0.124678 0.119059 0.203856
-0.115019 0.119057 0.198633
-0.105372 0.119058 0.193395
-0.0957113 0.119056 0.188175
-0.0860662 0.119058 0.182934
-0.0764012 0.119055 0.17772
-0.0667366 0.119052 0.172507
0.179486 0.0795965 0.431192
0.215534 0.0787134 0.420428
0.215587 0.0828813 0.378973
0.215601 0.0839932 0.367914
0.0908771 0.119058 0.0870109
0.100524 0.119059 0.0817692
0.110193 0.119054 0.076574
0.119861 0.119049 0.0713803
0.129504 0.119052 0.066129
0.139143 0.119055 0.0608701
0.148795 0.119055 0.0556406
0.158464 0.119049 0.0504525
0.168116 0.119049 0.0452228
0.177754 0.119053 0.0399564
0.190617 0.119055 0.0329666
0.200264 0.119056 0.027724
0.209924 0.119054 0.0225158
0.216077 0.120303 0.0067625
0.216092 0.12147 -0.00484538
0.216171 0.127662 -0.0664339
0.216188 0.128977 -0.0795109
0.216206 0.130319 -0.0928603
-0.19847 0.103243 0.431685
-0.130175 0.102741 0.399503
-0.13015 0.104804 0.379602
-0.130114 0.107834 0.350359
-0.194954 0.119057 0.277295
-0.185583 0.119056 0.272226
-0.176208 0.119054 0.267163
-0.166833 0.119052 0.262099
-0.157473 0.119052 0.257021
-0.144981 0.119051 0.250262
-0.135622 0.119051 0.245182
-0.126301 0.119059 0.240058
-0.116936 0.119058 0.234984
-0.104451 0.119058 0.228216
-0.0950772 0.119057 0.223153
-0.0857199 0.119058 0.21807
-0.0763434 0.119055 0.213011
-0.0669673 0.119053 0.207952
-0.0544699 0.11905 0.201202
-0.0451223 0.119053 0.196105
0.13177 0.0847219 0.431253
0.150022 0.0836985 0.431227
0.16784 0.082699 0.431205
0.104665 0.119059 0.11485
0.114035 0.119057 0.109789
0.123428 0.119049 0.104776
0.132776 0.119053 0.0996678
0.145265 0.119051 0.0929124
0.154637 0.119049 0.0878568
0.164 0.119049 0.0827819
0.173352 0.119052 0.0776818
0.182703 0.119056 0.0725735
0.195185 0.119056 0.0657997
0.204551 0.119056 0.0607315
0.213926 0.119051 0.0556902
0.216033 0.120531 0.0402807
0.216122 0.127685 -0.0287524
0.216138 0.128961 -0.0410614
0.216155 0.130262 -0.0536186
-0.180356 0.105279 0.431663
-0.171433 0.104763 0.431651
-0.158211 0.104 0.431634
-0.149502 0.103497 0.431623
-0.140878 0.102998 0.431612
-0.132338 0.102505 0.431599
-0.130204 0.103367 0.422375
-0.13014 0.108806 0.371416
-0.130124 0.110143 0.358885
-0.173258 0.119054 0.298838
-0.167189 0.119052 0.29556
-0.15508 0.119055 0.288976
-0.145974 0.119052 0.284061
-0.136919 0.119058 0.279094
-0.124801 0.119059 0.272517
-0.115701 0.119058 0.267596
-0.106613 0.119059 0.262663
-0.0944798 0.119057 0.256104
-0.0853938 0.119058 0.251168
-0.076289 0.119055 0.246255
-0.0671846 0.119053 0.241342
-0.0550496 0.11905 0.234787
-0.0459706 0.119053 0.229842
-0.0368902 0.119055 0.224898
-0.0247638 0.119054 0.218332
0.188098 0.0839975 0.431179
0.199427 0.083343 0.431166
0.207806 0.0828592 0.431153
0.215547 0.0846211 0.41046
0.215608 0.0897641 0.362272
0.117686 0.119051 0.141142
0.1298 0.119053 0.134555
0.138896 0.119052 0.129635
0.147982 0.119053 0.124695
0.160115 0.11905 0.118148
0.169206 0.11905 0.113218
0.178285 0.119054 0.10826
0.190403 0.119055 0.101677
0.199494 0.119056 0.0967467
0.208589 0.119055 0.0918271
0.215978 0.11966 0.0821574
0.215991 0.120747 0.0719724
0.216075 0.127707 0.00675678
0.216091 0.128945 -0.00484943
0.216106 0.130208 -0.016683
-0.212291 0.110228 0.431705
-0.189368 0.108866 0.431674
-0.13019 0.107604 0.411072
-0.130165 0.109739 0.391637
-0.152833 0.119059 0.31912
-0.146902 0.119052 0.315967
-0.135113 0.11905 0.30959
-0.126323 0.119058 0.304752
-0.117485 0.119058 0.299964
-0.105709 0.119059 0.293572
-0.0968571 0.119056 0.2888
-0.085086 0.119058 0.282402
-0.0762377 0.119055 0.277627
-0.0673898 0.119053 0.272851
-0.0555931 0.11905 0.266485
-0.0467716 0.119053 0.261678
-0.0350006 0.119055 0.255279
-0.0261612 0.119054 0.250494
-0.0173268 0.119054 0.245702
0.137903 0.0894154 0.431245
0.158985 0.0881626 0.431216
0.21556 0.0881968 0.400235
0.215573 0.0893491 0.389743
0.215623 0.0936305 0.350757
0.129939 0.119053 0.165883
0.138778 0.119051 0.161101
0.147608 0.119053 0.156299
0.159397 0.119051 0.149931
0.168232 0.119051 0.14514
0.179999 0.119055 0.138723
0.188829 0.119057 0.13392
0.197669 0.119056 0.129138
0.209454 0.119054 0.122763
0.215939 0.11989 0.111637
0.215951 0.120951 0.101983
0.216031 0.127727 0.0402767
0.216046 0.128931 0.0293146
0.216061 0.130158 0.0181439
-0.13015 0.114189 0.379602
-0.130108 0.117978 0.346043
-0.130625 0.119057 0.336775
-0.122034 0.119058 0.332113
-0.110582 0.119059 0.325895
-0.101992 0.11906 0.321232
-0.0905229 0.119058 0.315032
-0.0819264 0.119057 0.310376
-0.0704521 0.119054 0.304183
-0.0618469 0.119052 0.299538
-0.0503902 0.119052 0.293325
-0.041812 0.119055 0.288648
-0.0303489 0.119054 0.282443
-0.0217619 0.119055 0.277775
-0.0103015 0.119055 0.271567
-0.00171131 0.119056 0.266904
0.179485 0.0893931 0.431191
0.215534 0.0884011 0.420428
0.215587 0.0930821 0.378973
0.215601 0.0943308 0.367914
0.141515 0.119056 0.189256
0.150109 0.119056 0.184599
0.158718 0.119051 0.179972
0.170174 0.119052 0.173757
0.178759 0.119055 0.169079
0.190213 0.119056 0.162858
0.198809 0.119055 0.158205
0.210271 0.119054 0.152003
0.215902 0.12011 0.139606
0.21599 0.127747 0.0719697
0.216004 0.128918 0.0615996
0.216018 0.13011 0.0510376
-0.198467 0.11557 0.431687
-0.180356 0.114433 0.431663
-0.171433 0.113873 0.431651
-0.158211 0.113043 0.431633
-0.130199 0.112789 0.418636
-0.130175 0.115009 0.399503
-0.13014 0.118267 0.371416
-0.123553 0.119058 0.361035
-0.115191 0.119058 0.356498
-0.106822 0.119057 0.351968
-0.0956627 0.119056 0.345929
-0.0873104 0.119058 0.341381
-0.0761432 0.119056 0.335351
-0.0649753 0.119053 0.329322
-0.0565996 0.119051 0.3248
-0.045464 0.119054 0.318735
-0.0371025 0.119054 0.314197
-0.0259452 0.119053 0.308157
-0.0147962 0.119054 0.302107
-0.00643516 0.119055 0.297569
0.00471413 0.119056 0.291518
0.0130776 0.119056 0.286982
