ply
format ascii 1.0
comment Created by Open3D
element vertex 1611
property double x
property double y
property double z
end_header
0.0141779 -0.0088861 0.0384437
0.0463773 -0.0678843 0.206403
-0.151176 -0.0725094 -0.147145
0.27692 0.0157428 0.0592532
-0.142864 0.00465809 -0.19865
0.215221 -0.0462479 0.215322
-0.00950466 0.0514929 -0.263172
0.246538 -0.0503729 0.145614
-0.189192 0.179072 0.0182109
0.0912383 0.107804 -0.215322
-0.0770024 -0.0463109 0.260511
-0.162839 0.148232 0.20523
-0.149608 0.0519602 -0.10045
-0.0697056 0.0400666 -0.23506
0.242782 -0.0507016 0.000178564
0.162641 -0.0540981 -0.215322
-0.054649 0.0962579 0.220661
-0.17855 -0.0526626 0.174918
-0.224948 0.0774424 0.16457
-0.257638 0.199443 -0.0958384
0.219088 0.0115117 -0.0620237
0.123601 0.15246 0.215322
-0.179857 0.272055 -0.204565
0.224834 -0.0522718 -0.0488149
-0.0821528 -0.306492 -0.238558
-0.22377 -0.0507677 -0.166985
-0.107948 -0.0228136 0.215322
0.0263792 0.0714182 -0.263172
0.0878622 0.0635169 0.263172
-0.260944 0.211783 -0.167441
-0.0181312 0.10623 0.263172
0.262533 -0.226887 0.238471
-0.0103153 0.074104 0.263172
-0.205903 0.25656 0.0638541
0.247009 -0.114912 0.227611
-0.0114593 0.098158 -0.215322
-0.0299271 -0.00904521 0.215322
0.0833076 0.0251509 -0.263172
-0.127252 -0.308328 0.237649
0.230312 0.020569 0.215322
0.0773517 -0.0651746 -0.0685172
-0.139435 -0.00520456 0.189225
0.0891154 0.0297149 0.263172
0.0129942 -0.070805 0.201934
0.222925 0.0238093 0.122868
0.28069 -0.0473851 -0.0904654
0.134181 0.000478321 0.0196736
-0.279442 0.280816 -0.0980276
0.00373836 -0.0716148 0.0469528
-0.0399332 -0.0754354 -0.0644434
-0.245173 0.152924 -0.177355
-0.0327998 -0.0641247 0.215322
0.122403 0.00382452 -0.215322
-0.225729 -0.314118 -0.234322
0.203463 -0.0541416 0.0793993
0.280893 -0.0296859 0.157131
-0.0991121 -0.0200456 -0.0176213
-0.198517 0.30529 -0.150783
0.169616 0.0349741 -0.263172
-0.210084 0.0219691 -0.0481456
0.176413 0.136354 -0.263172
-0.127729 -0.0797421 -0.101007
-0.189847 -0.0380292 -0.02631
-0.207445 0.279368 0.0913194
-0.167016 0.178621 0.178876
0.0854368 -0.0644673 0.0238839
0.0698872 0.0128422 -0.189095
0.210381 0.154439 0.238862
0.229262 -0.0518845 0.109763
-0.00449109 -0.0723347 0.150135
-0.0297191 -0.0745418 -0.12032
-0.178817 0.264488 -0.189547
-0.0232993 -0.0387315 0.215322
-0.25376 -0.231699 0.214091
0.0802877 -0.0649177 -0.0627531
0.136159 0.0255965 -0.159583
0.174873 -0.0566428 -0.033074
0.149356 0.0230268 -0.215322
-0.0212712 -0.308434 0.247335
0.0554099 0.0660137 -0.215322
-0.143128 -0.0758636 -0.0626081
0.251005 -0.132528 -0.231086
-0.243276 0.302455 0.0158959
-0.250241 0.171837 0.136806
0.164896 0.0486892 -0.215322
0.06107 0.0111456 0.130904
-0.00984541 0.0165618 0.263172
-0.115305 -0.0211524 0.0873094
0.0300983 0.152826 0.263172
-0.0505936 -0.0103445 -0.156199
0.126818 0.171646 -0.261887
0.146467 -0.0265788 -0.260488
-0.150606 -0.311752 0.237877
-0.102576 -0.057011 0.215322
-0.071574 -0.0166198 0.0358253
-0.0111354 -0.0328497 -0.262495
-0.250584 0.173116 -0.0718528
-0.127247 -0.039826 0.215322
-0.152956 0.0500194 -0.0445027
-0.203063 -0.00423326 -0.192286
-0.204108 0.144535 -0.215322
0.242155 0.0163044 -0.215322
0.238807 -0.0510492 0.169644
0.189937 0.0252609 -0.138113
0.0607841 0.0558595 -0.215322
-0.0353548 0.13436 -0.215653
-0.0951134 -0.0547587 -0.245294
0.105217 -0.062737 -0.177717
0.0733569 -0.0208239 0.215322
-0.21271 0.00342612 0.138037
-0.114274 -0.0497252 0.215322
-0.257266 0.198053 -0.152326
-0.234086 0.111546 0.0268199
-0.0631811 -0.0160937 -0.0328369
-0.25174 0.177431 -0.130292
0.132408 0.0248742 0.20347
-0.199399 0.267333 -0.112925
-0.175692 0.24175 0.196109
0.0446705 -0.0606131 0.215322
0.25238 -0.0498618 0.157151
-0.0556567 -0.0113189 -0.15722
0.278473 -0.00201491 0.175439
0.0155278 -0.0705834 -0.0368221
-0.0846084 -0.0687919 -0.215322
0.150594 0.0882162 0.215322
0.210971 0.143812 0.263172
0.207323 0.00767351 -0.0342065
0.132912 -0.058627 -0.22727
0.250401 0.0109978 -0.0270196
-0.281764 0.289483 -0.153651
-0.137687 -0.0776408 -0.149886
-0.143188 0.00666675 -0.0550902
-0.0768656 -0.0154004 -0.181096
0.12514 0.0829055 -0.263172
-0.203561 -0.00237459 0.150917
-0.15429 0.0488012 -0.0206565
-0.245615 0.154572 0.0644961
0.158959 0.0197902 -0.128167
0.00141848 -0.00711283 -0.0649849
0.110367 0.0186926 -0.263172
0.220813 0.122032 -0.245646
-0.151215 -0.0648371 -0.215322
-0.0825964 -0.0102493 -0.215322
0.229183 0.0187044 -0.0990786
-0.0543659 0.0259569 0.215322
-0.202807 0.271111 -0.102971
-0.026447 -0.0535238 0.215322
-0.268385 0.23955 0.201667
0.206897 -0.0538411 0.0423945
-0.244028 0.148652 0.156896
0.235737 0.0407357 0.1715
-0.156553 0.0564201 -0.0147861
-0.033892 0.00635547 0.263172
0.121033 0.12316 -0.215322
0.2608 0.0115286 -0.0181527
-0.15818 0.0512484 -0.215322
0.252191 0.0114809 -0.0319255
-0.187603 0.184224 0.215322
-0.241613 0.139639 -0.102933
-0.0639612 0.0615054 -0.232042
0.148284 -0.0268192 0.215322
-0.182606 -0.048153 -0.046783
0.154452 0.0291169 -0.178943
0.273388 -0.048024 0.0656355
0.225306 0.105266 0.218828
0.0547644 0.000409669 0.215322
0.0839878 0.010205 -0.263172
-0.0926854 -0.0800509 0.173478
-0.0799279 -0.0159897 -0.149907
-0.0246588 -0.0100663 -0.0601524
-0.253844 0.299623 -0.132133
0.28143 -0.0358242 -0.0989892
0.11184 0.00519384 0.0816677
-0.154566 -0.0708701 -0.210764
0.256478 -0.0495035 -0.101933
-0.25043 0.172541 -0.0440726
0.224645 -0.0522885 -0.127311
-0.189881 0.18173 -0.0199823
0.148701 0.0843164 0.263172
-0.171033 0.207849 -0.163198
-0.204181 0.312931 0.158967
0.234789 0.0698688 0.259408
-0.145336 0.015678 -0.0225759
0.125173 0.0107237 0.215322
0.250339 -0.0016126 0.215322
-0.0230705 0.00798861 -0.215322
0.116821 0.0210769 0.263172
-0.0930964 -0.0472313 -0.248263
-0.0151534 0.144264 -0.238835
0.25887 -0.302753 -0.244545
0.118562 0.123373 0.215322
-0.215474 0.243951 -0.215322
-0.156657 0.103252 -0.139839
-0.208083 0.311885 -0.151549
-0.0844645 -0.0150189 -0.259166
0.26079 0.0312632 0.215322
0.139824 -0.0167713 0.262895
0.191385 -0.0551982 -0.0327407
0.0170112 0.0290681 0.215322
0.233353 0.0752284 -0.217489
-0.166077 0.171792 0.211326
-0.0383811 -0.019313 0.215322
-0.229696 0.306094 0.196408
-0.279166 0.279787 -0.204284
-0.0930249 -0.0185099 0.17198
0.0581489 0.00209281 0.0901685
0.276606 0.0193284 -0.155532
0.254163 0.0164508 0.0749598
-0.185804 0.0123205 0.215322
0.250305 -0.0500436 -0.167689
-0.189561 0.180897 -0.0232737
-0.0357296 -0.00748394 0.154925
-0.084442 -0.0149325 0.237965
-0.211862 -0.00351493 -0.0230867
0.126182 0.0535937 -0.215322
-0.0674181 -0.0778403 0.193194
0.223336 -0.0524029 -0.0526734
0.154469 0.0161351 0.116177
0.0113521 0.0315669 -0.263172
-0.0305743 0.137845 0.261155
-0.277111 0.272119 -0.183612
-0.191916 0.188103 0.00749971
0.257696 -0.0156158 -0.251164
-0.0027771 -0.00114226 0.193733
0.25851 0.0460931 -0.180042
-0.0421445 -0.0756289 0.165942
-0.0856231 -0.0193399 -0.244878
0.0241043 -0.0626558 -0.240404
-0.113016 -0.0811486 0.0897977
0.119113 -0.061521 0.0212945
-0.0687949 -0.0173096 0.0197314
-0.138864 -0.00604551 0.0114982
0.0347149 -0.0114143 -0.263172
-0.201056 0.233895 -0.0543212
-0.195588 0.217107 -0.0617474
-0.220476 0.0607527 -0.102992
-0.23328 0.108539 -0.016945
0.229867 -0.314375 0.234262
-0.20744 -0.307209 -0.238086
0.0570645 0.100762 -0.215322
-0.171295 0.111996 0.0183283
0.272376 0.0518117 -0.203537
-0.115457 -0.0812096 0.0329726
0.239976 -0.0344041 -0.25144
0.169162 -0.0107975 -0.215322
0.119991 0.00194134 0.0541907
-0.0161769 -0.0358205 -0.215322
0.0942915 -0.00340706 -0.000575698
-0.0884511 -0.0176298 0.132144
-0.262151 0.216284 0.106245
0.124727 -0.0116206 0.263172
0.140917 -0.0515763 0.241806
-0.00437824 -0.0120681 0.00065212
-0.204562 0.257741 0.0755675
0.00641413 0.0543951 -0.215322
-0.162187 0.112849 0.215322
-0.146043 0.0175104 0.0174648
0.0817425 -0.0647905 0.0593541
0.178286 -0.0563444 -0.209707
0.215837 0.0130979 -0.0749927
0.152779 -0.0585758 0.0845028
0.0573519 0.0754861 0.215322
0.183365 -0.049228 0.239562
-0.210049 0.0650259 0.215322
-0.226439 0.0830083 0.152557
-0.215751 0.103059 0.215322
0.178058 0.171239 -0.263172
0.177131 0.0084596 -0.215322
0.141731 0.174519 -0.252145
0.207903 -0.0537532 -0.0866329
-0.26191 0.215386 -0.00492316
-0.204551 -0.000654948 -0.00721289
0.22032 -0.0526668 0.0367907
-0.150005 -0.306711 -0.246501
-0.0212294 0.051272 0.263172
-0.0645668 -0.0775909 0.214441
-0.130623 -0.0152919 0.180349
-0.184226 0.227971 0.129935
-0.219906 0.0586243 0.0581397
-0.103151 -0.0202855 0.128589
0.0180836 0.0772841 0.263172
0.248031 -0.0676618 -0.223282
-0.0351579 0.0707129 0.215322
0.0328663 -0.0237278 0.263039
-0.0256353 -0.0741845 0.0411814
0.237699 0.0590119 -0.219873
-0.279919 0.282595 -0.0489291
-0.277895 0.275041 -0.189582
-0.134791 -0.0114173 0.135502
0.262754 -0.042046 -0.215322
-0.230812 0.0993265 -0.166116
0.180514 0.0134719 0.0941965
0.275108 -0.028893 -0.215322
-0.0928827 -0.0612359 -0.215322
0.200393 -0.05441 -0.0174521
0.165066 -0.0575008 -0.0896508
0.253029 -0.000122003 -0.215322
-0.0210521 -0.0737836 0.167291
0.143637 0.00297221 -0.263172
0.162102 -0.30473 0.241727
-0.222162 0.0670444 -0.00594992
-0.0374565 0.0358084 -0.215322
0.025473 -0.0441726 -0.215322
-0.127808 -0.0169095 -0.0554079
-0.207219 -0.00374505 -0.020611
0.25747 -0.0127428 0.215322
0.0900668 -0.0640622 0.184029
-0.263439 -0.288875 -0.23204
-0.225993 0.0813446 -0.130859
-0.141675 -0.0764106 -0.0596399
0.211254 0.153126 0.257667
-0.152243 0.0711283 -0.208678
0.248576 -0.0547756 0.0245929
-0.192483 0.206526 0.215322
-0.0108968 -0.0728951 0.0534731
-0.140736 -0.00243442 0.209811
0.153684 0.0195355 0.215322
-0.0698588 0.026515 0.215322
-0.0594796 0.0782314 0.247454
0.13368 0.0587905 0.263172
-0.18882 0.296032 0.215322
-0.132999 -0.0130856 -0.101209
-0.210811 0.258125 0.00235693
0.0867462 -0.310637 -0.247341
-0.221497 0.121108 0.215322
-0.157848 -0.308358 -0.24733
-0.0242331 -0.0740618 -0.061608
0.016461 0.00256014 -0.154649
-0.0258906 -0.00559043 0.159358
-0.256068 -0.246162 0.218822
0.262361 0.0112634 -0.000231281
0.0864826 0.124154 0.263172
-0.0924915 -0.0449741 0.22704
0.245367 -0.0113148 -0.215322
0.150195 0.0159194 -0.116817
-0.184614 0.166187 0.0369432
-0.000884197 0.0965072 -0.263172
0.25525 0.0337464 0.215322
0.0951215 0.107241 -0.215322
0.0148532 0.0693407 -0.263172
-0.0746131 0.0217512 0.218657
-0.217147 0.0483292 0.0538361
0.212173 -0.0205473 -0.260571
0.0191937 0.126287 0.215322
0.08806 0.00354932 -0.0837902
-0.242147 0.141629 0.125631
-0.0219208 0.104819 -0.215322
0.075449 0.113391 0.263172
-0.0643622 -0.0775729 0.169158
-0.11 -0.0810733 0.0110212
0.243843 -0.0504047 -0.100473
-0.208703 -0.00422573 0.00274679
-0.267542 0.236403 -0.08824
-0.168306 0.181058 0.141165
-0.0872722 -0.0698245 -0.244165
-0.187486 0.230501 -0.12127
-0.223279 -0.305554 -0.239626
0.101766 -0.0385373 0.215322
-0.00598845 -0.0104072 0.0413113
0.141018 0.00822053 -0.263172
0.216541 0.137974 0.235231
-0.0296716 0.0229539 0.263172
-0.0590555 -0.011973 0.115402
-0.158662 0.117839 -0.173359
0.240417 -0.0325892 -0.252859
0.116752 -0.0617276 0.0651844
-0.152586 0.073629 -0.129287
0.101938 -0.00580437 -0.215322
-0.0340142 -0.0749175 -0.181825
0.193082 0.117139 -0.215322
0.151199 -0.0587142 -0.199733
-0.0108594 -0.0728919 0.208328
-0.191143 0.212385 -0.0823379
0.267451 0.0129041 0.0321089
0.104242 -0.0524977 0.215322
-0.267384 0.235814 -0.105264
-0.165011 0.135975 -0.110095
0.166287 0.0146083 -0.105397
0.0597903 0.0103085 0.125042
-0.257312 0.198226 0.0894985
0.211524 -0.311077 0.23769
-0.0497771 -0.0762969 0.214248
0.238754 -0.0544124 -0.147816
-0.100356 -0.0743244 -0.234646
-0.0119137 -0.0494852 0.256427
-0.198127 -0.0202383 0.0796424
-0.150191 0.056201 0.211924
0.179025 -0.047779 -0.215322
-0.142925 0.00503351 0.113249
0.0449883 -0.068006 -0.0916808
-0.117884 -0.0811392 0.153792
0.123694 -0.0611203 0.0926211
0.110608 0.0345048 0.215322
0.0775882 -0.0651537 0.183803
-0.171636 0.212241 -0.16455
-0.181505 -0.0494988 0.197849
-0.253411 0.183669 0.0521399
-0.208134 0.0146931 -0.0623389
-0.00860892 -0.00226458 -0.163827
-0.150514 0.0540941 0.0723183
-0.173851 0.228353 0.211781
0.00409486 -0.0142207 0.215322
-0.255024 0.189686 -0.134202
0.132979 0.0249841 -0.195404
-0.171843 -0.059076 0.0274973
0.167384 -0.0572982 -0.198463
0.0734878 0.150868 0.263172
0.163057 -0.0398172 0.252492
0.0850047 0.103189 0.263172
-0.242125 0.302764 0.0597903
0.0863608 0.161907 -0.263172
-0.158724 0.0666623 -0.0272958
-0.228953 -0.0844366 -0.169253
-0.0523018 -0.0593555 0.215322
0.200025 0.00909625 0.0557775
-0.0330894 -0.00697584 0.165213
0.253401 0.000411975 0.245683
-0.252243 0.300052 -0.109899
-0.0700643 0.00708419 0.263172
-0.0032126 -0.011922 -0.215322
-0.194343 0.309364 -0.165707
-0.133737 -0.0123982 -0.00416988
-0.208013 0.267507 0.070163
-0.00505388 0.146204 -0.262289
-0.139964 -0.00436055 -0.0530341
0.265637 0.0232402 0.104841
0.0911909 0.019761 -0.263172
-0.164478 0.157576 -0.133529
0.0617447 0.0328293 0.263172
0.2443 -0.050425 0.164517
-0.210038 0.0217977 0.175697
0.0369342 0.0845946 -0.263172
-0.163218 -0.0657467 -0.0508642
-0.207521 -0.314962 0.234069
-0.175442 0.239929 0.198543
-0.141542 -0.0764607 0.106386
0.0313788 -0.0691966 0.098446
-0.0908482 -0.0388411 0.24041
0.178459 0.126494 0.263172
0.114949 0.00800192 0.095554
-0.248055 0.163681 -0.00361348
-0.0639651 0.0614894 -0.257305
-0.150623 0.0593409 -0.195855
-0.000261031 -0.0591993 0.247768
-0.270973 0.249211 0.17941
-0.177507 0.254952 0.183633
-0.151134 0.0630618 -0.102134
-0.0982602 -0.0194973 0.0719168
0.0707197 0.0027134 0.263172
-0.174969 0.177929 0.115199
-0.192665 0.0166341 -0.215322
0.0204713 0.00333195 0.158585
-0.135456 -0.0107975 0.212946
0.107172 0.0225455 0.215322
0.128851 -0.0281446 -0.260481
-0.206255 0.00768156 -0.0607607
-0.214922 0.310053 -0.153529
0.194173 0.0151208 -0.215322
0.164199 -0.0575768 -0.133156
-0.192454 0.223975 -0.0918802
0.108798 -0.0253693 -0.261806
-0.246818 0.159064 0.127381
0.205372 -0.0290298 0.257134
-0.154027 0.0841099 0.145865
0.0151354 -0.0706177 0.194507
0.258863 -0.0199702 -0.255836
-0.231899 0.305504 0.139303
0.196283 -0.0401719 -0.249611
0.0851856 -0.0621173 -0.23006
-0.0864638 -0.022478 0.222685
-0.136235 -0.00991681 0.211237
-0.0666804 -0.0777758 -0.00607367
-0.0195686 -0.0736538 -0.120269
0.0331287 -0.000354828 -0.087994
-0.0253401 -0.30587 0.245671
0.104677 -0.0627841 0.137422
-0.0316831 -0.0747136 -0.130651
0.265166 0.0145623 0.0535856
-0.209417 0.0194796 -0.149453
-0.0894928 -0.0797716 0.0437101
-0.21191 0.00498561 0.0597256
-0.0448646 -0.0758669 0.0523438
0.0451015 0.0136369 -0.263172
-0.18814 -0.0406984 -0.0417738
0.242351 -0.0505432 0.0447212
0.236002 0.0107537 -0.041082
-0.265655 -0.252806 -0.224285
-0.262733 0.218458 -0.20059
-0.216883 0.101328 -0.215322
-0.119777 -0.0808706 -0.0269218
0.0023035 0.100392 -0.215322
0.194959 -0.0548855 0.0266605
0.123793 0.153764 0.263172
0.235658 -0.0513248 0.201805
0.244713 -0.0602602 0.0693182
-0.0601076 0.0758873 -0.221214
-0.160418 0.093776 -0.215322
0.0694994 -0.0159171 -0.263172
-0.243268 0.145815 0.0206271
0.181887 0.0224443 -0.130878
-0.0886021 -0.0182106 -0.0343138
0.0535048 0.157539 0.236034
0.0206403 -0.00590154 0.0613147
-0.238464 0.127886 0.11925
0.0538848 -0.0672277 -0.1182
-0.182995 0.045716 -0.215322
0.125099 0.1242 -0.215322
-0.263732 0.222184 -0.162773
-0.245624 0.154605 0.136939
0.219542 0.126776 0.251572
-0.177781 0.14979 0.0601658
0.0240275 -0.0503205 -0.253818
-0.213642 0.285091 0.0631728
-0.0439114 -0.0358137 -0.215322
0.122761 -0.314635 0.243185
-0.272758 0.255872 -0.0294061
-0.235326 0.116174 -0.207167
0.105616 0.143251 0.263172
-0.279002 0.279175 -0.0101609
-0.141486 -0.0335797 0.215322
-0.193921 0.228892 0.215322
-0.225058 0.0778534 -0.0101518
0.116448 0.0118479 0.215322
0.19342 0.118524 0.215322
0.0708737 0.0579645 -0.215322
-0.210271 0.022667 -0.187789
-0.253626 0.184469 -0.179938
-0.134239 -0.0785979 -0.175772
-0.18161 0.114058 -0.215322
-0.155314 0.093477 0.161059
0.15105 0.176313 -0.232748
0.194268 -0.0549459 0.180698
0.0792969 0.0115842 0.12396
0.181249 0.0686115 0.215322
-0.206941 0.0102406 0.130713
-0.166677 0.0945852 -0.0169094
-0.159061 0.120739 0.191548
-0.271101 -0.287423 0.237729
0.251374 -0.0499499 0.042833
-0.252434 0.180022 0.0744863
0.2267 -0.308526 0.24734
0.0253264 -0.0429897 -0.215322
0.0529592 -0.0673086 -0.0142458
0.205684 0.161269 -0.236182
0.280792 -0.0285242 -0.153284
-0.281797 0.289605 -0.0298011
0.155705 0.153705 -0.263172
-0.261261 0.212963 0.118087
0.253468 0.000160258 0.241398
-0.192823 -0.0328767 -0.0233895
-0.269157 0.242433 -0.161051
-0.147998 -0.0247744 -0.215322
-0.120161 -0.0748053 -0.215322
-0.00666819 -0.00430255 0.263172
-0.00393523 -0.0709111 0.226001
-0.0567907 0.0307655 -0.263172
0.212701 0.106703 -0.215322
-0.248137 0.163983 0.112887
0.202651 0.0121625 0.263172
-0.161986 -0.0665321 0.194863
0.0116183 -0.0424349 0.215322
-0.157733 0.0617341 0.0210915
0.231781 -0.00121615 -0.263172
-0.1662 0.118117 -0.0806562
0.264938 -0.0426437 0.238468
0.138506 0.00243742 0.0429977
-0.14771 0.0381462 -0.0810958
0.0892155 -0.0641368 -0.126631
0.219855 -0.0527073 0.147599
0.124359 -0.0610622 -0.131027
0.149788 -0.0283601 -0.259841
0.121104 -0.061347 0.138181
0.213172 0.0485401 -0.215322
0.207434 0.00688917 0.0197326
-0.126113 -0.0178832 -0.195903
-0.0684073 -0.0779269 -0.11768
0.247143 -0.0893783 -0.218189
0.064062 -0.0129172 0.263172
0.0442112 0.0621789 -0.215322
-0.00054604 0.147137 -0.223481
0.208755 -0.0536785 -0.0316249
-0.218363 0.309131 -0.0928651
-0.220797 0.0619525 -0.202009
-0.204466 0.198388 -0.215322
-0.0977162 -0.0644706 0.250499
-0.218277 0.0525476 0.0127231
0.0574338 -0.00458597 -0.0443627
-0.0741267 -0.0726796 -0.215322
-0.21428 0.0376282 -0.17287
-0.232249 0.235383 0.215322
-0.00686277 -0.0725422 0.0679485
0.117135 -0.0616941 0.0599905
0.0744176 -0.0287832 0.261687
-0.0211812 0.0981724 -0.215322
-0.274722 0.263201 -0.193662
-0.0622732 -0.0171336 0.00299055
0.0413399 -0.0683252 -0.17137
0.016421 -0.0687017 -0.227746
-0.223176 0.0708296 0.0322051
-0.241264 -0.134016 0.187134
-0.0720749 0.0312225 0.260259
0.0157344 -0.0212659 -0.263172
-0.190019 -0.0377591 0.0696148
0.0129755 -0.0708067 -0.0984335
0.139552 0.0468724 -0.263172
0.250947 -0.0499872 0.180896
0.217892 -0.307922 -0.247306
0.185131 0.166653 0.215322
-0.164273 -0.0649702 -0.18377
-0.007249 0.0756538 0.263172
0.0693788 0.121583 0.215322
-0.132159 -0.0138675 -0.038933
0.109817 0.00257178 -0.0659569
0.190277 0.0851679 0.215322
0.036914 0.0706015 -0.215322
0.281513 -0.0367636 -0.0767578
0.071133 0.00331906 0.0906645
0.201796 -0.00449154 -0.263172
0.0130343 -0.0105492 0.0011715
-0.0118188 -0.0729758 -0.0510981
0.132295 -0.0603677 0.00803189
0.0579952 -0.051987 -0.249882
-0.0544007 0.0804919 0.263172
-0.259476 -0.295969 -0.240401
0.0524168 -0.0073328 0.263172
0.163945 0.178406 -0.22504
-0.249764 -0.303466 0.240824
-0.060115 -0.0121769 -0.162404
0.248405 -0.074347 -0.216912
-0.0603985 0.0296475 -0.263172
0.0467139 -0.0070225 -0.0235848
-0.218157 0.290361 0.0333077
-0.107364 -0.0810075 0.205002
-0.095124 -0.0189139 -0.0354883
0.00193282 0.0937194 -0.263172
0.0599217 0.0152373 0.215322
0.260158 -0.0491815 -0.156359
0.143624 0.0107395 0.0967228
0.0111926 0.114601 -0.215322
-0.074838 -0.0150102 0.197503
-0.0135522 0.0989145 -0.215322
-0.18175 0.209466 0.121722
0.248898 -0.0119045 0.215322
-0.169151 0.194158 0.167247
-0.256862 0.196549 0.15867
0.128374 0.0240978 -0.202252
0.0160191 -0.0611945 0.243605
-0.0122393 -0.0173697 -0.215322
0.280622 -0.0265896 0.00247488
-0.164272 0.131829 0.215322
-0.0758726 -0.07858 -0.069434
-0.212095 -0.00337783 -0.0413202
0.199509 0.0251507 0.215322
-0.206297 0.00783748 0.0644281
-0.185891 0.294309 -0.177024
0.13998 0.0107844 -0.0984919
-0.18343 -0.312205 -0.238146
0.0266328 -0.0696118 -0.172454
0.0519632 -0.309972 0.237386
-0.0615648 -0.0278292 -0.215322
0.201741 0.102333 -0.263172
0.116833 -0.0477875 -0.248975
0.00883371 -0.00194967 0.215322
-0.0549458 0.0951501 0.215775
-0.244138 0.234483 0.215322
0.221254 -0.0525849 0.144176
0.0608736 0.00319149 -0.263172
0.0407639 -0.0683755 -0.0365518
-0.0151606 -0.0732681 0.109908
-0.11364 -0.0470392 -0.215322
-0.0300413 -0.00895041 -0.0712899
-0.204935 -0.00149999 0.0705587
-0.229656 -0.0888225 0.179937
0.185978 0.0360054 -0.215322
-0.106191 -0.0809782 0.0232806
-0.135595 -0.0782215 -0.194004
-0.0937675 -0.0497365 -0.218912
0.146733 -0.0591049 0.144815
0.146141 0.0275171 -0.19995
-0.212252 0.03006 -0.0703684
-0.143905 0.0111033 0.0819473
-0.221497 0.226715 0.215322
-0.236632 0.121049 0.0406529
-0.116859 -0.0210341 -0.134156
-0.147443 0.0362057 -0.159581
0.253292 -0.0457308 -0.215322
-0.276743 0.270744 0.00212376
-0.0884832 -0.0796833 0.0816294
0.250193 -0.0213001 -0.215322
0.140552 -0.0596455 0.103432
-0.0573673 0.0861146 0.254556
-0.199901 0.306017 -0.14741
0.213815 0.00722116 -0.0133291
0.04745 0.046378 -0.263172
-0.22978 0.0954773 -0.191118
-0.0492362 -0.0467166 0.215322
-0.2067 0.00933979 0.0495115
0.249719 0.042388 -0.172764
-0.0395259 -0.0753997 -0.156834
-0.24455 -0.188592 -0.209472
0.0860836 0.0158065 0.215322
0.106391 0.00190928 0.0631067
-0.147876 0.0393517 -0.213286
0.17928 0.177588 0.234157
-0.122274 -0.0195342 0.0662211
-0.195091 0.225401 0.0798878
-0.155564 0.0952923 0.211584
-0.222398 0.0679263 0.0452801
0.116031 -0.0501061 -0.215322
-0.0728351 0.028387 -0.219028
0.0276045 0.0970185 0.215322
-0.215564 -0.0381682 -0.154568
0.221636 0.020365 -0.263172
0.242196 -0.0502625 0.221951
0.0433412 0.151139 0.263172
-0.212786 0.0320536 -0.0923959
-0.021891 -0.00956705 -0.0620569
0.154749 0.00220103 0.0177463
0.212369 0.0411632 -0.263172
0.225537 -0.309479 0.249143
-0.185191 0.0743109 0.215322
-0.0577959 -0.0134499 -0.215322
-0.0109419 -0.00271357 -0.136466
-0.279379 0.280583 -0.142513
-0.0124477 -0.0331238 -0.215322
-0.159462 0.0284076 -0.215322
0.199351 0.144139 0.263172
0.123605 -0.00071572 -0.00856708
0.155303 0.166429 -0.263172
-0.039825 0.126449 -0.263172
-0.0366117 -0.0326255 -0.262842
0.160145 -0.0277385 -0.215322
-0.0278315 0.051422 -0.263172
0.278104 0.00220151 -0.0234025
0.00871257 -0.00423981 -0.215322
0.238824 -0.0549945 0.20212
-0.0380145 -0.0752675 0.190219
0.258233 0.0143208 0.0566105
-0.123982 -0.019015 0.0241165
-0.186072 0.286905 0.171643
-0.236045 0.118856 0.141322
0.129622 0.0243386 -0.166393
-0.194864 0.229881 -0.0874789
-0.142495 -0.0761019 -0.202707
-0.17964 -0.0514955 -0.14159
-0.207088 0.033767 -0.215322
0.132148 0.00986525 0.0973851
-0.16115 0.0798723 0.042152
-0.142652 0.00334761 -0.105756
-0.275751 0.267043 -0.149872
-0.0888337 -0.0313226 0.252384
-0.0791528 -0.0539909 0.215322
0.175836 -0.0565587 0.132338
0.0911223 -0.0473758 -0.251481
-0.0554839 -0.0384958 -0.215322
-0.25948 -0.237238 0.22526
0.0160154 -0.00990927 0.0184303
-0.152676 0.0742841 0.132166
-0.217314 -0.01668 0.150772
-0.137672 -0.00780008 -0.027046
0.0575256 -0.0669092 0.125024
0.131479 0.117635 -0.215322
-0.274521 0.262452 -0.156502
-0.0665028 0.0314185 -0.215322
-0.27821 0.293094 0.20242
0.137464 0.0605766 -0.215322
-0.04725 -0.0760756 0.0481073
-0.117875 -0.0811405 -0.0150359
0.242892 -0.0468224 -0.233692
-0.228741 0.0915975 0.08876
0.138211 0.0852062 -0.215322
0.0883515 0.0132349 0.263172
0.0364469 -0.0640434 -0.215322
-0.221077 0.308403 0.176295
0.250383 -0.101493 0.219214
-0.186535 -0.00606656 0.215322
0.27934 -0.0119239 -0.181528
-0.17852 0.164032 -0.080566
-0.0773272 -0.0787073 0.17201
-0.176997 0.241428 0.163212
-0.165875 0.0976621 0.0426027
0.150891 0.011939 0.0994661
0.0642212 -0.00548022 0.0237412
-0.0911177 -0.039847 -0.236591
0.11842 -0.0615817 -0.0370291
-0.172723 0.130518 -0.0596818
0.245615 0.00985014 -0.00518627
-0.200292 -0.0142724 -0.153454
0.00513023 0.000379504 -0.193975
-0.199108 0.272134 -0.119404
-0.166297 -0.0634813 -0.0218612
-0.124589 -0.0801877 -0.145647
0.28081 -0.028736 -0.0182086
-0.19445 0.0275169 -0.215322
0.239179 -0.0299166 0.215322
0.0754235 -0.0653433 -0.0542082
-0.0359501 -0.0750869 0.0565517
-0.210795 0.264363 0.0384837
0.0425145 -0.0435578 -0.215322
-0.175812 -0.00639565 -0.215322
-0.200554 0.271928 0.1132
-0.226945 0.0848961 0.0336525
-0.195347 -0.0279019 -0.155497
-0.273264 0.257761 0.193473
-0.265071 0.296615 0.0233712
-0.0458511 0.0799999 0.263172
-0.0408175 -0.00846249 0.0827228
-0.186651 -0.0429379 -0.0869087
-0.0395178 -0.0690634 0.239002
0.226612 -0.304875 0.240833
-0.0436257 -0.0143106 0.0338603
-0.00540901 -0.072415 -0.150323
0.269042 -0.255848 -0.232843
0.0043125 -0.035057 0.215322
0.249716 -0.137794 0.225608
-0.0554069 -0.0767893 -0.0206816
0.281944 -0.0416878 -0.135915
0.132397 0.165292 -0.215322
-0.0253231 -0.0244527 -0.215322
-0.182023 -0.00409005 -0.215322
-0.094352 -0.0187653 0.132665
0.247964 -0.0577911 -0.0440069
-0.178358 0.220145 0.141979
0.106912 -0.0625883 0.212279
-0.102343 -0.0808821 -0.0374152
0.164021 0.030958 -0.209586
-0.0978486 -0.0194309 -0.198637
-0.227905 0.08848 -0.127174
0.0834052 0.0396586 -0.215322
-0.025369 -0.0173878 0.215322
-0.0697357 -0.0140284 0.17441
-0.237926 0.283266 0.215322
-0.180495 -0.0505805 0.0874556
-0.251666 0.177156 0.0521268
-0.0817637 -0.00493784 -0.263152
0.0503795 0.117912 -0.215322
-0.182996 -0.31207 0.246804
0.100085 -0.0270249 -0.261545
-0.0649235 0.0579141 0.222198
0.241401 0.0451979 -0.255743
-0.0913372 -0.071388 0.215322
0.0806912 0.0260907 0.263172
-0.219765 0.308755 -0.187778
-0.144956 0.018107 -0.038395
0.154061 -0.021611 -0.261747
-0.236073 0.304386 -0.0735001
0.12067 -0.0613848 0.0368887
-0.22392 0.0736061 -0.167805
-0.227232 0.306754 -0.0308729
-0.228943 0.0923544 -0.0913329
-0.143747 0.0100802 0.0350749
-0.251858 0.300155 -0.0373441
-0.13863 -0.00638967 0.13086
-0.269587 0.244036 -0.180661
-0.22317 0.0708079 0.0122242
0.122147 -0.0607383 -0.221863
-0.213516 0.00360815 0.00912758
-0.222693 0.30797 -0.152937
-0.179475 0.142368 -0.0150719
-0.0380164 -0.0752677 -0.100324
-0.262945 0.297185 0.140124
-0.254465 0.299457 -0.0417899
-0.207718 0.286184 -0.099269
-0.0410118 0.0487039 -0.263172
0.00817549 -0.0712266 0.109526
0.0301319 -0.0693057 -0.114276
-0.277893 0.275035 0.192908
-0.107639 -0.0210088 0.205474
0.208231 0.0205958 -0.115226
0.281027 -0.0312127 -0.100841
-0.206855 0.26761 0.0774729
-0.179594 0.109844 0.215322
0.1415 0.145547 -0.263172
0.209512 -0.0536122 0.154948
0.239674 -0.0334376 0.252234
-0.234069 0.111482 -0.190624
0.228325 0.0552961 -0.263172
-0.0724195 -0.0782779 0.196518
-0.0311407 0.015742 -0.215322
-0.156308 0.10071 0.195238
0.2043 0.0200272 -0.114335
0.265944 -0.0463992 -0.225086
-0.171884 0.0806051 -0.215322
-0.246442 0.157661 0.0481221
0.0689285 -0.038463 -0.215322
0.103762 -0.0597147 -0.215322
-0.0673585 0.0488261 0.22451
0.0490944 -0.00671163 -0.215322
-0.0933074 -0.0480188 -0.22916
0.229439 0.0297203 -0.215322
-0.0740113 -0.0148511 0.130984
0.205154 -0.0326926 -0.215322
-0.215282 0.0413691 0.0676876
0.199599 -0.0544795 0.00103689
-0.214057 0.0367964 0.102348
0.0254225 -0.0697177 -0.0664993
-0.0307736 -0.00653016 -0.12507
-0.246251 0.156945 -0.139128
0.140011 0.0169845 -0.124336
-0.205069 0.172354 0.215322
-0.265777 0.229818 0.203727
-0.156509 0.102169 -0.138689
-0.208424 -0.00753625 -0.140617
-0.173141 0.219988 -0.158066
-0.19908 -0.0176117 -0.0791126
-0.0333313 -0.0122572 0.0474971
0.199863 0.0203993 0.117346
-0.153172 0.0778911 -0.213348
-0.112913 -0.0811461 -0.151243
0.172037 0.0149228 -0.104562
-0.13739 -0.00821635 0.161376
0.00622057 0.0568529 0.215322
-0.141998 0.000716841 0.141832
-0.183755 0.179538 -0.0748192
-0.241758 0.140179 0.0662051
-0.0904191 -0.0798527 0.0720436
0.128729 0.0241664 -0.173111
-0.235284 -0.304752 0.243343
-0.197489 -0.021997 0.147033
0.0323034 -0.00777308 -0.0315973
-0.239816 0.13293 -0.155698
0.250377 0.0116956 -0.22841
0.228139 0.00836432 0.00813536
-0.248967 0.167083 -0.21017
0.254519 0.0130269 -0.0484803
0.0764549 -0.0373961 -0.215322
0.0471395 -0.0133543 -0.215322
-0.194165 0.0239737 -0.215322
-0.211435 0.0270122 0.0265367
-0.167778 0.184166 -0.174857
-0.183037 0.295192 0.189688
0.232175 0.0247859 0.263172
-0.230618 0.305847 0.120435
0.169991 0.00520146 -0.0436743
-0.167465 0.0444501 -0.215322
-0.241452 0.302944 -0.0704626
0.244912 -0.085462 0.21842
-0.215173 0.297685 0.0760563
0.0871474 -0.0244452 0.215322
0.0704515 0.127395 0.263172
0.121429 0.0368895 0.263172
-0.177084 -0.0314378 0.215322
0.21515 0.0922839 -0.215322
0.0511034 -0.0519072 -0.215322
-0.231855 0.10322 -0.0975946
-0.119994 -0.0808397 0.0662784
-0.0710635 -0.0781593 -0.0210637
-0.266864 0.233875 -0.0281927
0.0510129 -0.0674789 -0.00489507
-0.048854 -0.00701416 -0.263172
-0.0532994 0.0589691 0.215322
-0.223906 -0.309284 0.247126
0.0127054 -0.00173181 0.0914787
0.183313 0.0198792 -0.215322
-0.222054 0.0666422 -0.040241
0.130251 0.0141182 0.215322
0.13473 -0.00925002 -0.263172
-0.230133 -0.108096 0.175792
-0.263297 0.220564 0.153314
0.265809 -0.0486871 -0.0362474
-0.192519 -0.314554 -0.241583
0.246801 -0.00797342 0.215322
-0.0897136 -0.0797909 -0.019887
0.197383 0.0822508 -0.215322
0.233235 0.00392291 -0.215322
0.210726 0.0124993 0.0740673
0.0277596 -0.015685 0.263172
-0.19311 0.216819 -0.078194
0.0425369 -0.00782874 -0.00804871
0.266634 -0.295793 0.238682
-0.235947 0.118491 -0.0151517
-0.259787 0.298031 -0.0735912
-0.0748227 -0.0784882 0.0539341
0.0753233 -0.065352 0.0360976
-0.23733 0.123653 0.0545136
-0.206859 0.245178 -0.0209864
0.156206 -0.0582761 -0.196684
0.177006 0.153895 -0.215322
0.0531047 -0.0667239 -0.222559
0.0997136 0.017761 0.139072
-0.204539 0.270887 -0.0946406
0.132038 0.00428671 -0.0644926
-0.175216 0.238285 0.175238
-0.041077 0.0933506 -0.263172
-0.01768 0.105947 0.215322
0.276039 0.0258106 0.11537
0.25237 0.00425849 -0.237464
-0.00557667 -0.0545951 0.215322
-0.207599 0.303172 -0.118767
-0.20368 -0.00192884 0.0889416
0.0672532 -0.0660581 -0.0426469
-0.212443 0.0307743 -0.0195265
-0.0412267 -0.0755486 -0.128122
0.037783 0.0100114 -0.263172
-0.166857 0.177469 -0.210616
-0.176145 0.245043 0.183179
-0.00373587 -0.00132666 -0.112663
0.167777 -0.0402253 0.215322
-0.244792 0.1515 0.144201
0.144129 0.110106 -0.263172
0.0481682 0.00866237 -0.191513
-0.138004 -0.0073116 0.0250133
0.187279 0.00496985 0.0158129
-0.258054 0.200995 -0.0047301
-0.245453 0.301872 -0.184892
0.0544205 -0.0671805 0.164237
0.206422 -0.0538826 0.148011
-0.224924 -0.0521806 0.165748
0.134314 0.0252411 0.189106
-0.188915 0.176755 -0.00359606
0.255577 -0.0495821 0.080772
-0.142386 0.00169752 0.117573
-0.237941 0.125933 -0.201831
-0.206353 -0.00323489 0.0838997
0.231283 -0.317492 0.241535
0.214445 -0.0451245 -0.215322
0.163627 0.0519169 0.263172
-0.17416 0.144525 0.0759082
0.274425 0.0442502 -0.175694
0.0868605 0.0912864 0.263172
0.251157 -0.049969 -0.102678
-0.0618765 -0.0125159 -0.0973382
0.277981 0.00361115 0.0920521
-0.162372 0.144835 -0.163075
0.0287775 -0.0504177 0.215322
0.270784 -0.276454 0.234898
-0.100327 -0.0807195 -0.148823
-0.263162 0.220059 0.114245
-0.14625 0.0275245 -0.0899318
-0.084961 -0.0793751 -0.132384
-0.0325497 -0.0580108 -0.215322
-0.183541 0.298858 -0.188466
-0.182129 -0.0487674 -0.069352
0.22206 -0.0525146 -0.081054
0.0236058 -0.0698767 -0.0173307
0.00922015 0.140566 0.263172
-0.172349 0.217423 0.200732
0.192946 0.152307 -0.215322
-0.257742 0.19983 -0.181641
-0.131037 -0.0792728 0.170711
-0.256533 0.195318 0.190144
-0.244654 0.150985 0.170909
0.219227 0.0700575 -0.263172
-0.248946 -0.193703 -0.201867
0.049732 -0.0637931 0.215322
-0.103777 -0.0671456 -0.215322
-0.0121754 0.0834092 -0.215322
0.222452 -0.037595 -0.215322
0.207851 -0.0412784 -0.24744
-0.262031 0.215839 -0.0747187
0.203952 0.0115389 0.0716006
-0.0401122 -0.0754511 0.175944
0.244388 -0.00379539 0.263155
0.262261 -0.0363948 -0.247618
-0.156207 -0.0700125 -0.146694
-0.207028 0.010566 0.13168
0.0828098 0.130529 -0.263172
0.217778 -0.0340676 -0.215322
0.00126242 -0.00207732 -0.263172
0.220448 0.123396 -0.247955
0.0222254 -0.0699974 0.105102
-0.170149 0.184033 0.215322
-0.253479 0.275464 -0.215322
-0.186049 0.161439 -0.215322
-0.224262 0.074884 0.13103
-0.10883 -0.0810441 -0.0270195
-0.184885 -0.0332613 0.215322
0.0925422 0.112887 -0.215322
0.25551 -0.150565 -0.223495
-0.17554 0.141439 0.0603441
-0.00404046 -0.0722953 0.161202
0.0134878 -0.0707618 0.0155343
0.190069 0.0359387 0.215322
0.0697125 -0.00292781 0.215322
-0.0184434 0.143426 0.254799
-0.199213 -0.0172464 -0.183449
-0.160737 0.132935 -0.188996
0.241701 -0.041198 -0.215322
0.281697 -0.0388612 -0.206987
-0.150186 0.0561642 0.0863016
-0.239948 -0.174025 0.198827
0.272752 -0.0480796 0.024285
-0.246862 0.159228 0.0486705
0.145814 -0.024464 0.215322
-0.161461 0.0651728 -0.215322
0.0717277 6.05443e-05 -0.263172
-0.0715943 0.0330174 -0.239839
-0.150456 0.058132 0.207624
0.280974 -0.0306132 -0.135182
0.0673973 -0.0660456 -0.209978
-0.183133 -0.304727 0.241744
-0.185289 -0.0446929 0.167464
0.119482 0.147818 -0.263172
0.101098 0.106028 0.263172
0.193465 0.171827 0.241988
-0.172163 0.181094 0.128345
-0.233804 0.304993 0.213627
-0.145147 0.0195005 -0.190852
0.0777515 0.0226123 0.263172
-0.0915515 -0.0182264 -0.100115
-0.174343 -0.0519344 0.215322
-0.155373 0.0939076 -0.163871
0.176518 -0.0113628 -0.263028
0.0610883 -0.0665974 0.075617
-0.177798 -0.0155803 -0.215322
-0.186342 -0.043336 -0.132503
-0.184674 0.307097 0.202627
-0.26544 0.228559 0.0989289
0.113238 0.00382365 -0.0731256
-0.0296294 0.0936007 -0.215322
-0.162589 0.141178 0.124652
-0.10991 -0.0810711 0.0265538
-0.160444 0.130804 -0.207054
0.141161 -0.0595924 0.18177
-0.228693 0.0914212 0.060744
0.127963 -0.0607468 -0.108487
-0.188222 0.174733 -0.215322
-0.170016 0.109571 0.0304144
0.0436498 0.00779278 0.155399
0.0245409 0.000590448 -0.0968003
-0.216091 0.136555 0.215322
-0.0869983 -0.0173502 -0.152782
-0.0427035 -0.00882605 -0.107326
-0.196943 0.208948 0.0256852
-0.142373 -0.0212366 -0.215322
-0.208084 -0.0168659 -0.154497
0.0177642 0.150661 0.249337
0.100698 -0.0631321 -0.0242762
-0.183061 0.16866 0.0582945
0.00641096 0.07941 -0.215322
-0.223409 0.307779 -0.0566363
-0.174808 -0.0197068 0.215322
-0.110972 -0.0214824 0.191201
0.172426 0.0325758 0.181221
-0.269026 0.241943 0.191086
-0.254899 0.29934 -0.0843248
0.174294 0.0685342 0.215322
-0.00717853 -0.00426859 0.0871371
0.093893 0.0182354 -0.263172
-0.236164 -0.136241 0.184368
0.0336565 -0.0689974 -0.0352084
0.133235 0.0756744 0.263172
0.281438 -0.0359072 -0.0355681
-0.153034 0.0768874 -0.159984
-0.197729 0.150923 0.215322
0.272482 0.0246795 -0.108336
0.0771895 -0.0646133 0.222607
0.0232223 0.0038614 0.213174
-0.120919 -0.0807085 0.202048
-0.0651403 -0.0711483 0.239264
0.079271 -0.0650067 0.023266
-0.254184 0.299532 0.0561155
0.192157 -0.0488562 0.215322
-0.216718 0.0467297 -0.199562
0.062054 -0.305689 0.245445
-0.266421 0.23222 -0.039053
0.0618769 -0.0409121 -0.215322
-0.152924 0.0760845 -0.201551
-0.272408 0.254565 0.0849809
0.0607292 0.067717 -0.215322
0.0808769 0.0206368 0.263172
0.278146 0.00172241 -0.12027
0.229718 -0.0276855 -0.25675
0.276547 0.0199993 0.0893562
-0.228606 0.0910942 -0.00252549
0.198037 -0.305514 -0.239687
-0.248616 0.245088 0.215322
0.161657 0.00633275 -0.0606615
0.0589045 0.0973795 -0.215322
-0.0153432 -0.0626558 -0.245323
-0.248228 0.241374 0.215322
-0.183728 0.222466 0.126775
0.220606 0.0409051 -0.17545
-0.0405695 -0.0306885 0.215322
0.247373 0.0319475 -0.143568
0.0834638 5.22441e-05 -0.0639482
-0.0426094 -0.0756695 0.109288
-0.176459 0.152407 -0.0749623
-0.259162 0.205129 -0.126528
0.199088 0.00699213 0.263172
0.00715338 0.0600609 -0.215322
0.125153 0.0606322 0.215322
0.272271 -0.263703 -0.243352
0.153041 0.0145508 0.110138
0.0271249 -0.0695688 -0.0895403
-0.162722 0.0814866 -0.0266248
-0.160401 0.130489 -0.174751
-0.0465422 0.0805849 0.263172
0.061402 0.122414 0.215322
0.184182 0.00452549 -0.263172
-0.1965 -0.024724 -0.034338
-0.17321 0.13585 0.0668677
-0.0727773 -0.0523413 -0.215322
0.0884309 -0.0642053 -0.0120469
0.233113 0.0761253 0.229268
0.0352685 0.0691996 0.215322
-0.0742812 -0.0149031 -0.0887054
0.0937044 -0.0637441 -0.133694
-0.254155 0.186444 0.0145726
0.0395044 -0.0540475 -0.215322
-0.152731 0.0746808 -0.19689
0.0364031 0.154248 -0.250656
-0.146993 -0.0744091 0.117239
0.274389 -0.294467 -0.245435
0.244917 0.0320741 -0.259771
-0.0118041 -0.00283368 0.263172
0.210969 0.0656823 0.215322
-0.14921 0.0490629 0.102621
0.242207 0.0103992 -0.0289181
0.167238 -0.0573107 0.0124746
0.145666 -0.0116105 -0.215322
-0.274975 0.264147 -0.0335591
0.205038 0.0980815 -0.215322
0.137268 0.020741 0.263172
-0.232213 0.30542 -0.079481
0.227088 -0.0520747 -0.0661804
0.239266 -0.0528862 0.0188129
-0.164699 0.161763 -0.207914
-0.0446098 0.0596512 0.215322
-0.0590832 -0.0119783 -0.147222
0.167124 0.00682184 -0.0608275
0.117131 0.0219342 -0.203489
-0.157741 0.111139 -0.160408
0.223905 -0.0387312 -0.248677
-0.235915 0.118373 0.116725
-0.211444 0.00417057 0.137607
-0.274308 0.261658 0.203993
0.00573786 0.000496441 -0.185642
-0.203706 0.287618 -0.215322
-0.0597763 -0.0771717 0.157059
-0.20875 0.0169906 0.123136
-0.165694 0.169003 -0.144581
-0.116812 -0.0210377 0.142034
-0.0556339 -0.0113146 -0.071599
-0.146981 0.0328375 -0.156045
0.0354008 -0.311707 -0.24694
-0.15913 0.121246 -0.17601
0.193012 0.164352 0.215322
-0.177832 0.233623 -0.15429
0.0375487 0.00661859 0.152183
-0.0126598 0.0555895 -0.263172
-0.170131 0.201289 -0.195469
-0.190503 -0.0370029 -0.0874299
-0.0985952 -0.0195513 0.114949
-0.247329 -0.185305 -0.209778
-0.198335 -0.0196646 -0.0137878
0.0465067 -0.0678731 0.00623555
0.0720358 0.118784 -0.215322
-0.163395 0.152276 -0.150552
-0.149385 0.0503378 -0.184266
-0.00601614 -0.0532808 -0.215322
0.0720591 0.022671 -0.263172
-0.0192869 -0.0117939 0.0388398
0.16641 0.0851533 0.215322
-0.167013 0.09995 -0.0363246
-0.0205028 0.135083 0.215322
-0.220604 0.0612317 -0.0193841
-0.148797 -0.0736597 0.0583225
-0.098836 -0.0686499 -0.224017
0.0927145 0.0516584 -0.263172
0.18464 0.0952161 0.215322
-0.0790885 -0.0788614 -0.14019
0.132515 -0.0603485 -0.0325875
-0.00668785 0.145956 0.22653
0.192294 0.112653 -0.215322
-0.03367 -0.0748874 -0.135935
-0.0563493 -0.0114522 -0.0892759
-0.169232 0.161075 0.119969
-0.0194037 0.0915513 -0.215322
0.180011 -0.0561935 -0.153724
-0.0926136 -0.0799147 0.21867
0.139939 -0.03673 0.215322
-0.220618 0.0612828 -0.0416148
0.272517 -0.0481002 -0.0305054
0.279653 -0.0155122 0.0123898
-0.237904 -0.155336 -0.199379
-0.173353 0.224727 -0.162018
-0.146896 0.0303365 0.0521281
-0.150299 -0.0729335 0.151817
0.193771 0.0963978 0.215322
-0.168484 -0.0618715 -0.164095
0.113519 -0.314127 -0.240343
0.16839 0.0396549 -0.263172
0.0842535 -0.033911 0.25993
-0.092002 -0.0799911 0.041442
0.118725 0.000919585 -0.0460142
-0.168767 -0.0616633 0.0631733
0.27476 -0.272834 0.243558
-0.163768 0.154989 0.194328
0.213763 0.0405317 -0.185608
0.270029 -0.0483179 0.0091769
0.0922959 0.0171547 0.215138
-0.168082 0.186384 -0.154233
0.0893461 -0.0320017 -0.260363
0.218061 -0.038121 -0.24975
-0.151711 0.0672607 -0.166182
-0.0988323 -0.0195895 -0.0626043
0.163562 0.11581 -0.215322
-0.228959 0.0924106 0.10309
0.125477 0.0235406 -0.171877
0.071515 0.0632436 -0.263172
0.241556 0.0446149 -0.222855
-0.214169 0.278841 -0.215322
-0.214993 -0.317436 -0.238073
-0.273319 0.257966 0.0758763
0.0375482 -0.0222557 -0.215322
0.0734062 -0.0655199 -0.172144
0.280773 -0.0283102 0.0390149
-0.136476 -0.0248603 -0.215322
-0.217674 0.288827 0.0342345
0.146248 -0.0591472 0.125593
-0.211506 0.0272787 0.0960643
-0.209908 0.00568242 0.0905508
-0.0349936 -0.0100953 -0.0664183
0.275875 0.0276892 0.157505
-0.2011 0.0863529 -0.215322
0.245766 -0.0930354 0.227604
-0.196208 0.281455 0.215322
0.0214647 -0.070064 0.0591724
0.105292 -0.0627301 -0.0641616
-0.232575 0.305323 0.0708295
0.265973 0.0289741 -0.127698
-0.0806875 -0.0790013 -0.0938836
0.231792 0.0171041 -0.0898669
-0.03518 -0.0416862 0.215322
-0.0908952 -0.0390167 0.242083
0.0218482 -0.0700304 0.00503381
-0.0309777 -0.0341477 0.215322
-0.0769915 -0.0786779 -0.0797044
0.257025 0.0108071 0.00186259
0.114173 -0.0619532 -0.041123
-0.197164 0.213901 -0.0397234
0.140144 0.0859647 -0.263172
0.244624 -0.0587681 -0.217525
-0.0650319 0.00528783 -0.215322
-0.254993 0.189571 0.0517574
-0.247908 0.163132 0.0329544
0.190444 0.054129 0.263172
-0.0731376 -0.014683 -0.129645
-0.199644 0.221381 -0.0334136
-0.220848 -0.0680673 0.17315
0.0616879 0.0112643 -0.141796
0.247759 -0.058237 -0.067522
0.110843 0.0903316 -0.263172
0.185292 -0.0557312 -0.0148
0.163026 -0.0524765 -0.236759
0.273884 -0.0479805 0.0341796
-0.243164 0.145426 -0.0419737
-0.228825 0.160396 0.215322
-0.205228 0.297033 0.121682
0.271851 -0.231292 0.236132
0.277935 -0.289253 -0.241607
-0.146753 0.0311814 0.0559551
-0.211703 0.103841 -0.215322
0.115767 -0.00143769 -0.00632468
0.281208 -0.0332787 0.0372725
0.0728242 -0.0655708 0.127301
0.193829 0.0974405 -0.215322
-0.00427638 -0.0723159 0.0841712
0.0944909 0.0629587 -0.263172
-0.161126 0.135764 -0.204255
0.0366333 0.154292 0.228312
-0.106678 -0.0556844 0.215322
0.263507 -0.177014 0.233997
-0.192218 0.259309 0.215322
-0.259043 0.204687 0.102168
-0.0560473 -0.020525 0.215322
-0.174536 0.233335 0.172502
0.184533 -0.0557978 -0.135269
0.221002 -0.0526072 0.0915186
-0.211091 -0.0053481 -0.152032
0.213532 0.0386952 -0.171269
-0.211206 0.26302 -0.0282638
-0.210667 0.268527 0.0518949
0.0637453 -0.00483525 0.215322
-0.270971 0.249201 -0.151144
0.172271 0.0107093 0.0834145
0.204774 -0.054027 -0.201933
-0.179501 -0.051645 -0.0484346
-0.00500729 -0.00222343 -0.215322
0.255733 -0.0464201 0.215322
-0.0402977 0.101625 0.215322
0.122534 -0.029917 0.215322
0.0615645 0.00858991 -0.118217
0.278751 -0.0051913 0.143466
-0.144763 0.0167098 -0.113398
0.0584695 0.0681403 -0.215322
-0.201277 0.259635 0.0960034
0.194497 0.171271 -0.225055
-0.259023 0.20461 0.20289
-0.0422032 -0.075634 0.119201
-0.249233 0.168075 -0.103783
-0.205248 0.00392331 -0.192707
0.177956 -0.00510512 -0.215322
0.106441 0.019877 -0.189999
-0.0481094 0.0193787 0.215322
0.246395 0.0217778 -0.106046
0.0795279 0.0142078 -0.215322
-0.00874005 -0.312117 0.238074
0.239356 0.0528293 -0.25517
0.0758324 0.0139864 -0.184861
0.0120616 -0.0708866 -0.170401
-0.180599 -0.0504697 0.0753785
0.0337442 -0.00702632 -0.0399764
-0.2091 0.0182989 -0.0971162
-0.150295 0.0569605 0.137263
-0.1139 -0.0212594 -0.0302951
-0.0793424 -0.015877 0.0759834
0.0678996 0.152168 0.263172
-0.223174 0.305297 -0.0119035
-0.190397 -0.0371688 0.09957
0.00814938 -0.00341749 0.0841666
0.237043 0.0614577 0.221328
0.152549 0.0113854 -0.0959771
-0.147899 0.0395212 0.148332
0.0938964 0.0422375 0.215322
0.0172056 0.00270345 -0.172315
-0.184253 -0.0460288 0.146978
-0.0711341 -0.0260986 0.215322
-0.087395 -0.0259533 -0.247296
0.263695 -0.048872 -0.148539
0.00639141 -0.0686197 0.215322
0.276715 -0.0477329 -0.0227372
-0.0795812 -0.0789045 -0.0268044
0.238825 -0.0567793 0.108458
-0.179545 -0.0515979 -0.0687
0.0541491 0.137701 -0.215322
-0.113768 -0.0212695 -0.00340239
-0.179487 0.269358 0.206344
-0.255921 0.193037 0.0212895
0.126469 0.0294532 0.263172
0.086359 0.0712578 0.215322
-0.0708162 0.000855249 -0.215322
-0.257915 0.298533 0.208977
0.0909905 -0.0315241 0.260461
0.22679 0.0997274 0.254532
0.00755052 -0.309151 0.247378
-0.0547728 -0.0562443 0.215322
0.0366697 -0.0032203 -0.0706902
-0.0793866 -0.0788874 0.00557416
0.0956689 0.0914282 0.215322
0.0676991 0.0547963 -0.215322
0.248314 0.0183479 0.088695
-0.256636 0.196645 0.215322
-0.193978 0.159824 -0.215322
-0.151182 0.0634082 0.189932
0.209305 -0.0506277 -0.215322
0.0867357 0.123764 0.215322
0.237836 -0.000546976 -0.263172
0.264695 -0.0487846 0.15483
0.146325 -0.0186613 0.262568
-0.173348 0.0182812 0.215322
-0.234345 0.304848 0.122652
0.270857 -0.0482454 0.0525035
-0.131639 -0.0791873 0.0875496
0.184475 -0.0558027 -0.051275
0.19423 0.0057346 -0.0198559
-0.231601 0.305584 0.105242
-0.188275 0.297001 -0.172921
0.169589 -0.0457802 0.215322
-0.268269 0.239119 -0.0581191
-0.0314515 -0.00666062 -0.171966
-0.0810565 -0.0771461 0.228196
-0.254684 -0.203018 -0.20703
0.0255152 0.00430268 -0.197252
0.236888 0.0620398 -0.239594
0.0402989 0.0750732 0.215322
0.206784 0.0443343 0.263172
-0.276672 0.27048 -0.00851363
0.067132 0.160162 0.258418
0.224757 -0.305125 0.244738
-0.270896 0.248923 0.165019
-0.206307 0.00787504 -0.0451712
-0.280625 0.292447 -0.158832
-0.136283 -0.0472634 -0.215322
0.146296 -0.054372 0.235765
0.281835 -0.0404417 -0.142905
-0.096167 -0.0191151 0.0333828
-0.222883 -0.311268 0.249697
-0.210936 -0.309401 -0.235737
-0.00638248 -0.00931077 0.0527017
0.19232 0.0128739 0.0858532
-0.230438 0.305895 0.0935955
-0.122471 -0.0804884 -0.194506
0.273674 -0.0417922 0.215322
0.00391242 0.0620908 0.263172
-0.263276 0.220484 -0.037107
-0.173511 0.205403 -0.145291
-0.247467 -0.305246 -0.238875
0.0133976 -0.0707697 -0.207176
-0.253444 0.183791 0.19727
-0.161862 0.100416 -0.0785005
-0.198245 0.314521 -0.193859
-0.197613 0.283203 -0.13498
0.019562 0.0624366 0.263172
-0.180286 0.174426 0.086046
-0.0903342 -0.0604878 -0.215322
-0.250287 -0.183227 -0.207612
0.18633 0.00462411 -0.000116124
-0.236641 0.121081 0.0605952
-0.236706 0.121325 0.0972744
0.0557686 -0.0217883 -0.263035
0.196626 -0.0547398 0.100956
-0.0475891 -0.033961 -0.215322
-0.24475 -0.169146 -0.194545
-0.155346 -0.0704931 -0.0114895
0.0466823 0.0760615 -0.215322
-0.174113 0.230262 0.191853
0.251877 0.01261 0.0461872
-0.16209 0.142783 -0.185888
0.178768 0.0200096 0.123096
0.151082 0.169229 0.215322
0.0646866 0.155588 -0.215322
-0.0328916 -0.01436 -0.0139687
-0.15435 0.0783039 -0.0873656
-0.0571198 0.0665237 0.263172
0.114409 -0.00871794 -0.215322
-0.226952 0.202796 -0.215322
-0.249381 0.168628 0.0398845
0.0660552 0.0121048 -0.181543
-0.0601478 -0.0121832 0.210463
0.241227 -0.0597781 -0.125254
-0.006973 -0.0725518 -0.0597484
0.121546 -0.0597199 0.215322
0.278735 -0.0475562 0.0653343
0.037206 -0.0177958 -0.215322
0.0624592 0.00699068 -0.11125
0.174597 -0.0566669 -0.0404446
0.194695 0.115004 0.215322
0.276537 0.0201192 0.119109
-0.268916 0.241533 -0.0952117
0.196246 0.0272958 -0.142963
0.222615 0.115308 0.248766
0.138561 0.0494568 0.215322
0.199934 -0.05445 0.200833
-0.119991 -0.0808402 0.1113
-0.160263 0.0889884 0.0698388
0.168055 -0.03227 -0.215322
-0.174606 0.233846 0.214772
-0.209579 -0.0198368 -0.157041
0.0944978 -0.00785873 -0.215322
-0.0946117 -0.0188152 -0.0700364
-0.162913 0.148773 -0.182661
-0.0657813 -0.0188579 0.263172
0.239078 -0.0510257 0.0578561
-0.189852 0.273629 -0.150922
0.10946 0.0740807 0.215322
0.205029 0.114936 -0.263172
0.257652 -0.0154527 -0.224983
0.156765 0.00267797 -0.0247804
0.139658 0.0262693 -0.206393
0.179818 -0.0562104 -0.154668
0.194648 0.0259152 0.263172
0.261854 0.0408651 0.165979
-0.278039 0.27558 0.0983152
0.22446 -0.317765 0.24261
-0.18379 -0.0466263 0.209025
0.175053 -0.0566271 -0.0924888
0.267786 -0.0301997 0.215322
0.105941 -0.0349125 -0.215322
-0.0481127 -0.0707448 -0.237228
0.0655302 -0.0178565 -0.215322
-0.145958 0.0254008 -0.200217
0.0842424 -0.0645718 0.105736
-0.0555775 -0.0346396 -0.215322
0.255886 0.0133373 0.050162
0.279587 -0.0147506 0.0483933
0.184932 -0.0557629 0.160539
-0.2523 0.211418 0.215322
0.0423397 -0.0682377 0.121039
-0.128827 -0.0163236 -0.142368
0.226943 -0.0520873 -0.0580484
-0.186628 -0.0429669 -0.120846
-0.273712 0.259434 -0.149657
-0.18925 0.288326 0.164206
-0.162357 0.0811332 0.215322
-0.162872 0.0900196 -0.0519761
-0.167225 0.180146 -0.15701
-0.160738 0.10636 0.0931265
0.133327 -0.0602775 -0.0118898
0.125109 -0.0414123 -0.215322
-0.0579632 -0.0511799 0.257569
0.0982747 -0.0633443 0.154555
-0.180193 0.150899 0.0412842
0.160178 0.109471 -0.215322
-0.241831 0.302842 -0.187605
-0.238299 0.127269 -0.0775637
0.0282784 -0.052457 -0.251814
-0.0315966 0.116788 0.215322
0.0840708 0.125446 -0.215322
0.215143 0.0210013 0.215322
0.280155 -0.0212409 -0.196436
-0.246232 0.156877 0.0316307
-0.103464 -0.0809101 0.168919
0.122461 -0.0612283 0.148426
0.0675986 -0.0660275 0.187236
0.225418 0.0601002 -0.263172
0.183345 0.0123141 0.0870227
0.0161506 0.0988424 -0.215322
-0.0113138 -0.0729316 -0.00572504
-0.0957848 -0.0803221 -0.162016
-0.194612 -0.0294315 -0.138366
0.0662513 -0.0111623 -0.215322
-0.160397 0.0973827 -0.0819722
0.0810111 -0.0648545 0.111044
-0.229497 0.0944218 -0.180334
-0.181971 0.219454 -0.215322
0.22043 0.041968 0.215322
0.171188 -0.0569654 -0.13772
-0.240472 0.13538 0.120546
0.169884 0.157879 -0.215322
