ply
format ascii 1.0
comment Created by Open3D
element vertex 1622
property double x
property double y
property double z
end_header
-0.0435427 0.372965 0.0580326
0.0783677 0.297981 -0.258475
-0.114412 0.20546 -0.107698
0.110678 0.1914 0.243481
-0.0991842 -0.319123 -0.0591279
0.100723 0.372965 -0.188724
-0.114291 -0.299437 0.0280925
-0.138224 0.184635 0.063151
0.0341357 0.191209 -0.107698
0.0645861 0.372965 0.0540099
0.108284 0.0684504 -0.132027
-0.0109264 -0.0245657 -0.263261
-0.104146 -0.148976 -0.216891
-0.0892483 -0.345058 0.267477
0.108284 -0.0607816 -0.137395
0.011544 -0.390494 -0.0969951
0.0786132 -0.390494 -0.276152
-0.114291 -0.273921 0.106132
0.0955628 -0.156671 0.258475
-0.0986223 0.0475681 -0.073005
-0.132958 0.34514 -0.244115
0.115465 0.379852 0.141301
0.110678 -0.100868 -0.171012
-0.131206 0.372965 0.0354634
-0.111898 0.308431 0.176275
0.102179 0.370571 0.150991
-0.0738705 0.378425 0.280015
0.0747786 -0.384325 0.0340005
-0.0443923 -0.0808538 -0.205772
-0.0470073 -0.0162476 0.265655
0.0906046 -0.0841536 -0.160151
0.0824283 -0.0110772 0.0646189
0.0157084 -0.240753 0.00632739
0.108284 0.0588331 0.125705
-0.10835 0.155804 0.222576
-0.138224 0.307804 0.182906
-0.118618 0.356211 -0.162079
0.0685622 0.0730303 -0.258475
0.0400079 0.372965 -0.19598
0.0604188 -0.0447819 0.0176631
-0.135831 -0.0440316 -0.265199
-0.0503611 -0.238464 -0.162514
-0.0424892 -0.275616 0.172054
0.0139464 0.372965 0.0214916
0.0365714 -0.247598 0.0408852
0.108284 0.312024 -0.170453
-0.135831 -0.0489386 0.125608
0.032773 -0.00375933 -0.260868
0.0322954 -0.167919 0.0737241
-0.126258 -0.11215 -0.0888468
-0.09004 -0.376135 -0.185748
-0.0348692 0.16067 0.260869
-0.135831 0.0675064 -0.0160428
0.108284 -0.190737 -0.13
-0.111898 0.242149 0.137192
-0.0389019 0.0434893 0.258475
0.127431 -0.360816 0.239708
0.0838848 0.337065 0.0584373
-0.00659294 -0.0971119 -0.217552
-0.126258 -0.189661 0.212022
0.00610039 -0.263611 0.203555
-0.135831 -0.280752 0.230848
-0.00996945 -0.153116 0.193342
-0.0530798 0.273241 0.224969
0.110678 0.119571 -0.113483
0.0628122 -0.225922 0.105661
-0.138224 0.148325 -0.240668
-0.092199 -0.390494 -0.123917
0.0827822 -0.0382378 0.0646189
-0.135831 -0.311123 -0.205983
0.00592883 0.372965 -0.0704206
0.108284 -0.0974837 -0.0155368
0.108284 0.184971 0.24893
0.110678 0.0120219 0.0510808
-0.103179 -0.139199 -0.0429173
0.0951459 0.181865 0.224969
-0.108049 -0.139579 0.260869
0.0650292 0.370571 0.229331
-0.00659294 -0.0195389 -0.196263
-0.0967937 0.372965 -0.225995
0.0766572 -0.183556 -0.129237
0.0661688 0.337065 -0.0328775
0.09035 0.390494 -0.275917
-0.138224 0.320177 0.208835
0.00266383 -0.378528 -0.0710145
0.0580845 -0.274519 0.165567
0.113071 0.153207 0.0666546
0.10476 -0.390494 0.0531528
-0.138224 -0.249271 -0.155725
-0.104536 -0.318709 0.0753121
-0.0898158 0.28924 -0.258475
0.0670953 0.00439816 0.173626
0.0612778 -0.214445 -0.110091
-0.135831 0.339285 -0.085533
-0.132319 0.370571 -0.0947073
-0.135831 0.204739 -0.0884119
0.110678 -0.186454 -0.18212
0.113071 0.158632 0.0535435
-0.0774656 0.370571 0.0396195
-0.0937367 -0.260808 0.0499174
-0.135831 0.0849484 0.180543
0.115465 0.376056 -0.175886
0.110678 -0.207698 -0.24403
0.129824 0.38779 -0.174262
-0.113438 -0.273062 -0.258475
0.0774449 0.114926 0.0646189
0.100659 0.343139 -0.244115
0.108284 0.268389 -0.219744
0.0604188 -0.048126 0.140253
0.0823737 -0.0417166 0.260869
-0.114291 0.0689043 -0.0379713
0.108284 -0.313553 -0.222675
0.108918 0.318155 -0.143597
0.110678 0.126376 -0.18422
-0.114792 0.207702 -0.107698
0.051192 -0.376135 -0.125604
-0.0165969 0.332907 0.224969
-0.114291 0.182088 0.0366825
-0.126258 -0.104701 -0.0839868
0.0966776 0.0479336 -0.129237
0.108284 0.165247 -0.12182
0.108284 0.327931 -0.0810746
0.108284 0.00842091 0.0979623
0.0265602 -0.376135 -0.174664
-0.0486695 -0.243869 -0.164461
0.108414 0.0976975 -0.124451
0.068721 -0.0872469 0.260869
0.0802723 0.321795 0.260869
0.0787315 -0.0386671 0.265655
0.0553609 0.372965 -0.148909
-0.100951 0.153632 0.258475
-0.0130548 -0.130867 0.210609
-0.0169077 -0.294171 0.248722
0.0747786 -0.030781 0.00259944
-0.127195 0.370571 -0.135315
0.0604188 -0.0601838 0.154421
0.0747786 -0.159395 -0.00579142
-0.101986 0.37144 0.258475
0.122644 -0.387397 0.211655
-0.114291 0.204834 0.11445
-0.138224 0.216752 -0.0185753
0.00903767 -0.22982 0.224969
-0.111898 0.00652657 0.152328
0.053684 -0.287222 0.0936808
-0.114291 0.0397381 0.148767
-0.135831 0.218335 0.0493521
0.0567867 -0.201648 -0.0981248
-0.138224 0.261709 -0.225144
-0.0485757 0.00439816 0.202974
0.108284 -0.297616 -0.101797
-0.135831 0.23661 0.255189
0.108284 -0.365282 0.165643
0.108284 0.0435588 0.241312
-0.0875055 -0.0965976 0.258475
-0.135831 0.315248 -0.0878182
0.0907752 0.117234 0.0502591
-0.0804725 0.308332 -0.110091
0.0940956 0.00439816 0.194694
0.11263 -0.33885 0.104138
-0.126258 -0.0236428 0.0652673
-0.114291 -0.210609 0.165093
-0.0360935 0.337065 0.185338
-0.0471084 -0.251684 0.163021
0.0928375 0.281504 0.222576
0.0921354 -0.259587 0.260869
0.110678 -0.159117 -0.0582804
0.0747786 -0.0840903 0.157645
-0.135831 0.185903 -0.0293544
-0.0995748 -0.373741 -0.174569
-0.135831 0.231782 -0.261849
0.00325221 -0.376135 -0.113372
0.00995018 0.226423 0.224969
0.122644 -0.387935 -0.266644
0.0796397 0.370571 -0.03268
0.0747786 -0.209812 0.230095
-0.000261077 0.372965 0.24285
-0.0770601 -0.0635031 0.260869
0.0628122 -0.342438 -0.0404257
-0.122621 0.137174 -0.110091
-0.107014 0.372965 -0.10804
0.115496 0.365556 0.0736718
-0.114291 -0.112757 0.158827
-0.111898 0.181366 0.106042
-0.114291 0.258832 -0.0422937
-0.126258 -0.203087 0.111538
0.08753 0.0760793 -0.258475
-0.129488 0.20313 0.258475
0.0997303 0.282326 -0.263261
-0.138224 0.240595 -0.0176408
-0.0478255 -0.193355 0.133741
-0.00924635 -0.330297 -0.265655
-0.0976269 -0.341802 -0.273138
0.0747786 0.121799 -0.140016
-0.126258 0.16086 0.222993
0.00776625 -0.043919 -0.103726
-0.0776626 -0.308531 0.227407
-0.0549703 -0.376135 -0.228303
-0.0288847 -0.152417 0.0915774
-0.0510498 0.0746005 0.224969
0.0949574 -0.177462 0.258475
0.102438 -0.0123551 -0.20383
0.0242476 -0.317916 0.114613
0.0833517 0.335891 0.258475
0.113059 -0.313909 0.00499889
0.108284 0.348344 -0.0118574
-0.111898 0.0889647 0.110478
0.108284 -0.0241465 -0.1566
-0.00877206 0.370571 -0.246338
0.108284 0.131989 0.246256
-0.116684 -0.1775 0.261635
0.108284 0.36284 -0.207937
-0.00299122 -0.174083 0.258475
-0.10357 -0.390494 -0.125779
-0.103988 -0.104881 -0.0981248
-0.111675 0.339458 0.0101353
-0.114291 -0.165548 0.202915
0.0393538 -0.376135 -0.202925
0.108284 0.371502 0.258097
-0.138224 0.0859295 0.173094
0.0747786 -0.102154 0.037723
-0.0229625 -0.199105 -0.0460626
0.108284 -0.267349 -0.155755
0.0227409 -0.275616 0.21003
0.112823 -0.390494 0.094279
0.105653 0.370697 -0.263261
0.112637 0.111287 -0.263261
-0.0592826 -0.177436 0.258475
-0.090767 -0.390494 0.227276
-0.135831 0.354446 -0.0749608
-0.0895534 -0.140417 0.132998
0.110678 0.312363 -0.205284
-0.135831 -0.0308366 0.0284065
0.0747786 -0.382249 0.031488
0.103547 0.200049 0.244115
0.0794115 -0.0106376 -0.244115
-0.103206 0.305736 -0.244115
0.110678 0.0675694 -0.148704
-0.134106 -0.0749213 0.258475
-0.111898 0.198863 0.191757
-0.0786098 -0.167919 -0.0193814
0.0743897 0.219188 0.258475
-0.138224 0.0494193 -0.23723
-0.135831 0.157163 0.060687
0.122644 -0.372395 0.239622
-0.115114 -0.0841536 -0.0726014
-0.103124 -0.316142 -0.244115
0.0922681 -0.229744 0.258475
-0.0889638 0.356211 -0.236436
-0.0615645 -0.139199 0.0708447
0.0809565 0.316603 -0.260868
-0.111898 0.0351249 0.188735
-0.138224 0.0122423 -0.0661863
-0.108287 -0.376135 -0.19409
0.0747786 -0.331342 0.063485
-0.0721029 -0.228259 0.210609
0.108284 0.106708 -0.145238
0.108284 0.0609233 -0.0327791
0.108284 0.155958 -0.24839
0.0604188 -0.0132807 -0.0658463
-0.0481091 -0.161659 0.224969
0.108284 0.177388 -0.130931
0.0808911 -0.306867 0.244115
-0.0738888 -0.0967245 0.258475
-0.135831 -0.315491 -0.256328
-0.135831 -0.00849278 0.250877
0.0230805 0.370571 0.197457
-0.138224 -0.112599 -0.218314
-0.135831 0.0161342 -0.0989337
-0.122756 -0.0841536 -0.0977075
-0.0980327 -0.372881 -0.0109569
-0.00177728 0.0400457 -0.26094
0.108284 0.219631 0.0227079
-0.00653034 0.224292 -0.110091
-0.0678633 0.0743346 -0.258475
0.115465 -0.070707 -0.19192
-0.138224 0.259903 0.0339712
-0.0388293 -0.0457509 -0.265655
0.110678 0.166387 -0.214558
-0.135831 0.266027 -0.1588
-0.0220352 0.372965 -0.189581
0.0767824 0.0159222 0.258475
0.108284 -0.250496 0.219483
-0.114291 0.0431224 0.0668983
-0.111898 -0.017843 0.18735
0.0604188 0.09929 0.234142
0.0747786 -0.137364 0.016073
-0.138224 0.183352 0.21794
0.0671942 -0.390494 0.0374143
0.063201 0.370571 -0.0520331
0.107928 -0.0415863 -0.244115
0.0654909 -0.0841536 -0.234888
0.113071 -0.384276 0.248469
0.110678 0.0596731 -0.218867
-0.105519 0.100594 -0.260868
0.0231035 0.171705 0.258475
-0.135831 -0.154007 -0.127156
-0.0796449 0.115012 -0.078348
-0.111898 0.125799 0.153105
-0.138224 0.260542 -0.164728
-0.0255795 -0.390494 -0.0189385
-0.116984 -0.32268 -0.110091
0.0498555 -0.265102 -0.0172458
0.0182291 -0.354595 0.105065
-0.0793274 -0.376135 -0.21995
-0.106851 0.0188484 0.260869
-0.138224 -0.00414358 -0.245766
0.0270505 0.0434193 -0.260868
0.0604188 0.0797552 0.238626
0.039329 -0.190416 -0.110091
-0.0921997 -0.378528 0.0157736
-0.111898 0.0713355 -0.0378765
0.053204 0.339458 0.0127568
0.0330047 0.187898 0.222576
0.0494958 -0.177651 -0.0494898
0.0747786 -0.102888 0.0260973
0.107523 -0.117206 -0.258475
-0.0302395 -0.0760268 0.170924
-0.000832025 0.219606 -0.258475
0.103299 -0.209676 0.0502591
-0.138224 0.0069041 -0.0505331
0.0829034 -0.373504 0.0646189
-0.0352705 -0.38384 0.258475
0.0190066 0.337065 0.172713
-0.0388972 0.00439816 -0.00139432
-0.114695 -0.047412 0.260869
0.0505415 -0.2036 0.224969
0.0371319 0.34206 0.258475
0.0693779 -0.248824 -0.258475
-0.00120866 0.181202 0.222576
-0.122287 0.245276 0.258475
0.054313 -0.251242 0.260869
-0.0154373 0.243421 0.260869
-0.111898 0.000270641 0.0422914
0.110678 -0.0906394 -0.0396414
-0.135831 0.056234 -0.179524
0.0055315 -0.251684 0.185165
0.108284 -0.0895682 -0.174943
0.0908818 0.339458 -0.0728085
-0.116684 0.156261 0.263025
0.0878453 -0.0841536 -0.161934
-0.130347 -0.33989 -0.271611
-0.138224 0.131124 -0.215339
0.0628122 -0.371741 -0.0379274
0.110678 0.337789 -0.239987
0.103835 -0.385619 -0.272834
-0.138224 0.0814257 -0.205662
-0.0935363 -0.266268 0.258475
-0.135831 0.105948 0.208435
0.107791 0.0493472 0.224969
0.0460717 0.370571 -0.164712
-0.110386 0.370571 0.0828107
-0.121471 -0.261279 0.238597
0.0314042 0.31784 -0.258475
-0.0218291 0.355177 -0.258475
0.0688428 -0.337113 -0.258475
-0.102325 0.0351395 -0.248957
0.0448832 -0.185576 0.258475
-0.0406627 0.261305 0.222576
-0.138224 0.033327 0.0474666
-0.138224 -0.0447022 -0.0264523
0.0604188 0.105532 -0.126663
-0.0707951 -0.10802 0.205986
0.0747786 0.0695913 0.226218
-0.0843597 0.356211 -0.115928
-0.0442054 -0.292825 0.224969
-0.103967 -0.257558 0.148398
0.0762976 0.00439816 0.183269
-0.0789358 -0.30385 0.224969
0.108284 -0.338123 -0.257675
0.0884841 0.243553 -0.244115
0.0747786 0.194072 0.227756
0.0847908 0.232742 0.258475
0.0489131 -0.0841536 -0.140826
0.105338 -0.376135 0.202555
-0.0111727 -0.38305 0.224969
-0.0922484 -0.378528 -0.0875347
0.00510956 0.281961 0.260869
-0.061232 0.0432497 0.224969
0.0600431 0.0969941 -0.260868
-0.0318936 -0.210287 0.258475
0.0604188 0.076886 0.254627
0.110678 -0.186175 -0.0554998
0.0669025 -0.25306 0.260869
-0.101665 -0.0205645 0.265655
0.0857402 -0.0312314 -0.265655
-0.131593 -0.368423 0.265655
0.0509938 0.370571 -0.132416
-0.0749106 -0.061544 0.205444
0.108284 0.147811 -0.0404462
-0.126713 0.328951 -0.110091
-0.126258 -0.15352 -0.05797
0.033507 0.371889 -0.274945
-0.138224 0.122057 0.0755825
0.0274583 0.113094 -0.260868
0.110678 -0.307788 -0.0236844
0.115465 0.386589 0.0864646
-0.0539531 -0.328662 0.119665
0.0538738 0.0458074 -0.260868
0.0382248 0.181493 -0.110091
0.0747786 -0.0384941 0.164833
-0.114291 -0.230636 0.133634
0.110678 -0.116148 0.105376
0.0759029 0.370571 -0.222443
-0.035217 -0.0810418 0.260869
0.108284 -0.266286 -0.136038
-0.111898 0.187267 0.210104
0.0645773 -0.152148 0.258475
0.124406 0.390494 0.143011
-0.116071 0.00481182 -0.107698
0.0359866 -0.360126 0.258475
0.108284 -0.380028 0.0249779
0.113071 -0.244169 -0.131825
0.0810049 -0.0812147 0.258475
-0.135042 -0.0171624 -0.258475
0.0620373 0.107981 0.258475
-0.0894045 -0.244219 0.260869
-0.0358692 0.271644 0.222576
-0.000258241 -0.275616 0.132848
-0.0356925 0.337065 0.210486
0.0944542 0.00200474 -0.191211
0.0163669 -0.258246 -0.258475
-0.129788 -0.374683 -0.110091
0.0925462 0.00439816 0.056707
0.110678 -0.235751 -0.00961303
0.0747786 -0.187172 -0.128053
-0.111898 0.200735 -0.0762979
-0.105828 -0.228621 0.180527
-0.0736209 0.0523979 0.258475
0.014484 -0.0650076 0.188037
0.0628122 -0.090353 0.192465
-0.0751911 0.231551 0.258475
0.0725586 0.00439816 0.124516
0.0757045 0.00213344 -0.129237
0.0747786 0.258232 0.253732
0.0604188 -0.233482 0.240721
0.0747786 -0.332479 -0.0390361
0.0331464 -0.275616 0.180558
-0.135831 0.248598 -0.14186
-0.111898 0.21511 0.124216
-0.00659294 -0.0775757 -0.15275
-0.114291 -0.137008 0.167903
-0.135831 0.311708 0.0604755
-0.0538528 -0.143099 -0.0981248
0.0747786 -0.13132 0.0584311
0.0508374 0.356211 0.23018
-0.114291 0.0857619 0.126309
-0.129694 0.336956 0.258475
0.108284 0.272552 -0.253143
0.0171722 -0.367018 0.258475
-0.132989 -0.187401 -0.258475
-0.0565418 0.069125 0.222576
0.122644 -0.380289 -0.195843
-0.138224 0.0829388 -0.191044
-0.126258 -0.348881 -0.0334664
-0.0976783 0.0395924 -0.104488
-0.138224 0.196189 0.109544
0.0747786 -0.233514 0.0481108
-0.0583055 -0.251684 0.19809
0.108284 -0.0958579 0.0289035
-0.113004 -0.323078 -0.202142
-0.000878601 -0.208034 0.0415841
0.0534728 -0.0363871 -0.258475
0.0766711 0.00200474 -0.157808
0.108284 -0.094348 0.257743
-0.00764041 -0.0311299 0.258475
-0.0700182 -0.0479966 -0.201171
-0.0362563 -0.140035 0.210609
-0.135831 0.174526 0.0356492
0.0839195 0.338064 0.258475
0.0679885 0.372965 -0.168669
0.088569 0.339458 -0.011766
-0.0793237 0.337065 -0.00972976
0.108284 -0.354555 0.029695
-0.0944604 -0.0650076 0.161768
0.0504926 -0.254298 -0.0470834
-0.111898 0.285039 -0.0484358
-0.0469635 0.360516 -0.258475
0.114095 -0.313909 -0.0942649
0.115465 -0.0721447 0.024166
0.0939246 0.179783 0.261159
0.0749559 -0.292607 0.260869
-0.138224 0.0829875 0.0156517
0.0340575 -0.13044 0.224969
0.108284 -0.389902 0.0333289
-0.020804 0.193034 -0.261125
0.00776625 -0.0483859 -0.100749
-0.126258 -0.131785 -0.0334399
0.108284 0.285305 0.237174
-0.00659294 -0.00567138 -0.248249
0.0659841 -0.367237 0.272835
-0.114291 -0.113113 0.192679
-0.0757469 -0.390494 0.103029
-0.0661436 -0.378528 -0.0767877
-0.138224 0.275472 -0.25006
0.0896237 -0.180057 0.258475
0.110678 0.348087 0.0308247
-0.00659294 -0.0122545 -0.25665
0.000213448 0.356211 -0.26236
-0.00663793 -0.0362879 0.190591
0.113071 0.127961 -0.261488
-0.138224 -0.211895 -0.165928
0.0010414 -0.352898 -0.265655
0.108284 0.327355 -0.220958
-0.0942495 -0.14777 0.260869
0.0604188 0.141709 0.256767
-0.0248132 -0.366176 -0.0382474
-0.0357482 0.134667 -0.260868
-0.105481 0.0891989 -0.258475
0.108284 0.15279 0.0400248
0.0750968 0.372965 0.165257
-0.0486173 -0.288662 -0.0702488
0.0119998 -0.0202601 0.258475
0.106647 0.0957673 -0.258475
-0.0544285 -0.14597 0.224969
0.0876084 0.370571 0.0701608
0.0678115 0.358666 -0.258475
-0.124335 -0.178066 -0.143597
0.0023372 0.372965 -0.120252
-0.0768164 -0.24889 0.258475
0.0879777 0.00647223 -0.107698
-0.0623009 -0.169424 0.205295
-0.090563 -0.378528 -0.0781099
-0.0237071 0.00439816 0.0309331
0.0767825 -0.376135 -0.167715
0.0989187 -0.0140935 -0.265655
0.110678 -0.108192 0.235751
0.0915433 -0.254125 0.258475
-0.114291 -0.0849987 0.0338625
-0.138224 0.228377 0.00533254
0.0295476 -0.373741 -0.195638
-0.138224 0.148638 -0.244541
0.108284 0.0117489 0.243009
-0.115134 0.372965 -0.0385425
-0.0926893 -0.0708477 0.135404
-0.093046 0.226589 -0.258475
0.117857 -0.0553336 -0.0688052
0.108284 0.337662 -0.175349
0.002764 0.372965 -0.238977
0.0110663 -0.244652 0.00617229
0.0914523 0.372965 0.124816
-0.0595488 0.103142 0.222576
-0.0873966 0.372965 0.216152
0.113071 0.0681722 0.253178
-0.0200192 0.179679 0.258475
-0.123435 0.189043 0.224969
-0.0412495 -0.127278 0.260869
-0.019496 0.108852 -0.261109
0.0939246 0.0179504 -0.261441
0.00257841 -0.167919 -0.0191469
0.0597428 0.372965 -0.0367388
0.0775098 0.0725049 0.0646189
-0.135831 -0.320791 -0.214684
-0.081436 0.0173372 -0.107698
0.10597 0.120732 -0.263261
0.0286504 0.339458 -0.036774
-0.13147 -0.339686 0.258475
-0.135831 0.0356334 0.103079
-0.135831 0.125742 0.183646
0.0225828 -0.126728 -0.110091
0.07007 -0.121007 -0.110091
-0.135831 0.293264 0.0803747
-0.0934913 -0.310094 0.260869
-0.138224 -0.0650674 -0.0902975
0.0133387 0.370571 -0.0666283
0.0367602 0.337065 0.154748
-0.00944355 -0.34094 -0.265655
-0.0127783 0.0318313 0.222576
0.108284 -0.125077 0.208818
-0.135831 0.112201 -0.15867
0.0320622 -0.376135 -0.118423
-0.121471 0.341873 0.0273936
-0.0837944 0.0735259 -0.260868
-0.0443318 -0.351151 0.258475
0.0519874 0.228472 -0.258475
0.0868423 0.013715 -0.244115
-0.135831 0.0824337 -0.210098
-0.0966556 0.339458 0.10795
-0.135831 0.221247 0.102077
-0.0391799 0.0285305 0.222576
0.0604188 0.323489 0.246174
0.0312273 -0.058505 0.258475
-0.121471 0.281332 0.238032
-0.111898 0.259198 0.128197
-0.013273 0.12072 -0.107698
0.0628122 -0.0845293 -0.0475355
0.101057 0.315573 0.258475
0.110678 -0.302742 0.031194
-0.114291 0.0359281 0.183053
-0.00103191 -0.253611 -0.0690942
0.115639 -0.342862 0.151324
-0.121809 0.366365 -0.26687
0.0640422 0.00200474 -0.224943
-0.0435683 -0.36127 -0.208559
0.0747786 -0.0464777 -0.25695
-0.0426002 -0.217856 -0.260868
0.0787891 -0.277669 -0.258475
-0.023872 0.315063 0.258475
0.00787212 -0.388486 0.258475
0.105175 0.30164 0.244115
0.00812408 0.370571 -0.0697234
0.0197812 -0.378528 0.000692979
-0.0161788 0.363993 0.258475
-0.0728176 0.24656 0.224969
0.108284 -0.153033 0.158603
0.0272269 0.260971 -0.107698
-0.0209893 -0.235596 -0.262284
-0.0418854 0.0427857 -0.258475
0.108284 0.163438 0.208273
-0.135831 0.144685 0.192929
-0.0139389 -0.0771216 -0.258475
0.0907681 -0.376135 0.038047
-0.0214356 0.259732 0.222576
0.0278976 0.337065 0.175079
0.108284 0.0817258 0.0901802
-0.0192051 -0.0226328 0.265655
0.034709 -0.306557 -0.0981248
0.0868761 0.324533 0.244115
0.0758773 0.101012 0.258475
-0.135831 0.0871351 0.0889013
-0.0923211 0.370571 0.234761
-0.0641191 0.339458 0.0912147
-0.0107512 -0.389023 0.224969
-0.00520734 -0.104793 0.258475
-0.0482673 -0.222742 -0.001482
-0.0482291 0.317705 0.260869
-0.138224 -0.0885209 -0.169281
-0.0853581 0.339458 0.0446575
-0.138224 0.251924 -0.189595
-0.0848314 0.339458 0.202752
0.108284 -0.369314 -0.220991
0.108284 0.294365 -0.22441
0.114981 0.375358 -0.136887
-0.0887901 -0.292583 -0.153768
-0.135831 0.0651083 -0.245835
-0.00659294 -0.0517846 -0.116476
-0.0696913 -0.245682 0.116067
-0.135831 0.235156 0.130596
-0.135831 0.00955476 -0.227224
0.108284 -0.123831 0.191292
-0.111383 -0.0842579 -0.17569
-0.126258 -0.356616 0.054922
-0.110789 0.309605 0.224969
0.00386092 0.370571 -0.119248
0.0729674 0.170556 -0.260868
-0.126258 -0.288212 -0.0438864
0.0637618 -0.0123551 0.131497
-0.0970669 0.356211 0.257101
0.116334 0.390494 -0.132516
0.0844672 -0.376135 -0.0633913
0.00271589 -0.0985135 -0.228314
-0.138224 0.260272 0.0903369
0.108284 0.055929 0.000824109
-0.00857492 -0.0294505 0.258475
0.0338649 -0.140361 0.111947
-0.114291 -0.221836 0.185925
0.10459 0.27494 -0.107698
-0.131778 -0.272868 -0.258475
-0.018449 0.319986 0.224969
0.0291009 0.372965 0.158637
0.115465 0.361259 -0.185027
-0.068061 -0.263991 -0.152838
-0.000280008 -0.224203 0.0413361
0.0628122 -0.128652 0.00352451
0.0360622 -0.170876 0.260869
-0.138224 -0.0164134 0.18322
0.108284 0.0153079 -0.0550031
0.06987 0.151481 -0.110091
-0.121471 0.166156 -0.112421
0.00263852 -0.298531 0.224969
0.00658903 0.176368 -0.110091
0.0263271 -0.281693 -0.258475
0.108284 0.230978 0.106641
0.107787 0.372965 -0.1394
0.108284 -0.383652 0.242404
-0.135831 0.162419 0.153648
0.108284 0.0834853 0.0652897
-0.0531393 -0.236604 -0.0981248
0.0193285 0.131446 0.222576
-0.121715 -0.193533 -0.258475
0.008339 0.370571 0.160933
-0.0785566 -0.302495 -0.151878
0.110678 -0.151612 0.138729
-0.114291 0.174113 0.164799
-0.114291 0.00890471 0.21456
0.103727 0.370571 0.0100004
0.0212963 -0.0594123 0.258475
-0.0280118 0.116248 -0.107698
0.113071 -0.0277573 0.261382
-0.0374961 0.370571 0.0907825
0.02548 -0.251684 0.176636
-0.135831 0.254409 -0.119147
0.110678 -0.229239 0.026899
0.114816 -0.331619 0.033608
-0.138224 0.18713 0.0670392
0.0849948 0.0984459 0.244115
0.103106 0.340247 0.258475
0.0127252 -0.0670542 -0.258475
-0.0820585 -0.0509265 0.224969
0.127431 -0.376181 -0.173107
-0.0343653 -0.378528 0.0390587
0.0499954 -0.308531 0.238597
-0.135831 0.346127 -0.236032
-0.0697135 -0.0362879 0.200004
0.0977119 0.221183 -0.129237
-0.0279247 0.372965 0.085778
0.114606 -0.331357 -0.00069198
-0.0499102 -0.053073 0.258475
-0.112685 0.166134 -0.258475
-0.107614 0.356211 -0.135598
-0.00600404 -0.251684 0.176873
0.0533581 -0.255512 -0.110091
-0.111898 -0.0773797 0.123946
0.0747786 -0.299183 0.0297862
0.0910856 0.370571 -0.0502941
-0.0389218 -0.390494 0.106685
0.0747786 0.125525 0.0606399
-0.138224 0.20247 -0.0302508
-0.0185472 0.183392 -0.261097
0.115465 -0.343575 -0.063996
-0.111898 0.1938 0.068257
-0.0900499 -0.371472 -0.15429
0.0747786 -0.386557 -0.0484531
-0.114291 0.0693916 0.0504213
-0.0701121 0.356211 0.259669
-0.102515 0.134677 -0.260868
-0.114291 -0.272161 0.173283
0.0342383 -0.195278 -0.260868
0.0831405 0.372965 -0.25836
-0.0106704 0.0624701 0.222576
-0.0406855 -0.120021 -0.2016
-0.113055 -0.0582925 0.265655
0.0182535 0.35954 0.265655
0.0273757 -0.17399 0.258475
-0.0772422 -0.120786 0.205137
-0.0453638 -0.191125 0.260869
0.0508282 -0.167813 -0.258475
0.108284 -0.371031 0.0529592
-0.0511796 -0.378528 -0.0458751
-0.135831 -0.296403 -0.257946
-0.0746739 -0.0178281 -0.110091
0.038175 -0.378528 -0.0928347
0.0618271 -0.00995819 0.258475
-0.00909672 0.370571 -0.0088396
-0.0314593 -0.358777 -0.050509
-0.101026 -0.300002 0.224969
0.11043 -0.326129 0.0082936
0.110086 -0.335459 -0.143055
-0.0759302 0.370571 0.170145
0.115465 -0.0306239 0.0480414
-0.0303289 -0.294286 -0.0238056
0.0759964 0.262434 -0.258475
0.0585846 -0.271315 -0.258475
-0.0345599 -0.167919 0.0793689
-0.138224 -0.251262 -0.150037
0.110678 -0.249722 -0.0895847
0.108284 0.25278 -0.256487
-0.0606474 -0.0257706 -0.265655
0.115465 -0.0290514 0.00234696
-0.111898 0.141759 0.210317
0.0604188 -0.0231497 0.127483
0.110431 -0.22492 0.0670124
0.0628122 -0.207411 0.0758312
0.00813226 -0.297498 0.263262
-0.0512762 0.370571 -0.254913
-0.135831 -0.0806234 0.242913
0.0604188 -0.0544627 0.0523981
-0.126258 -0.057746 0.00939107
-0.016483 0.100179 -0.260868
-0.126258 -0.387829 0.155198
-0.111898 -0.0490731 0.0108547
0.0810889 -0.346769 -0.244115
0.00606428 -0.376135 -0.234809
-0.101913 0.00439816 -0.0588048
-0.0223867 -0.373515 -0.0474527
0.122644 -0.377347 0.0530848
-0.138224 0.152494 -0.247652
0.115465 -0.343265 -0.211059
0.127431 -0.376745 0.161461
-0.138224 -0.0172826 0.187502
-0.135831 -0.304406 -0.131168
0.0978463 -0.359865 -0.258475
0.0646925 0.166835 0.258475
0.104664 -0.376135 -0.0874789
0.0370836 -0.383584 -0.110091
0.108284 0.24786 -0.110859
-0.0989708 0.00439816 0.0923092
0.0968712 0.0176577 0.244115
-0.0134502 -0.359014 0.119665
-0.00685245 -0.179111 -0.258475
0.0173258 -0.373741 -0.176434
0.108284 0.00821197 -0.0950159
0.0528597 -0.167919 0.0798147
-0.114291 -0.173491 0.114431
0.110678 -0.150535 0.0867074
0.108284 0.128279 0.0896342
-0.126258 -0.374285 0.0292483
-0.138224 0.0826619 0.195532
0.0505328 -0.150873 0.189232
0.110678 -0.187665 -0.0788871
0.0747838 -0.373741 -0.21646
0.129824 0.377707 0.205134
-0.0125714 -0.202822 -0.0981248
0.00340466 -0.275616 0.148029
-0.0558373 -0.357242 0.00165409
-0.114291 0.145834 0.0297089
-0.135831 -0.0032119 -0.203789
-0.111898 0.202472 0.199296
0.0808891 0.370571 0.234394
0.0304311 0.0488767 0.222576
0.0175027 0.356211 -0.229557
-0.135831 -0.069455 0.240846
-0.111898 0.0418262 0.127289
-0.0750851 -0.167919 0.0929696
-0.0137816 0.0394164 -0.258475
0.108284 0.153555 0.0188132
-0.0156344 0.239985 0.258475
0.108284 -0.377141 0.07452
-0.126258 -0.243 -0.0640103
-0.126258 -0.149998 0.145634
0.113071 0.125407 0.254595
0.0807391 -0.0103417 0.258475
-0.0698732 0.323859 0.258475
0.122644 -0.371296 0.0765677
0.108284 0.280284 0.23609
0.0747786 -0.0171496 0.210647
-0.00536757 0.0518584 -0.260868
0.0315133 -0.00535522 -0.110091
0.0400214 -0.376135 0.233772
0.02641 -0.390494 0.203849
-0.0195681 -0.166365 0.224969
-0.135831 0.307459 0.0489872
-0.10874 -0.340559 -0.169015
0.109656 -0.313259 0.0670124
-0.0438239 -0.354595 0.0799855
0.067429 0.253655 -0.110091
0.108284 -0.286939 -0.0738893
-0.00733095 0.370571 -0.145457
-0.0738691 0.00439816 0.0429444
-0.0588391 -0.247399 -0.0981248
-0.123332 -0.308642 -0.258475
-0.0935813 -0.279558 -0.0653141
-0.114291 -0.0901703 0.12147
0.115465 -0.34282 0.0525842
0.0940813 -0.202365 0.263262
0.0932927 0.0342996 0.224969
-0.100702 -0.376135 -0.125331
-0.0773852 0.372965 -0.00771669
0.115465 -0.372076 -0.0191904
-0.123384 0.372965 0.00498991
-0.0215166 0.134096 -0.258475
-0.0806423 0.339458 -0.0791837
0.111341 -0.286956 -0.124451
-0.0445416 0.154823 -0.258475
-0.114291 -0.346808 0.0506574
-0.0139144 -0.336709 -0.0608817
-0.0559171 -0.0650076 0.187938
0.00464198 -0.363439 0.265655
-0.118175 -0.366526 -0.258475
-0.138224 0.0815235 0.0589014
-0.0339301 0.150639 0.222576
-0.0408217 0.16 -0.258475
0.0363429 0.00439816 0.0586525
-0.114291 0.0875432 0.216926
0.110678 0.204523 0.0366958
-0.0523721 -0.365555 0.277622
0.0827703 -0.353258 0.258475
-0.0811716 -0.139199 0.0555376
-0.114291 0.275578 0.0811563
-0.135831 0.310464 -0.185481
-0.111898 0.282539 -0.0773665
-0.0499242 -0.378528 0.0699462
0.104996 0.158682 -0.143597
-0.0322139 -0.200346 0.153631
-0.0993056 -0.262064 -0.0126159
-0.0119368 0.232381 0.224969
0.125967 0.372719 0.238473
0.0747786 -0.0749397 -0.0253353
-0.0270858 -0.343352 0.0673902
0.0245885 0.356211 -0.110955
-0.022948 -0.278327 -0.260868
0.0875492 0.370571 0.2137
0.108284 0.165298 -0.256852
-0.0332428 -0.241784 0.182272
-0.135064 -0.356113 -0.258475
-0.0279144 0.152446 -0.107698
0.0747786 -0.117423 -0.0369237
-0.130413 -0.265839 -0.258475
-0.105461 -0.311964 -0.258475
-0.0560992 -0.376939 -0.258475
-0.125347 -0.0123551 0.130952
0.115465 -0.361606 -0.175863
-0.0181238 -0.378528 -0.0910993
-0.121471 -0.116591 0.253617
-0.135831 -0.271664 -0.183078
0.059725 0.234923 0.258475
-0.0482139 0.272421 0.258475
0.108284 0.373538 0.2255
-0.11202 0.0203688 0.258475
-0.015293 0.339458 0.0529927
0.0123971 0.359883 -0.110091
0.0747786 -0.168792 -0.0630226
0.0939246 -0.345641 0.272513
-0.121471 -0.344221 0.255291
0.0600943 -0.342643 0.224969
-0.0555991 -0.278962 0.0015554
-0.0821223 -0.144569 0.112562
8.86619e-07 0.0269711 -0.260868
0.0326807 -0.390494 -0.0591628
-0.135831 0.00627104 0.0144865
0.0747786 -0.355993 0.138729
0.0183382 -0.300136 0.224969
0.110678 -0.0979998 -0.00637435
0.0628122 -0.148708 0.114758
0.0678466 -0.0918837 0.224969
0.0309615 0.0536503 -0.258475
-0.114291 -0.354944 -0.0167362
0.115465 -0.0710301 -0.0413903
-0.087787 0.0479665 0.260869
0.0511933 0.261746 -0.107698
-0.109441 -0.390494 0.00655298
-0.0561717 0.360502 -0.110091
0.00623063 0.00439816 -0.103672
-0.0722792 0.339458 -0.0124309
0.110678 -0.224794 0.0991954
-0.0722813 -0.0917934 0.258475
0.00403269 -0.33605 0.119665
-0.135831 -0.361456 -0.120531
0.00961839 0.147955 -0.258475
-0.0476507 -0.139199 0.0554414
-0.126258 -0.235234 -0.080947
-0.0789986 -0.139199 -0.0406722
0.0154912 0.332598 -0.110091
-0.0426213 -0.390494 0.0941965
0.0801688 -0.286859 -0.258475
-0.0543857 0.337065 0.102572
-0.0283817 -0.0712371 0.258475
-0.114291 -0.19353 -0.0382295
-0.135831 0.179766 -0.137178
0.113071 0.14881 -0.25334
0.0628122 -0.145136 -0.0322293
-0.107078 -0.105547 0.177511
0.103276 0.0718096 0.0502591
0.0747786 0.365862 -0.0945537
-0.108862 -0.272142 0.260869
0.0866886 0.268955 0.224969
-0.114291 -0.276368 -0.0228801
-0.135831 0.0908245 -0.247053
-0.0218857 0.339458 -0.0689506
0.0946065 -0.00164733 0.0646189
-0.138224 -0.000173204 0.0732778
-0.135831 0.337584 0.0422461
0.0917595 -0.303738 -0.258475
-0.0920797 0.232393 0.222576
0.0193249 0.124837 -0.110091
0.0267607 0.370571 0.205554
-0.0158766 -0.173007 0.258475
0.108284 0.33944 -0.253448
0.115465 -0.346758 -0.0249749
-0.126258 -0.364163 0.00379781
0.059063 0.339458 -0.0064445
-0.088107 -0.1998 -0.0695148
0.0574415 -0.0932798 0.160681
-0.0176016 -0.0123551 -0.263362
-0.0143565 -0.251684 0.187114
0.073707 -0.156803 0.224969
-0.0309426 0.370571 0.12159
-0.035376 -0.105313 0.210609
-0.126258 -0.362007 0.0521352
0.0747786 -0.0087322 -0.258345
0.108284 0.308884 -0.229198
0.0747786 0.0649086 0.247217
-0.0811495 0.37091 -0.258475
0.0314003 0.0120926 0.260869
0.0844087 -0.376135 -0.0195897
-0.135831 0.355992 0.106646
-0.114291 -0.341208 -0.0903663
0.0389314 0.310516 -0.107698
0.100383 -0.327201 0.0502591
0.110678 -0.275089 0.144778
0.108284 -0.0944359 0.00357022
-0.0285692 0.339458 0.0789896
0.0585623 -0.184958 -0.0981248
0.017134 0.00439816 -0.0996369
-0.00874413 0.112186 -0.260868
-0.126258 -0.125474 0.00511583
0.110678 -0.294354 -0.237529
0.075974 -0.130896 -0.244115
-0.135831 -0.377323 -0.161284
0.0747786 0.102866 -0.117969
0.108284 -0.111442 -0.0156312
0.115465 -0.0719545 0.163027
-0.135831 -0.0761321 0.148311
-0.0211058 -0.0872515 0.224969
-0.135831 -0.143632 -0.115746
-0.111898 0.146934 0.218861
0.122644 -0.371981 0.267878
0.0763341 0.106933 -0.143597
-0.125393 0.297507 -0.110091
-0.0612576 -0.167919 -0.0637518
0.0221392 0.372965 0.141209
-0.138224 -0.0638152 0.0162048
0.0867493 -0.244485 -0.260868
-0.135831 -0.214658 0.262818
-0.135831 -0.053735 -0.20064
0.0747786 -0.284637 0.192344
0.0620156 -0.378528 -0.057231
-0.114291 -0.167851 -0.0151171
0.0703145 -0.0187767 -0.110091
-0.138224 0.121381 -0.171971
-0.0571123 -0.0402794 0.129329
0.0294557 -0.376135 -0.206929
-0.1011 -0.355987 0.265655
0.0301608 -0.317379 -0.258475
-0.017466 -0.371745 0.0908751
0.0545165 0.113401 0.222576
0.108284 -0.128546 0.0602209
-0.102325 0.312538 -0.253302
-0.0868069 0.372965 0.196411
-0.0544376 0.337065 -0.0478708
0.0569988 0.365954 0.258475
-0.0685315 0.151166 -0.107698
0.0533289 -0.311151 -0.0339711
0.0582562 0.339458 -0.10554
-0.0916448 -0.21331 -0.0668001
0.0971186 0.280983 0.258475
0.00310625 -0.299345 0.260869
0.00515652 -0.278787 -0.260868
-0.138224 -0.0393407 -0.166999
-0.135831 -0.0580708 0.0255136
-0.11545 -0.0714609 0.260869
0.0409303 -0.0650076 0.151531
0.0205663 0.165435 0.258475
-0.135831 -0.327191 -0.247428
-0.135831 0.22251 -0.13146
-0.0721653 0.200265 -0.258475
0.108284 0.334911 -0.0530235
-0.138224 0.0556576 0.136004
-0.114291 0.2131 0.19695
0.0315341 -0.176258 0.224969
0.0827991 0.306616 -0.107698
-0.111898 0.0521331 -0.0737193
0.108284 0.105305 -0.25477
0.126227 0.372897 -0.251115
0.108284 -0.329063 -0.246023
-0.0995634 -0.0569951 -0.265655
0.0743373 -0.0258091 -0.265655
0.0747786 -0.289384 0.175096
-0.0818654 -0.241675 -0.227606
0.105227 0.339458 -0.0884404
-0.108654 -0.390494 0.0521766
-0.0522345 0.148237 0.258475
-0.138224 0.0806767 0.157475
0.044298 0.372965 0.2468
-0.0796219 -0.294171 0.248032
0.108284 -0.189418 -0.0538554
0.0657325 0.270928 -0.260868
-0.121477 0.204302 -0.263261
-0.12428 0.136184 -0.110091
0.0588621 0.10684 0.222576
0.0807169 -0.390494 -0.105268
0.0628122 -0.102429 0.174
-0.0950826 0.138144 0.224969
-0.121471 -0.0784089 0.241153
0.00776625 -0.070883 -0.160301
-0.0937809 0.309627 -0.258475
0.0604188 -0.0520402 0.0721149
0.0597115 -0.275616 0.193922
0.0747786 -0.119675 0.0639929
-0.0954309 0.00991361 0.260869
-0.00677844 -0.390494 0.044761
0.0575878 0.295888 -0.258475
0.121013 0.36933 -0.105903
0.110678 -0.190792 -0.201803
-0.0547296 -0.333591 -0.258475
0.099783 0.345374 -0.129237
-0.0157608 0.237874 -0.260868
0.0747786 -0.322328 0.187342
-0.124382 -0.390494 0.219153
0.00445556 -0.139199 -0.0558812
-0.0682318 -0.390494 0.0243941
-0.138224 -0.190236 -0.202962
-0.0587272 -0.108224 0.210609
-0.114291 0.150115 0.0599249
0.122644 -0.387359 0.144963
-0.0807329 -0.338014 -0.270113
0.115465 -0.324767 0.264389
-0.135831 -0.385597 -0.141915
-0.108766 -0.254296 -0.260868
-0.011433 0.0820849 -0.110091
0.108284 0.232172 -0.163861
0.0784971 0.138397 0.260869
-0.000815877 -0.0841536 -0.157989
0.0057513 -0.353488 0.277622
0.120655 -0.33893 -0.0461127
0.0223387 -0.0650076 0.190144
0.0678965 0.0476978 0.258475
0.0632856 0.0463466 0.258475
0.0861068 0.126035 -0.260868
-0.00220302 -0.228135 -0.260868
-0.123381 0.144818 -0.244115
-0.0915124 -0.0313606 -0.265655
0.00381254 -0.354595 0.0586541
-0.138224 0.191333 -0.166237
-0.121793 -0.0841536 0.107965
-0.0636296 0.0123266 0.224969
-0.101523 -0.201364 -0.218964
0.0747786 -0.376032 0.117139
-0.138224 0.0337618 0.121658
-0.138224 0.299317 -0.0403403
0.00999544 -0.197633 0.128055
0.110678 -0.0149025 -0.146221
-0.104831 0.00705215 -0.244115
0.113071 0.103271 0.251685
0.108284 0.0821509 0.101551
0.0812345 -0.316166 -0.143597
0.0393234 -0.354595 0.0993237
-0.0842727 0.220295 -0.102981
0.108284 -0.128884 0.256497
0.0651294 0.108112 0.224969
0.0747786 -0.366844 -0.0234876
0.063952 -0.139919 -0.110091
0.121958 -0.0511715 -0.237523
-0.138224 -0.0348127 -0.0190684
-0.0428358 -0.182622 0.109278
-0.0206941 0.14143 -0.260868
0.110678 -0.264781 -0.0919543
-0.0607785 -0.2353 0.210609
0.108284 -0.214131 -0.241156
0.0628122 -0.14774 0.0743421
-0.135831 0.0524505 0.19182
0.0943382 0.241826 0.258475
-0.134263 -0.249882 -0.143597
0.108284 0.0863013 -0.215984
0.0622937 -0.291181 0.258475
-0.105628 0.337065 0.0994963
-0.0405717 -0.0841536 -0.105962
-0.00615956 0.128935 -0.258475
-0.114291 0.200842 -0.0458108
0.0259386 0.00632904 0.222576
-0.114075 -0.353977 -0.258475
-0.135831 -0.346763 -0.151554
-0.104743 0.356211 -0.207919
-0.135831 0.366487 0.145472
-0.00953932 -0.155405 0.224969
0.0628122 -0.166338 0.190149
0.0377197 -0.0449656 0.224969
-0.114291 0.021898 0.0736935
-0.0414447 -0.349167 -0.0649647
-0.00394849 0.155416 0.224969
-0.00332374 0.00439816 0.208227
0.108284 0.0250457 -0.0199484
-0.138224 -0.0339932 -0.00417554
-0.0380774 -0.376135 -0.217723
0.0802867 0.356211 -0.0195088
-0.0286304 -0.362113 0.277622
0.108284 0.322934 0.0755062
0.0282008 -0.156492 0.258475
0.108284 0.328328 -0.249329
-0.126258 -0.214522 -0.0870682
-0.114291 -0.179278 0.0666398
-0.0836306 0.00439816 0.0374361
0.0107247 -0.308818 -0.258475
-0.010303 -0.378528 0.112886
0.110678 -0.200184 -0.234139
-0.0471243 0.356211 -0.248281
-0.138224 -0.00326467 -0.0416934
0.081028 0.372965 -0.174318
0.0308193 -0.167919 -0.0426323
0.108284 0.140667 -0.12164
0.110678 0.342561 -0.205912
0.0628122 -0.219139 0.126576
0.0126688 0.124348 0.224969
-0.0655002 -0.303969 0.116619
0.0747786 -0.0176344 0.198674
0.110678 -0.304728 -0.0966803
-0.0529815 0.00439816 0.016292
0.108284 0.171077 0.113984
-0.0289367 -0.341199 0.0626124
0.0229054 0.370571 -0.110703
-0.0733182 -0.157494 0.260869
0.0897019 0.291104 0.258475
0.0042863 0.135798 0.222576
0.110678 -0.093125 0.109779
0.0214154 -0.139199 -0.0308032
-0.121471 0.352743 -0.0468204
0.0628122 -0.234762 0.180174
0.0450235 0.337065 -0.0757427
-0.0677863 -0.301212 -0.0981248
0.0556972 0.0580839 0.222576
0.0545467 0.00439816 -0.0733573
-0.00659294 -0.0149831 -0.211844
-0.0190329 -0.390494 0.0640287
0.0992562 0.372965 0.139295
-0.114291 0.17722 0.1607
0.108284 -0.342655 -0.142756
-0.124531 -0.0841536 -0.0582317
0.108284 -0.00433115 -0.222225
-0.00328923 -0.0277376 -0.244115
0.0221264 0.329493 -0.110091
-0.0490341 -0.148151 0.210609
0.0408078 -0.31704 -0.0616945
0.110678 -0.0954783 0.181746
-0.111043 0.193715 0.260869
0.108284 -0.128552 -0.0804741
-0.121471 0.23403 -0.12184
0.115465 -0.320074 0.100956
-0.0105895 0.219973 0.258475
0.103216 0.356211 -0.00771806
0.0105442 -0.251684 0.142071
0.0529286 -0.265202 -0.0288549
0.0348249 -0.0985135 -0.214171
-0.018613 -0.0604321 -0.261098
-0.106481 0.0609564 -0.110091
0.108284 0.333157 0.137197
0.0435159 -0.332756 -0.0981248
0.108284 -0.235678 0.190103
0.103917 0.370571 -0.245499
0.115465 -0.0273956 -0.0640622
0.0689089 0.337065 -0.0483241
0.104891 -0.0985135 -0.147837
0.108284 0.074104 0.0840048
-0.0992928 -0.275616 0.183953
0.101935 -0.219501 0.0502591
-0.111898 -0.000462566 -0.0132132
-0.00368362 -0.33912 -0.265655
-0.104351 -0.35222 0.0739088
-0.135831 0.277329 -0.0547968
-0.0132638 0.00439816 -0.0868545
-0.0757034 0.272737 -0.258475
0.0792598 0.337065 0.0113942
-0.114291 0.174707 -0.0947988
-0.121471 0.321159 0.241199
-0.112406 -0.376135 -0.22541
0.0516897 -0.0856233 0.224969
0.110328 0.356211 -0.212748
-0.111898 0.210419 0.220263
0.103389 0.00439816 0.144983
-0.135831 -0.118976 -0.220306
0.0939246 0.181433 -0.26019
-0.0986457 0.254105 -0.260868
0.0578695 0.339458 0.0494634
-0.0598427 0.0669501 -0.110091
-0.126258 -0.0507359 0.101822
0.0398185 -0.240436 0.224969
-0.121471 0.193506 -0.115114
0.0747786 -0.355164 -0.0987249
-0.0632421 -0.378528 0.0599326
-0.126258 -0.325627 -0.0391563
-0.111898 0.252157 0.159709
-0.0070146 -0.196107 -0.0661758
0.0747786 0.325916 -0.119828
0.0366493 0.037077 0.258475
-0.0305189 -0.357418 0.119665
-0.135831 0.290122 0.200584
-0.0543681 -0.229458 -0.260868
0.0660055 0.337065 0.183242
0.0754645 0.24008 -0.107698
-0.000215713 -0.350286 -0.265655
-0.0588152 0.238506 0.222576
0.0667654 0.372965 -0.0348596
-0.102988 0.366956 -0.110091
-0.135831 0.365934 -0.21967
-0.111898 0.153398 -0.0462493
0.0747786 -0.18191 0.157299
0.0855551 -0.22908 -0.260868
-0.0792803 -0.300357 0.119665
0.107994 -0.113993 -0.129237
-0.112744 -0.123467 -0.258475
0.0892369 0.320265 0.244115
-0.125843 0.00689679 0.263262
0.0322415 0.339458 0.202704
0.108284 0.228101 -0.165659
-0.0358466 -0.388155 -0.277621
-0.0864776 0.0830581 0.224969
0.0829524 -0.0659016 0.0502591
0.115465 -0.0357228 0.0826314
-0.123783 -0.373741 -0.19223
0.0898547 0.372965 -0.00539973
-0.109197 -0.0274127 0.260869
-0.111898 0.301728 0.0307296
0.10944 -0.313909 0.153441
0.108284 -0.119008 0.245647
0.0621491 0.00200474 -0.166429
-0.0667846 0.370571 -0.0750439
-0.0871215 -0.248894 0.260869
-0.0633896 -0.182181 0.127982
0.108284 0.352366 0.13755
0.110678 0.0676131 -0.237871
0.104113 -0.221658 0.258475
0.104558 0.370571 -0.171877
0.00124078 -0.274502 0.260869
0.0747786 0.308445 -0.129155
0.127357 -0.347323 0.0709497
0.122644 -0.353474 0.25142
-0.114291 -0.108006 0.164559
-0.00775924 -0.378528 0.0889063
-0.135831 -0.0126953 0.227212
0.0574238 -0.198091 0.0815952
-0.00169135 -0.304842 -0.258475
0.0144913 -0.251684 0.18578
0.00718475 0.369181 0.270986
0.109497 -0.0185258 -0.124451
-0.0154829 -0.1717 -0.263261
0.0352857 0.15772 -0.110091
0.115465 -0.0516084 -0.173737
0.0335106 -0.268284 0.210609
-0.138224 0.260637 0.169029
-0.00973961 0.337065 0.102205
-0.0819995 -0.336787 -0.152331
0.0844841 0.304383 -0.260868
0.0981473 0.285661 -0.263261
-0.121471 0.134177 0.234686
0.0369822 0.184839 0.224969
-0.102777 -0.139199 -0.0533142
0.0949633 -0.209598 0.258475
-0.03042 -0.174054 0.172295
0.108284 -0.17803 0.254941
0.115465 0.360735 -0.0566148
-0.0237869 0.370571 -0.0154977
0.0747786 -0.131345 0.107368
0.0747786 -0.355508 -0.0517299
0.120845 -0.349803 -0.172058
0.00360519 -0.266879 0.224969
-0.0507119 0.0448532 0.222576
0.105772 0.00117873 0.222576
-0.0251075 0.365201 0.265655
0.0550541 0.370571 0.202328
-0.0432639 -0.0969787 -0.258475
-0.0555443 -0.269599 0.00153271
0.0620558 0.370571 -0.107983
0.108284 0.00503723 -0.0132283
-0.111898 -0.0109203 0.104225
-0.116067 0.00890134 -0.258475
-0.037957 0.0268195 0.222576
0.0210308 0.372965 0.180444
-0.126947 0.372965 -0.0233586
0.0604188 -0.0592483 0.254447
-0.0458733 0.337065 -0.0809108
-0.0106303 -0.174998 0.192481
-0.121471 -0.0445489 0.254956
0.113071 -0.288074 0.24685
0.0969225 0.0529795 -0.258475
0.0456958 0.370571 0.0976582
0.110678 -0.305824 -0.169298
-0.114291 0.290745 -0.106227
-0.111898 -0.0175761 0.148733
-0.07202 -0.378528 0.0400726
-0.0511814 -0.174174 -0.218035
-0.0285636 -0.300524 -0.0381623
0.0571973 0.337065 0.200045
0.0798459 0.00562791 -0.110091
0.049928 0.370571 0.243865
0.054583 0.339458 0.0840438
0.0277354 0.370571 -0.00704712
-0.111898 0.339031 0.00770597
0.0132101 0.0758461 -0.107698
0.107147 0.335507 -0.258475
-0.135831 -0.345603 -0.182562
-0.113793 -0.142146 -0.200237
-0.138224 0.0835549 0.167316
0.110678 -0.23555 -0.023965
-0.111898 0.20886 0.107495
0.0618467 0.370571 -0.147441
-0.0959214 -0.218348 0.101551
0.113071 -0.00537221 0.066958
0.0331563 -0.221947 0.210609
-0.11458 -0.133862 -0.195043
-0.137539 0.337065 -0.0561762
0.050329 -0.373741 -0.129282
-0.115902 0.370571 -0.242438
0.038031 -0.225816 -0.063825
0.0741962 -0.0140215 -0.258475
-0.135831 0.297887 0.206094
0.0974948 -0.0150889 0.0502591
-0.114291 0.0133749 0.0277301
-0.111898 0.0737038 0.00639481
-0.087217 -0.167919 -0.0632604
-0.0332376 0.370571 0.253872
-0.114291 -0.176199 0.0302179
-0.126258 -0.0534482 -0.0474479
0.0714041 -0.124428 -0.110091
0.109616 -0.0578055 0.244115
0.00763863 -0.328546 -0.262551
0.108284 -0.0872953 -0.238014
-0.0063526 -0.205974 0.000816545
0.0747786 -0.131907 0.246954
0.113071 -0.0649592 -0.253094
0.0747786 -0.348242 -0.0058269
0.019174 -0.262437 0.210609
-0.00593301 -0.373741 -0.19041
-0.124174 -0.387077 0.263262
0.10226 -4.90099e-05 -0.129237
0.110678 0.330011 -0.184593
0.108752 -0.1879 0.244115
-0.135831 0.0510155 0.196219
0.100193 0.370571 0.210176
-0.062419 0.182828 -0.260868
-0.135831 0.0591474 -0.251382
-0.0589014 0.373042 0.258475
-0.00480491 0.333672 -0.260868
-0.0897246 0.356211 0.262237
0.0236057 0.280707 -0.260868
0.131308 -0.0477253 -0.209727
0.0373023 -0.390494 -0.253264
-0.0287206 -0.157616 -0.0322307
-0.129314 0.115147 0.222576
0.107711 -0.338321 -0.129237
0.0157038 0.337065 0.196598
-0.102773 -0.0635216 -0.198905
-0.111898 0.244044 -0.0377276
0.108284 0.208435 -0.108333
-0.111898 0.027318 0.114424
0.0586479 0.372965 -0.178886
-0.0507727 0.370571 -0.0841247
-0.0187424 -0.128722 -0.260868
0.108284 -0.11455 0.248524
0.00710791 -0.0358763 0.260869
-0.109419 -0.181352 -0.169901
0.0467499 -0.390494 0.162005
0.109274 -0.230984 -0.124451
-0.00218431 0.0840624 -0.107698
0.0604188 -0.0647825 0.142594
-0.121471 -0.302515 0.247149
-0.0941464 0.370571 0.178732
-0.112677 -0.0123551 0.106542
-0.0948087 -0.378528 0.0660173
-0.135831 -0.0924932 -0.245104
0.0929872 -0.390494 -0.00745895
0.0628122 -0.288565 -0.0174382
-0.138224 -0.304677 -0.148602
-0.135831 0.336107 0.0986786
0.066518 -0.0123551 0.118209
-0.111898 0.0428829 0.157405
-0.111898 0.318393 0.150454
-0.126276 0.372965 0.0709929
-0.103182 0.0238625 -0.107698
-0.0367479 -0.251684 0.152731
0.0465693 0.38488 0.265655
0.110678 -0.14996 -0.14496
-0.0572113 -0.314459 0.115583
-0.0887661 0.191096 0.260869
0.0933559 0.157199 0.258475
-0.13409 0.370571 -0.0409588
0.014289 -0.376135 -0.168525
-0.126258 -0.0918378 -0.0675061
-0.104521 -0.0123551 0.21399
0.0559412 -0.23434 0.0882318
-0.138224 0.0513543 -0.228853
0.0735815 0.0614834 0.258475
0.108284 -0.133036 0.0781564
0.108284 -0.161167 0.119167
0.115465 -0.335319 -0.18763
0.108284 -0.348503 -0.184788
0.108284 -0.112499 0.131958
0.108284 0.213065 -0.2084
0.0633702 0.00937529 0.224969
0.00273491 -0.0923167 0.224969
0.0884627 -0.333198 -0.258582
-0.114458 0.124398 -0.110091
-0.138224 0.275963 0.115708
-0.109908 -0.373741 -0.223964
-0.128838 -0.0366796 0.263262
-0.0267666 -0.233463 0.0698158
0.108284 0.104906 0.0823652
0.000912374 -0.390494 -0.135803
0.0126032 0.289999 -0.260868
-0.09835 0.372965 -0.0593461
-0.0408912 -0.165145 -0.202096
-0.114291 0.327348 -0.0436927
-0.138224 0.150246 -0.083319
0.00647795 0.318759 -0.258475
-0.131406 0.18775 -0.107698
-0.00734305 0.379028 -0.280015
-0.0844484 -0.390494 -0.093806
0.0396059 -0.241161 0.224969
0.00026102 0.120181 0.222576
-0.114291 0.201414 -0.0513563
0.0796101 -0.144456 -0.244115
-0.0840942 -0.167919 -0.0395852
-0.126175 -0.188943 0.224969
-0.0631584 -0.304593 -0.263261
-0.135831 0.139495 -0.260276
0.00204585 0.306898 -0.110091
0.0583075 -0.390494 0.118017
0.09217 -0.0854336 0.258475
0.0604188 -0.0552577 -0.0867366
-0.138224 -0.337274 -0.196736
-0.115457 -0.390494 0.110888
0.108284 -0.286826 0.200468
0.0161261 -0.373741 -0.155427
-0.135831 -0.219356 -0.18296
0.108284 -0.274467 0.118231
-0.0718634 -0.366327 0.00315361
0.00432129 -0.222422 -0.260868
-0.124174 0.229695 0.224969
-0.0614848 -0.126221 0.210609
0.115465 -0.0447212 0.224596
0.0604188 -0.0839716 0.183343
-0.116684 -0.0294512 -0.259093
-0.0354638 0.189206 0.222576
-0.111898 0.105237 0.0145524
-0.0957938 -0.293635 0.263262
-0.107384 -0.0123551 -0.10517
-0.111898 0.171907 0.0748232
-0.00908159 -0.0639659 -0.110091
-0.114291 0.225387 0.0920578
-0.122917 -0.0841536 0.0818614
-0.0358457 -0.340174 -0.258475
-0.0851645 -0.344848 -0.258475
0.108284 -0.281866 0.0795683
-0.0464002 -0.247656 0.198585
-0.111898 0.217133 -0.039682
0.00359449 0.337065 0.105772
-0.108859 0.231006 0.224969
-0.0132764 -0.390494 -0.0795662
-0.126258 -0.19639 0.096531
-0.111898 0.288768 0.166746
0.0747786 -0.332136 -0.00413863
-0.00631449 -0.0940166 -0.258475
-0.130653 0.172639 -0.263261
-0.138224 -0.189163 -0.173325
-0.121471 0.243739 0.2418
-0.0307697 -0.299237 -0.110091
0.106242 -0.186944 0.0646189
0.0108811 0.372965 0.0601771
-0.0964225 0.339458 0.0832912
0.0498435 -0.00980326 0.224969
-0.00338757 -0.251684 0.160132
-0.135831 0.3106 0.183558
-0.016074 -0.363427 -0.0580845
0.0862201 -0.260993 0.258475
-0.0416064 0.144583 -0.260868
-0.0438605 -0.238712 0.136784
0.108284 0.245151 -0.0915201
0.11237 -0.338504 -0.15628
-0.135831 0.0924194 -0.158989
-0.113074 -0.0332373 -0.244115
0.0963491 0.274415 0.0502591
0.127431 -0.374723 0.115963
-0.0968186 -0.372053 -0.157346
0.0753103 -0.104929 -0.258475
-0.0835843 -0.167919 -0.00462045
0.0056903 -0.0904732 -0.0981248
0.124872 0.390494 -0.270144
0.0848446 0.339458 -0.103477
0.017577 -0.370073 -0.0719488
0.110678 -0.262841 0.0172305
-0.020727 -0.326801 0.0764027
0.110678 -0.266059 -0.0556056
-0.0445342 0.356211 -0.120588
-0.0889841 -0.185282 0.224969
0.0785197 0.339458 0.0859508
0.0747786 0.189857 0.244594
-0.108701 0.031007 -0.244115
0.107374 0.131126 0.0502591
-0.135831 0.212318 -0.204574
0.0542751 -0.151587 0.260869
-0.0518651 0.339458 0.218327
-0.111898 0.125604 0.0830753
-0.0905707 0.159419 -0.258475
0.0213189 -0.116154 -0.0981248
-0.138224 0.277901 0.138329
0.103905 0.111195 -0.258475
0.0138018 -0.350252 -0.0981248
0.0515466 -0.0985135 -0.151272
0.0303358 0.0136258 0.258475
0.0526736 -0.345745 0.0558312
0.096137 -0.319717 -0.143597
0.0747786 0.0589157 -0.113234
0.0057998 0.337065 -0.090445
-0.105728 0.0788166 -0.260868
0.081634 -0.0100501 0.222576
-0.00959887 -0.225503 -0.260868
-0.100153 -0.189608 0.190651
0.115465 -0.0385526 -0.21579
0.0837067 0.00715299 0.258475
-0.114291 -0.268156 -0.0160436
0.0593065 0.370571 -0.0551489
-0.100812 0.363949 -0.143597
-0.128419 -0.324461 0.263262
-0.125254 -0.373741 -0.151406
-0.114291 0.0292153 0.0789988
-0.115161 -0.390494 0.232431
0.115465 -0.028472 0.0271959
0.0566885 -0.308531 0.229365
-0.00659294 -0.0482709 -0.224104
0.108284 0.0554778 -0.198867
0.0747786 -0.0563368 0.0716912
0.0144179 0.118402 0.258475
-0.0868645 -0.351198 0.265655
0.108284 0.310309 0.0430844
-0.107072 -0.069712 0.177524
0.0855462 -0.175876 -0.258475
-0.00441072 -0.390494 0.130465
-0.114291 0.299158 0.0568518
-0.121471 0.120752 0.229027
-0.0242606 -0.187308 0.224969
0.110678 -0.306362 -0.227433
-0.0356329 -0.308531 0.229561
-0.111788 -0.376135 -0.114122
0.100411 0.293879 0.263262
-0.135831 0.207822 -0.02013
0.108284 0.166993 -0.213529
0.0747786 -0.299144 0.089183
0.0820001 -0.109704 0.258475
-0.114291 0.153883 0.123224
0.0747786 -0.220275 -0.0949916
0.0190395 0.337628 -0.258475
0.00942402 -0.378528 -0.0152925
0.0747786 -0.247019 0.110282
-0.000207005 -0.344665 0.224969
0.0984591 -0.330622 -0.265655
0.110678 0.254872 -0.24242
0.131461 -0.0161519 -0.152455
0.107508 0.372965 -0.198516
-0.126617 -0.343425 -0.265655
-0.111898 0.265014 -0.097013
0.0430278 0.370571 0.0532144
0.0468252 0.370571 0.106929
-0.0964775 -0.159825 -0.222835
-0.0848182 -0.100125 0.130813
-0.135831 -0.10457 -0.190736
