ply
format ascii 1.0
comment Created by Open3D
element vertex 1618
property double x
property double y
property double z
end_header
-0.125037 0.0635341 -0.142971
-0.168793 0.0295151 -0.214605
0.211388 -0.0690321 -0.119204
-0.168793 0.0079395 -0.0854442
0.0761072 -0.005968 -0.21713
0.200591 -0.00329282 -0.258954
-0.141964 -0.0690321 -0.350359
-0.168793 0.0298618 -0.353564
0.202955 0.112682 0.377102
-0.168793 0.0705911 -0.235478
0.19924 -0.0690321 0.16678
0.105927 0.0471681 0.19223
0.196538 0.00737334 0.3261
-0.118686 0.0160821 0.0436858
0.0266935 0.0964075 0.334032
-0.0478741 0.0471681 0.143843
-0.168793 -0.0676568 -0.26161
0.125313 -0.0690321 0.352357
-0.0567861 -0.0690321 -0.0668315
0.0861939 -0.005968 -0.21021
0.0159516 0.0857057 0.334032
-0.125037 0.0419873 -0.152496
0.0114218 -0.0690321 0.0596322
-0.168793 -0.0307043 -0.0260882
-0.125037 0.00107061 0.151466
-0.120032 -0.0690321 0.358427
0.212274 0.0657063 -0.341416
0.212274 -0.053885 0.0581194
0.10432 -0.005968 0.288897
0.0601322 0.0471681 -0.0154652
-0.125037 0.0639798 -0.00845964
0.169099 0.045088 -0.286982
-0.0841858 -0.0576594 0.366025
0.134431 -0.005968 -0.0455879
-0.110315 0.0295327 -0.373504
0.205895 0.0261522 -0.197824
-0.0885717 0.04635 -0.0489193
-0.125037 0.0907747 -0.0103409
0.104357 0.0471681 0.0392403
-0.0063883 -0.0690321 0.185748
-0.129065 -0.120038 0.341808
-0.00792222 -0.0690321 -0.104588
-0.168793 0.0668812 0.25466
-0.129666 -0.0690321 -0.182844
0.201356 -0.005968 0.147029
-0.126375 0.125667 0.256498
-0.0699409 -0.005968 0.287464
-0.0706667 0.0471681 -0.167433
0.178604 -0.005968 -0.0985358
-0.168793 0.0240901 -0.218939
-0.0276959 0.0471681 0.0686092
0.205909 0.0262299 -0.292977
-0.100832 0.0207043 0.334032
0.162407 0.022626 -0.330742
0.11425 0.0476922 0.375062
0.212274 -0.0357888 -0.241823
-0.0649672 -0.0690321 -0.13859
-0.0926272 0.161398 0.363565
-0.199327 0.0916312 0.116156
-0.104036 -0.005968 -0.250661
-0.145551 -0.0690321 -0.104572
0.177514 0.16485 -0.376346
-0.156273 0.0173993 -0.372463
-0.0861788 -0.005968 -0.0225094
-0.168793 0.066321 -0.238484
0.0206003 0.0419894 0.334032
-0.119135 0.0333184 0.161077
-0.139864 0.153019 -0.328143
-0.156662 0.16259 -0.0625615
-0.137386 -0.0690321 0.358163
0.0208366 0.0452211 -0.284138
-0.125037 0.100506 0.082051
0.118938 -0.0690321 0.262835
-0.168793 0.0569051 0.292359
-0.117655 0.0103625 -0.254385
-0.119153 0.0186772 -0.0572998
-0.0184796 -0.005968 -0.290376
0.198998 -0.0690321 -0.128167
0.200685 -0.00277265 -0.278416
-0.168793 -0.0571228 0.265896
-0.117862 0.161013 -0.398405
0.122458 -0.005968 0.219398
0.212274 -0.0439832 -0.294541
-0.0553534 -0.00131539 0.322911
0.0587784 0.0468719 -0.248848
-0.101082 -0.0690321 0.0596093
-0.0495888 -0.005968 -0.313597
0.0628034 0.044305 0.304676
-0.0124564 0.0471681 0.00901583
0.18864 -0.005968 -0.258572
0.138477 0.0138856 0.32849
-0.125037 0.00674482 -0.0786284
-0.133906 0.146085 -0.289216
0.038521 -0.0690321 0.150582
0.176701 -0.0800596 -0.359798
0.12539 -0.0690321 -0.320258
0.20295 0.00979976 -0.0339399
-0.212274 0.118286 0.174353
-0.125037 0.0614579 -0.0904516
-0.0978632 -0.005968 0.0759244
-0.0714082 0.0455059 0.279005
-0.168793 0.0784175 0.329881
-0.030947 -0.0690321 -0.29535
-0.111 0.0764098 0.334032
-0.168793 -0.0100533 0.0324975
-0.208913 0.141171 0.172103
-0.125037 0.120152 0.226273
-0.144634 0.0955928 -0.41169
-0.1094 0.0780689 0.377667
0.0854312 0.140313 0.418638
0.0643031 -0.0690321 0.350647
0.00920136 0.12939 0.421269
-0.125037 0.00277954 -0.333182
0.0142849 -0.0690321 0.00711168
-0.119078 0.0334498 0.280834
-0.125037 0.046997 0.0356853
-0.0676266 -0.0690321 0.209496
-0.0460644 -0.0690321 -0.143736
-0.125037 0.0774009 -0.296344
0.0258541 -0.005968 -0.191504
-0.0622684 -0.0690321 0.0813531
-0.125037 0.00137119 0.320185
-0.125037 0.110805 0.0548179
0.212274 -0.0237975 -0.318746
-0.092665 -0.005968 -0.164183
-0.168793 -0.0586703 -0.125881
-0.212274 0.118985 -0.014854
0.0186143 -0.005968 -0.306429
0.198454 -0.005968 -0.244688
-0.00808377 0.0488679 0.334032
-0.132281 -0.155184 0.341808
0.212274 0.143477 -0.344726
0.069406 0.0471681 -0.0901468
-0.149331 -0.0690321 -0.00626743
0.144466 -0.0690321 0.173827
-0.168793 0.0192951 0.0603899
0.0230471 -0.0690321 -0.311127
0.121593 -0.005968 0.0152762
0.121941 0.0471681 0.0968493
-0.14279 -0.0851289 -0.359075
-0.0963824 -0.0478096 0.366869
-0.0209342 -0.00487586 0.334032
0.0118156 0.0471681 0.0502361
0.0313506 -0.005968 0.218944
0.151498 -0.0690321 -0.161577
-0.182287 0.161849 0.3936
-0.0681219 -0.0690321 0.30276
0.193294 0.16453 -0.378189
0.0273561 -0.005968 -0.210498
0.107185 -0.0453293 0.367082
0.141059 -0.005968 -0.159862
-0.115733 -0.0400203 0.367538
-0.168691 0.0415704 0.374536
0.133583 0.116172 -0.421269
0.139234 -0.005968 -0.0399492
0.19814 0.114015 0.334032
-0.125037 0.0830904 -0.123822
0.0563957 0.162063 0.392367
0.147126 -0.0690321 0.27177
-0.14279 -0.0998402 0.345107
-0.195671 0.156745 0.031411
-0.125037 0.0361826 0.111923
0.136321 0.0228929 0.372934
0.204648 0.0192275 -0.28221
-0.125037 0.106062 -0.0450595
-0.0309202 -0.005968 -0.0129663
0.200329 0.0430248 -0.172057
0.212274 -0.0510404 0.142854
-0.115238 -0.005968 -0.283871
-0.107728 -0.005968 0.0138626
0.0948605 0.093394 -0.409821
0.0924426 0.0642059 -0.334032
-0.11949 0.137022 -0.339559
0.134801 -0.0690321 -0.0321448
0.207489 -0.005968 0.244949
0.0830494 0.0471681 -0.130879
0.0999959 -0.0690321 -0.149511
-0.173011 0.08021 0.30915
-0.176063 0.0807411 0.142132
-0.187324 0.161375 0.333695
0.00258921 0.0471681 0.0252025
-0.125037 0.0852277 -0.14529
0.100737 -0.005968 -0.115055
0.0590742 0.118778 -0.334032
-0.168793 -0.0298586 -0.325625
-0.0759885 0.0496879 -0.375233
0.0806407 0.0471681 -0.157202
0.0603319 -0.005968 -0.0215383
0.20664 -0.0690321 0.0858969
0.179321 -0.0690321 0.363695
-0.125037 0.00221726 -0.172566
-0.0686908 0.0452766 -0.28295
0.0914274 -0.0690321 0.199903
-0.168793 0.0681555 0.263762
-0.0196443 -0.0690321 0.0228641
0.0876317 0.157537 -0.356789
-0.125037 0.0654948 -0.266143
0.135203 -0.0690321 -0.181677
-0.168793 0.008724 -0.304487
-0.141684 -0.0690321 -0.0553231
-0.168793 0.0401472 -0.109351
0.191641 -0.0690321 -0.254807
-0.20219 0.149078 0.298073
-0.178842 0.162851 0.231298
-0.0304089 -0.0660765 0.365302
-0.0949785 0.0456594 0.121265
0.212274 0.0733747 0.350144
-0.0749456 -0.005968 -0.151212
-0.0900614 -0.0690321 0.0407504
-0.0848163 0.158182 -0.357921
0.00453189 -0.005968 -0.0853772
0.188603 -0.124385 -0.347256
0.192199 -0.005968 0.20229
-0.0699547 -0.014269 -0.369747
0.028116 0.0471681 0.0311519
0.173829 0.046365 0.232001
0.0797457 -0.0690321 -0.0288458
0.0689755 -0.0690321 -0.0592075
-0.0730632 0.149869 0.344297
0.0411175 0.0330512 -0.329491
0.0566882 -0.0690321 0.347418
0.200243 0.0483473 0.375118
0.205038 0.0213935 0.29335
0.193184 0.0442784 0.256393
-0.130965 0.138109 -0.0603092
0.0420286 0.0471681 -0.231409
0.174757 -0.005968 0.306366
0.201651 -0.0690321 0.0504767
0.0107176 0.0471681 -0.0901786
0.141593 0.0471681 0.204439
-0.0962233 0.0831397 -0.398843
0.203728 0.131702 0.358008
-0.0367089 0.0460755 -0.265874
-0.00605228 0.0388339 -0.324391
0.0986475 -0.0690321 -0.323082
0.20513 -0.0690321 0.363218
-0.125037 0.1212 0.0588129
-0.162673 0.163984 -0.381329
-0.137093 0.15144 -0.193817
-0.179883 0.16267 -0.131448
-0.168793 -0.0371195 0.326451
-0.0610423 -0.0690321 -0.233627
0.0548119 0.00634339 -0.324766
0.141463 0.158945 0.402795
0.00443187 0.0471681 0.188483
0.129234 -0.0690321 0.0263158
-0.125037 0.0085149 0.26076
-0.0534104 -0.005968 -0.232755
-0.0543915 0.0471681 0.207116
0.00477324 -0.005968 -0.0401186
-0.144862 -0.0690321 -0.184667
0.133453 0.0879074 0.334032
0.143886 0.00194516 0.371137
-0.158155 -0.0690321 -0.22609
-0.0796283 -0.005968 0.171299
-0.157563 -0.0690321 -0.305388
0.0958709 0.0471681 0.189991
0.164932 -0.121603 0.357043
-0.0406266 -0.0690321 0.0747883
-0.0480924 0.114507 -0.334032
0.133577 -0.0690321 0.332572
-0.115472 -0.005968 -0.00831079
0.0212839 0.0471681 0.0297872
-0.0717449 -0.0690321 0.0734866
-0.129695 0.134666 0.236297
0.133961 0.0345778 -0.373937
-0.0773734 -0.0690321 0.238019
0.0271608 -0.005968 -0.143853
-0.168793 0.03476 -0.174714
-0.123687 -0.0690321 -0.350298
-0.133336 0.14454 0.250504
-0.125037 0.0614472 -0.279111
0.0822614 -0.0690321 0.0492908
0.0425278 -0.005968 -0.0648724
0.00620717 -0.0690321 -0.124734
-0.0882607 -0.0659643 0.365312
0.17402 0.0463444 -0.111527
-0.0729779 0.0881632 -0.334032
-0.124183 -0.15792 -0.359798
0.11152 0.0471681 0.0691509
-0.0535728 -0.005968 -0.00485173
-0.116349 0.0522281 0.334032
-0.120497 0.0261396 0.281757
-0.137173 -0.0690321 -0.004393
0.131861 0.0471681 0.239385
-0.0449841 -0.0690321 0.0618453
-0.036097 -0.0690321 -0.157774
0.144068 0.0471681 0.0881215
-0.131876 -0.0690321 -0.211684
-0.125037 0.0910345 0.0125992
-0.0581502 0.0787275 0.377724
-0.0486752 -0.0690321 -0.223464
-0.0865381 -0.0690321 0.342924
0.212274 -0.0431028 -0.0218254
-0.131045 0.138328 0.0292801
-0.168793 -0.0656437 -0.0884062
-0.168793 -0.00902092 -0.168408
0.142223 0.134977 0.338804
-0.129956 -0.0690321 -0.3062
0.03575 -0.005968 0.309046
0.0746214 0.0471681 -0.00437307
0.12937 0.0471681 0.0328071
0.0277326 -0.0690321 -0.0694232
0.205664 0.161996 0.392751
0.165796 0.0471681 -0.10342
-0.0993739 0.125325 0.335244
-0.168793 -0.0206396 -0.0345822
-0.168793 0.0651618 0.349334
-0.11655 0.00422292 -0.283393
0.0392646 -0.005968 -0.0688798
-0.118206 0.0134196 0.300064
-0.212274 0.127728 -0.09652
0.0978512 -0.0690321 0.270449
-0.130423 -0.0772151 -0.359798
-0.147042 0.0816946 -0.390538
0.100974 -0.005968 0.144842
0.00826722 0.122101 0.334055
0.0344565 0.147821 -0.343542
-0.0211357 -0.0109059 -0.370035
0.099335 -0.0690321 0.011744
-0.212267 0.137226 -0.362146
0.202955 0.131853 -0.372748
0.0636483 -0.0690321 -0.0415632
0.080613 0.0471681 -0.152472
0.164932 -0.121548 -0.35196
0.166361 -0.0690321 0.279907
0.13417 0.0819168 -0.391815
-0.148263 0.157804 -0.207734
0.0704233 -0.0690321 0.0693728
-0.113767 0.0852422 -0.334032
-0.151284 -0.0690321 -0.0318994
-0.131229 -0.0690321 0.333031
0.0739762 -0.0305468 -0.36835
0.193464 0.0442482 0.0969961
0.0528866 -0.0690321 0.362428
0.212274 0.108539 -0.357236
-0.156356 -0.0690321 0.211927
0.135074 0.0471681 -0.108724
-0.125037 0.0219829 -0.0759014
0.0474166 0.0337718 -0.334032
0.139756 0.0147814 0.372239
0.170236 -0.146579 0.341808
0.189975 0.0446244 -0.27647
0.112609 -0.0690321 0.238473
-0.0644536 0.0471681 0.150818
0.117003 -0.0690321 0.231116
0.0875712 0.132142 -0.337759
0.113367 0.164722 0.377086
0.0052643 0.0038708 -0.371303
0.212274 0.0248624 -0.341241
0.117706 0.0770964 -0.334032
0.0967395 0.0471681 0.0548013
-0.113045 0.0437118 -0.130282
-0.15736 -0.0690321 0.26878
-0.192339 0.160503 -0.375568
-0.0863459 0.090903 -0.334032
-0.203346 0.147719 0.0654083
0.142379 0.04656 0.256473
-0.0846684 -0.0690321 0.252938
0.188603 -0.0935295 0.344791
-0.168793 -0.0509952 -0.284871
0.0816499 0.0817886 0.391078
-0.0975841 -0.005968 -0.293438
0.00655136 0.11258 -0.334032
-0.168793 0.0159786 0.301119
-0.168793 -0.0272694 0.290354
-0.114214 0.109173 0.421269
-0.131852 -0.0372059 -0.367779
0.0557329 -0.0690321 -0.0707756
0.122763 0.0471681 -0.0686181
0.126782 -0.0690321 0.0949773
0.149254 -0.005968 0.116664
-0.0389977 0.121577 0.421269
-0.129747 0.0873677 -0.404697
0.211406 -0.0437233 0.36722
0.193321 -0.005968 -0.276196
-0.168793 -0.0289682 -0.0433545
0.0907046 -0.0690321 -0.144566
-0.039212 0.164794 0.369526
0.0604219 0.0469251 -0.247711
-0.212274 0.129319 -0.39715
-0.212274 0.120502 -0.140014
-0.0974154 0.0449408 0.291086
-0.116265 0.108933 0.334032
-0.00520678 -0.0690321 -0.321328
-0.125749 0.106202 0.420711
-0.168793 0.0294267 0.109422
0.0549162 0.0471681 -0.206048
0.209673 0.109906 -0.421269
-0.0775805 -0.0690321 -0.244166
-0.212274 0.127822 -0.264115
0.0744706 0.0911461 0.407909
-0.0440994 -0.005968 0.287567
-0.0520724 0.0244025 0.33235
0.138311 -0.005968 0.0639868
0.212274 -0.0345505 -0.295552
0.105958 0.061513 -0.334032
0.0904591 -0.0690321 0.0534949
0.0714666 0.117596 0.421269
-0.0699335 0.14959 0.410749
0.113935 -0.0690321 0.277905
0.208895 0.103806 0.364823
-0.10718 0.0443441 0.220702
-0.134945 0.161976 -0.392866
-0.153041 -0.0690321 -0.260621
0.0922771 0.0450388 0.288992
0.0691676 0.0801322 -0.381559
-0.125037 0.0485219 -0.0688537
-0.193546 0.0848321 0.357156
0.121732 -0.0690321 -0.358818
-0.125037 0.108787 -0.0950061
-0.191111 0.0833594 0.394766
-0.128471 -0.0690321 -0.226376
-0.0182247 -0.005968 -0.1216
0.212274 0.0414256 0.338309
-0.0570189 0.11588 0.421269
0.0979366 0.0471681 0.0561125
0.13928 0.110313 0.334032
0.188941 -0.0690321 0.188808
-0.0767214 -0.0690321 0.126921
-0.112755 0.156353 -0.354711
0.170371 0.0317464 -0.330642
-0.0293155 0.0471681 0.176369
-0.0120205 0.0832099 0.399246
-0.0759221 -0.0264743 -0.3687
0.0453894 -0.005968 0.170272
-0.168793 0.019781 0.0741374
-0.0640323 -0.005968 0.00217545
-0.0758122 0.124371 -0.334893
-0.144065 0.109452 0.421269
-0.0427518 0.149822 -0.410552
0.194814 -0.0690321 0.0885654
-0.176009 0.0807317 -0.133562
0.144118 -0.0690321 0.229248
-0.108724 -0.005968 -0.00435059
0.174758 -0.0690321 -0.35748
0.176993 -0.0690321 0.264639
-0.00964836 -0.005968 0.254223
0.16914 0.0468705 0.0696418
-0.115322 0.0306653 0.373601
-0.109394 -0.0690321 0.354369
-0.132379 0.141946 0.0877555
-0.168793 -0.0673231 0.20324
0.00293868 0.0471681 0.237058
-0.168793 -0.0553713 0.153852
-0.124345 0.0323153 -0.334032
0.140906 0.0468763 0.249711
0.127013 0.0471681 0.0225764
-0.168793 0.00252969 -0.186206
0.146128 0.132884 0.421269
0.0924134 -0.005968 -0.246262
0.202183 -0.005968 0.130536
-0.125037 0.0119656 -0.0521475
0.0421942 -0.005968 0.234404
-0.0511701 -0.005968 0.12839
0.111729 0.148563 -0.343815
0.143866 0.159808 0.360774
0.0878872 0.162405 0.365333
0.150427 -0.0690321 0.076021
0.0694879 0.0471681 -0.199924
-0.0172809 -0.005968 -0.0147976
0.164932 -0.0844834 0.354297
0.212274 -0.0280917 0.148849
-0.212274 0.115705 -0.418549
-0.112956 -0.0690321 0.194478
0.187779 -0.0690321 -0.039937
0.0557799 -0.005968 -0.0503448
-0.0882885 -0.00744788 -0.370332
-0.125037 0.0188923 -0.31172
-0.168793 0.0706327 0.0851298
0.212274 -0.0468161 -0.15659
-0.104606 0.0817307 0.390745
-0.125037 0.0355728 0.176844
-0.125037 0.0599337 0.261251
-0.125037 0.0833123 0.074939
0.157453 0.164119 0.380549
-0.0058501 -0.0422245 0.367349
-0.212274 0.129077 0.362
0.0763785 -0.005968 0.0578969
0.0865938 0.0463642 0.260658
-0.125037 0.0426739 -0.235509
-0.168793 0.0495823 -0.329741
0.13172 0.045442 0.280372
-0.168793 0.0525559 -0.331089
-0.0602967 -0.005968 0.291769
-0.0539922 -0.005968 -0.071993
-0.14279 -0.143178 -0.357334
-0.170781 0.079822 0.308876
0.143416 0.0363887 -0.374092
-0.104278 0.0133439 0.372115
-0.125037 0.0565815 0.0464036
-0.0539737 -0.0690321 0.252507
0.046916 -0.0303848 -0.368364
0.11295 -0.005968 -0.0732898
-0.125037 0.0374039 0.202154
0.00043124 0.0452807 -0.282862
-0.0874973 0.0549602 0.334032
0.148842 -0.005968 0.176756
0.212274 -0.0518057 -0.10338
0.204935 0.0323832 0.222712
0.0766465 -0.00634036 0.370427
-0.168793 0.0789911 0.339155
0.0156621 0.0471681 0.105916
-0.0775216 -0.0690321 -0.31483
-0.120778 -0.005968 -0.166447
-0.125037 0.108085 0.294479
-0.168793 -0.0646667 0.0125292
0.195203 0.0440608 0.306495
0.164346 -0.005968 0.103728
0.176815 -0.005968 0.227971
0.212274 0.127506 0.410235
-0.199183 0.152614 -0.297281
-0.138048 0.151984 -0.0185586
-0.168793 0.0405333 0.339876
0.0346721 0.0859682 0.403507
-0.100604 -0.0690321 -0.215199
-0.151377 -0.0690321 0.2661
-0.113719 -0.0690321 -0.348965
0.0548328 -0.005968 0.292066
-0.168793 -0.035142 -0.335037
0.186891 0.0930814 -0.409555
0.212274 -0.0293371 0.047402
-0.14279 -0.103827 0.345395
-0.0173275 0.0443823 -0.302067
0.187798 -0.125607 0.359798
-0.15177 -0.0690321 -0.0411536
-0.12214 -0.005968 -0.184234
0.203424 -0.0690321 0.310481
-0.0352678 0.0798302 -0.379823
-0.0618822 -0.0690321 -0.299218
-0.0976985 0.0886176 -0.40576
0.0945794 -0.005968 0.300149
0.0827686 0.121192 -0.421269
-0.153522 0.164474 -0.378514
0.0399491 -0.0690321 -0.212492
-0.0439258 -0.0690321 0.0450771
-0.168793 0.0673738 0.199313
0.212274 0.106343 -0.414292
-0.0228174 0.000778392 0.371037
0.194254 -0.005968 0.158746
0.0961304 -0.0690321 -0.26448
0.212274 -0.0632094 -0.195817
0.174226 -0.005968 0.107517
0.0445827 0.0694405 0.376927
0.159104 0.0811527 0.387423
-0.0399669 0.160297 -0.401646
-0.0835921 0.15588 0.405401
-0.168793 -0.0687876 -0.0772909
-0.119774 0.0221262 -0.239084
-0.168793 0.0330152 -0.133955
-0.171793 0.0799981 0.123043
-0.052883 -0.0690321 0.110421
-0.212274 0.132083 0.107178
0.0573261 -0.0462826 -0.367
-0.125037 0.0996356 -0.119157
0.0661183 0.044964 -0.334032
0.0294385 0.0519566 0.334032
0.114507 -0.0690321 0.0733376
0.206561 -0.0690321 0.022341
0.0701252 0.002798 -0.323464
-0.202803 0.148356 0.155908
0.0993401 0.000106289 0.334032
0.162118 0.0432234 -0.334032
-0.110354 0.142077 -0.417137
-0.212274 0.12488 -0.145009
-0.140168 -0.135687 0.341808
0.212274 0.132729 -0.412233
0.112627 -0.005968 -0.188405
-0.0277263 0.0471681 0.164319
-0.20138 0.15003 -0.0539846
-0.00995538 0.0130505 0.334032
-0.0388038 -0.005968 -0.270416
0.0588642 0.080532 0.383856
-0.00409042 0.0118031 0.327725
-0.138514 -0.0690321 -0.263181
0.17453 0.00554802 0.334032
-0.0640775 -0.0690321 0.301857
-0.105582 -0.0690321 -0.0400451
0.0397924 -0.0690321 0.0233628
0.0719426 -0.005968 0.272864
-0.125037 0.00614279 0.0138193
0.0793443 0.0752725 0.377427
0.0114086 -0.0690321 -0.226219
0.164932 -0.101967 -0.345552
0.0699157 -0.00017362 0.32333
-0.125037 0.0211166 0.207605
-0.209176 0.103215 -0.136448
-0.105306 0.044546 -0.233985
-0.0544371 -0.0690321 -0.0164679
-0.10527 -0.0690321 -0.188571
-0.119652 0.0214463 -0.0513128
-0.145976 -0.0690321 0.0461061
-0.125037 0.0396247 0.0403031
0.0175764 -0.005968 0.294552
-0.0334335 -0.0690321 0.143034
0.0793348 -0.005968 0.145761
-0.122874 -0.0828526 -0.341809
-0.00353686 0.103772 0.334032
-0.142665 -0.0690321 0.16705
0.136009 0.165541 0.372378
-0.136115 -0.0325777 -0.368176
-0.0307131 -0.0690321 -0.319868
-0.125037 0.00425764 0.0622552
-0.0371791 -0.0690321 0.0874623
-0.125037 0.00106037 -0.318178
-0.125037 -0.00385237 -0.222808
0.1686 -0.0807167 0.359798
0.142262 0.139908 0.340623
0.0786259 0.0471681 -0.220231
-0.0737215 -0.005968 0.225955
0.0617983 0.0471681 0.223138
-0.121458 -0.005968 -0.0790773
-0.100203 0.0474487 0.334032
-0.186212 0.161569 0.127004
0.0550362 0.0377513 0.326301
-0.0929783 0.045875 -0.0650743
-0.125037 0.0131751 -0.0651628
0.0772286 0.0695728 0.376938
0.0175411 -0.0690321 -0.0130491
0.212274 -0.0359766 0.192011
-0.13235 0.141866 0.279057
0.145939 -0.0504914 0.366639
0.178815 -0.0690321 0.337461
-0.212274 0.123079 0.244259
0.0978327 0.152941 0.348723
-0.196396 0.0881847 -0.173672
0.0892652 -0.0690321 0.151555
-0.168793 0.0446169 0.34339
0.169734 -0.005968 0.0132251
0.129553 -0.005968 -0.253041
-0.0502928 -0.0690321 -0.230321
-0.0250224 -0.005968 -0.301227
-0.11507 -0.00399393 0.194484
0.20442 0.0179646 -0.0719956
-0.168793 0.0217065 -0.0381366
-0.168793 0.00344748 0.329971
0.212274 -0.0060985 -0.23683
-0.141157 0.153756 -0.125925
-0.0052798 -0.00486258 0.370553
-0.124251 -0.005968 0.324437
0.166212 -0.0690321 -0.0737847
0.0936271 0.0665856 0.376682
0.0923482 0.0985395 -0.334032
0.0239774 0.0471681 -0.0716491
0.1599 -0.0682798 -0.365114
0.0387776 0.131823 0.337641
-0.163074 -0.0690321 0.326663
-0.0581232 -0.0690321 0.00549916
-0.0783892 0.0471681 -0.236183
-0.0330549 0.0471681 -0.147235
-0.0100339 0.0448658 0.292688
-0.205822 0.0992698 0.398081
0.0559451 -0.0690321 0.273393
-0.196102 0.123068 0.421269
0.0842394 -0.005968 -0.0303121
0.194905 -0.005968 -0.0304438
-0.150456 0.159053 0.148215
-0.188054 0.161249 0.393356
0.155867 -0.00309433 0.334032
0.212274 -0.014779 0.117808
0.212274 -0.00959353 0.0909108
-0.0953227 -0.005968 -0.218208
-0.196049 0.1563 -0.342742
0.0253131 0.00566034 0.334032
-0.00398867 -0.0690321 -0.247408
0.132621 0.0463239 -0.260563
-0.175852 0.163371 -0.151445
-0.120699 0.0272571 0.202806
-0.117397 0.037333 0.294631
-0.029109 0.0460043 0.268351
0.0252032 -0.005968 0.054617
0.212274 -0.0292402 0.0610621
0.159291 -0.0690321 0.234393
0.212274 -0.0345924 0.0835751
-0.0183303 0.0471681 0.219503
-0.047378 0.101579 -0.334032
0.212274 0.0858404 -0.394408
-0.121856 -0.0417967 -0.367385
0.15019 0.0471681 -0.232242
-0.114689 0.135282 -0.338917
0.158454 0.0820324 0.392479
0.187106 0.0449337 0.243832
0.0285059 -0.0690321 0.136296
-0.03398 -0.0586439 0.36594
0.212274 -0.0195216 -0.330812
-0.0995249 0.165613 -0.371964
0.178248 0.00972105 -0.326005
-0.117939 0.0360803 0.220413
-0.168793 -0.0338911 -0.148862
-0.0878258 -0.0690321 -0.0440696
0.212274 -0.0147172 -0.211072
0.144576 -0.0571288 -0.36607
-0.0963152 0.0455153 0.0288826
0.0520294 -0.005968 0.14992
-0.111286 0.0817489 0.39085
-0.0720883 0.162297 -0.365144
0.131366 -0.005968 -0.237011
0.0459066 0.0848392 0.402547
-0.125037 0.0555339 -0.179322
-0.0318671 -0.0690321 0.323665
-0.125037 0.0343579 0.0707984
0.185744 -0.0690321 -0.212767
-0.125037 0.00727467 0.162062
-0.0187534 -0.0690321 0.0155253
0.172579 0.0464997 0.232702
-0.125037 0.0963906 -0.125491
-0.200626 0.0931591 -0.157621
-0.0787408 -0.005968 0.0387926
-0.115186 -0.00334668 -0.299511
0.181555 -0.005968 -0.0214092
0.111556 0.110184 0.421269
-0.125037 0.07259 0.03672
-0.107014 -0.005968 -0.198703
0.135897 -0.0690321 -0.239091
-0.0443496 0.15284 -0.348546
0.0121903 -0.005968 -0.251062
-0.0613562 -0.0690321 -0.16708
-0.117747 0.0108712 0.240988
-0.188972 0.0829874 0.0648033
0.177467 0.0459728 -0.0546511
-0.203174 0.147921 -0.298408
0.203827 0.0170959 0.334032
0.106447 -0.005968 0.273336
0.212274 -0.00623519 -0.0741454
0.173852 0.0463625 0.146405
-0.168793 -0.0013095 0.205592
0.0443983 0.104011 -0.334032
-0.113237 0.0362673 -0.334032
0.204761 0.0327873 0.228762
0.000881925 -0.0690321 -0.0476754
-0.134563 -0.0690321 0.233773
-0.117029 0.00688348 -0.114987
0.174902 -0.005968 -0.18422
0.144088 0.0471681 0.0604144
0.158064 0.0471681 0.135268
0.00991984 0.103799 0.334032
-0.00666201 0.0471681 -0.0769521
0.059092 -0.0690321 -0.0121502
0.0538099 -0.0690321 0.301573
0.155262 -0.005968 -0.23889
0.120929 -0.005968 0.271984
0.0655317 -0.0690321 0.123248
-0.051704 0.0895994 -0.406594
-0.125037 0.0571858 -0.0947457
0.132123 -0.0396625 0.367568
-0.0842385 0.0665077 -0.376676
0.0149646 0.0471681 -0.0404661
0.142151 0.00537936 0.325368
0.131642 0.082376 -0.334032
0.137918 -0.0690321 -0.274325
0.197636 0.0239586 -0.331231
-0.167485 -0.0690321 0.117421
-0.192603 0.160353 0.0875981
0.0306514 -0.005968 0.293414
-0.125037 0.0847643 0.0572827
-0.0954846 0.0456048 0.123708
-0.18607 0.161594 0.12799
-0.0149739 -0.0690321 -0.140721
-0.189455 0.0830714 -0.0540269
0.0032345 -0.005968 0.0982918
-0.168793 -0.012206 -0.256354
0.124141 0.120502 0.334032
0.0142583 0.120624 0.334032
0.157677 -0.005968 -0.0312871
0.206054 0.164815 -0.37655
-0.046253 0.0471681 -0.102687
0.146798 0.0813156 0.388359
-0.16915 0.0795382 -0.196965
0.176793 0.0460455 0.12904
0.143004 -0.0690321 -0.108079
0.212274 -0.0152567 -0.0253707
-0.106546 -0.0690321 -0.239748
-0.149779 -0.0690321 0.0602757
0.171717 -0.0690321 -0.275881
-0.107628 0.0442958 -0.130133
0.128798 0.0471681 -0.188335
0.0406049 -0.005968 0.182534
-0.0374724 -0.005968 0.217505
-0.177518 0.163081 -0.0976116
0.198799 -0.005968 -0.306511
0.052837 -0.0690321 -0.0370389
-0.0106934 0.0265189 -0.334032
0.0675272 -0.005968 0.072454
0.159361 0.0336909 -0.334032
-0.0815271 -0.005968 -0.0985998
0.166804 0.119284 -0.334032
-0.121397 -0.005968 -0.17169
-0.055956 0.0633172 -0.334032
0.153674 -0.0690321 0.0201313
-0.0614507 0.0996136 -0.415109
0.199435 0.0436046 0.0119215
-0.0992918 0.112015 0.334032
-0.126429 0.127873 -0.336184
0.0602069 0.0471681 -0.158804
-0.0380852 0.0718992 -0.334032
-0.0658639 0.0471681 -0.0948446
-0.125841 -0.144793 -0.341809
-0.0958076 -0.005968 0.254356
-0.112888 -0.005968 0.0700633
-0.079364 0.121808 0.334032
-0.140393 -0.102173 -0.341809
0.0890676 0.113337 -0.421269
0.112537 0.0471681 -0.204837
0.130803 0.0471681 0.0642855
-0.125037 0.0438599 0.247147
-0.0254317 -0.005968 0.190464
0.0305494 0.0563395 -0.375803
-0.125037 0.0377217 -0.11553
-0.131377 0.162643 0.389036
0.0244515 -0.005968 0.0882523
-0.0292255 -0.005968 -0.012076
-0.107309 0.093639 -0.410029
-0.0520609 -0.005968 -0.163121
0.201367 0.00101311 -0.211634
0.0407039 -0.0690321 -0.0919708
-0.117294 0.00835795 -0.20565
-0.168793 -0.0409539 -0.32169
0.156938 -0.005968 0.305813
0.0740843 -0.005968 -0.0573573
0.142418 0.0471528 -0.242844
-0.212274 0.112404 0.145605
-0.115294 0.125827 -0.421269
-0.125846 -0.0690321 -0.159492
0.0532687 0.00832757 0.371685
0.0485091 -0.005968 0.277323
-0.0675023 0.0244635 0.373069
0.0498932 -0.005968 -0.154274
-0.168793 0.0437465 -0.132597
-0.168793 -0.0454331 0.0723599
0.0599278 0.0994979 -0.334032
-0.125037 0.0152322 0.0962045
0.1655 0.108084 0.334032
-0.168793 0.0446112 0.288991
0.127604 0.0780227 0.334032
-0.0854673 0.0967984 -0.334032
0.174306 0.0934438 0.409863
-0.125686 -0.107441 0.359798
0.192789 0.064169 -0.376475
0.109036 0.0368783 -0.334032
-0.00686775 0.10474 -0.334032
-0.20232 0.095151 -0.015918
0.0415496 -0.005968 0.0836187
-0.0770717 0.0127088 0.328058
0.12892 0.12035 -0.334032
-0.00811841 0.0256312 -0.334032
0.00475209 0.0434696 -0.320302
0.0821417 -0.005968 -0.135097
0.0439449 -0.005968 -0.0512366
0.175077 0.0462305 0.109123
0.112918 0.0999954 0.415434
-0.125037 0.0803168 -0.153146
-0.127644 -0.0690321 -0.197207
-0.117098 0.0072665 -0.127331
-0.0388526 0.0322543 -0.373737
0.0494902 -0.0690321 0.319686
-0.0889534 0.0463089 -0.133156
0.0180049 0.0471681 -0.191349
-0.020397 -0.005968 0.245799
-0.00120511 -0.00107942 -0.322041
-0.094744 -0.005968 -0.163876
-0.15077 -0.0175729 -0.369463
-0.100125 -0.005968 -0.264244
0.160061 0.0471681 -0.19839
-0.0204532 -0.0690321 -0.144377
0.0950495 0.126941 0.421269
-0.125037 -0.00108924 -0.302006
0.200204 -0.00544212 -0.0935077
0.13695 0.0471681 0.0844303
-0.125037 0.0394559 0.000401223
0.0670388 0.0471681 0.11038
-0.0540505 -0.005968 0.0404418
0.0306707 -0.005968 0.112156
-0.125037 0.0600983 0.0737929
0.202955 0.121352 0.361752
-0.200038 0.151609 -0.28422
-0.128531 0.161107 -0.363055
0.0133876 -0.0608876 -0.365748
-0.168793 0.0237293 0.24263
-0.125037 0.100933 0.279817
-0.0410928 -0.005968 -0.299252
-0.149067 0.158262 0.13757
-0.14279 -0.11588 0.345471
-0.0808935 -0.0690321 -0.274482
0.188516 -0.0690321 -0.0254221
-0.0402683 -0.005968 -0.132556
-0.132906 -0.0690321 0.12537
0.193569 0.0442369 0.0894618
0.167955 0.0469982 -0.190913
0.212274 -0.0514446 0.331745
-0.0996745 -0.0690321 -0.271434
0.179069 0.0458001 -0.187972
-0.136012 0.0813742 -0.388696
0.150032 -0.005968 -0.0907817
0.169894 -0.0690321 -0.110153
-0.125037 0.056056 -0.285214
0.101332 0.141899 0.341357
0.138918 0.0604859 -0.376159
0.041821 0.130772 0.337254
-0.11174 0.00834062 -0.371686
-0.168793 -0.0565746 -0.255172
-0.0697457 0.143098 0.3418
-0.0488309 -0.0690321 0.0909253
-0.157527 0.116432 0.421269
0.168063 0.0262218 0.333017
0.0318958 0.0471681 0.15598
-0.125037 0.0732942 -0.189975
0.00229373 0.0213024 -0.334032
0.120431 0.0471681 -0.108096
0.212274 -0.02883 -0.210359
-0.168793 -0.0144958 0.237492
0.0125644 -0.0690321 -0.161692
0.176189 -0.149466 0.341808
-0.119024 0.052579 0.375481
-0.0452655 -0.005968 0.146217
0.0502761 -0.005968 -0.24808
0.186312 0.149639 -0.344212
0.0185668 0.0457228 -0.273413
0.084203 -0.0690321 -0.13534
0.073347 -0.005968 0.102602
-0.193981 0.158732 -0.258298
0.167396 -0.0613137 -0.365711
-0.0189702 -0.0690321 0.299909
-0.204237 0.0974055 -0.173722
-0.119388 -0.0690321 -0.342574
-0.168793 0.000441615 -0.00392693
0.0771824 -0.005968 0.0838288
0.101531 -0.0690321 -0.233794
0.166025 0.0471681 -0.136444
0.072518 0.122646 -0.334256
0.210113 -0.005968 -0.0732724
-0.206157 0.144412 -0.337922
-0.148467 0.15792 -0.238935
-0.134341 -0.0690321 -0.362171
-0.168793 0.0647948 -0.308896
-0.0495356 -0.005968 0.0443259
-0.125037 0.027983 -0.0694648
0.141954 -0.0690321 -0.0421562
-0.0966109 0.0454834 -0.18396
-0.158787 0.1638 -0.296555
-0.168793 0.0426129 -0.344884
0.136005 0.0416102 -0.37454
-0.125037 0.0946269 -0.285442
-0.168793 0.0655926 -0.214085
-0.195584 0.0872294 -0.212923
0.106636 -0.005968 -0.141775
-0.0159451 0.0471681 -0.133976
0.183608 0.13872 0.340185
0.208013 -0.005968 -0.321038
0.188074 0.105351 -0.419988
0.016384 -0.0690321 0.254123
0.144013 -0.0202283 -0.369235
0.135034 0.15933 -0.359936
0.0421466 -0.005968 0.0338876
-0.0215387 0.054324 -0.334032
-0.0772669 -0.0690321 -0.0792595
0.158072 -0.0690321 0.0441488
0.212274 0.14362 0.394384
0.172708 0.0453452 -0.281486
0.0610879 0.0469183 0.248813
0.14489 0.143569 -0.415869
0.150132 0.159351 0.359973
0.193389 -0.005968 -0.137164
-0.105335 -0.0690321 -0.279491
-0.168793 0.0386642 0.133215
0.0623588 0.0471681 -0.152537
0.212274 -0.0531815 0.263822
0.0250002 -0.0690321 0.140591
-0.168793 0.0125266 0.182651
-0.0105748 -0.0690321 0.188707
0.0233532 0.0559095 -0.334032
0.18499 0.0318699 -0.373704
0.06582 -0.005968 0.223782
0.0288259 -0.0690321 0.309783
-0.168793 0.0525504 -0.327782
-0.150097 -0.0690321 0.0575374
-0.116032 0.00135084 -0.0972286
-0.163866 0.13518 -0.421269
-0.041472 0.155425 0.353082
0.0379247 0.0453862 -0.280609
-0.168793 -0.0490742 0.207981
-0.125426 0.123093 0.171776
0.202842 0.0092008 0.199108
0.129882 0.163658 -0.383199
-0.168793 0.037774 -0.160136
-0.208187 0.102052 0.0315493
-0.0427985 0.0471681 0.224464
-0.119725 0.0218507 0.313852
-0.202958 0.0959017 0.365336
-0.125037 0.0431705 0.0389639
-0.0429284 -0.0690321 -0.255292
0.0417508 0.0484336 -0.334032
-0.188129 0.0828406 0.0272783
0.193262 -0.005968 0.030029
-0.0215618 0.0429284 -0.334032
-0.00704497 0.118801 -0.334032
0.13464 0.0169806 -0.32867
0.112043 0.0471681 0.00250417
0.0563193 0.0471681 0.151757
0.11342 0.0645179 -0.376505
-0.0755737 0.0457609 -0.272598
-0.125037 0.014333 -0.245555
-0.0623671 -0.0690321 0.228928
0.0987641 0.0471681 -0.15535
-0.0340646 -0.005968 0.0700949
0.0350408 0.0797369 0.379287
-0.168793 0.051312 0.0788086
-0.118397 0.014479 0.296846
0.0174848 0.156089 0.354248
0.000588931 0.0471681 0.145021
-0.212274 0.128922 -0.167572
-0.156015 0.162221 -0.172483
0.0517169 -0.0690321 -0.343601
0.0755012 0.13508 0.421269
0.0239351 -0.005968 0.0784138
0.0252604 -0.005968 -0.0879747
0.205254 0.162716 0.38861
-0.0449285 -0.00109565 -0.370877
0.191331 -0.0690321 -0.208636
0.0742277 0.139603 -0.34051
-0.152554 0.160249 -0.209116
-0.0371801 0.0471681 0.234928
0.205004 0.0322242 0.326633
-0.105254 -0.005968 -0.171218
-0.00833998 -0.0690321 -0.36317
-0.125037 0.0751541 -0.048299
0.158017 -0.0690321 0.0990683
0.210766 0.00946827 0.334032
0.159451 -0.005968 0.153181
-0.168793 0.0124172 -0.252006
0.0474619 0.129241 0.336689
0.202955 0.125116 0.359582
0.061363 0.0139483 -0.372167
-0.168793 -0.0496118 0.248471
-0.150062 0.158829 0.245188
-0.0136033 0.0927779 0.334032
0.103299 0.081058 0.386879
0.0764446 0.0471681 0.00325151
0.0972519 -0.005968 0.01683
-0.146979 -0.0690321 -0.257077
0.00250307 -0.0690321 -0.294997
0.0613942 -0.005968 -0.102189
0.0474745 -0.0690321 0.133536
-0.212274 0.131397 0.360679
0.202915 -0.0684325 -0.3651
0.0389928 -0.005968 0.0268782
0.0381157 0.133471 0.338249
-0.171238 0.164174 0.115264
0.17107 -0.0690321 0.0494601
0.00470303 0.100235 -0.415637
-0.135392 0.017443 -0.372467
-0.0900092 0.094932 0.411129
-0.202896 0.148247 -0.0329326
0.0208717 -0.005968 0.1104
-0.0865319 0.00740138 0.334032
0.0419519 0.00785682 0.334032
0.0753641 -0.0690321 -0.263419
-0.0258653 0.0812978 -0.388257
-0.0337087 -0.005968 -0.27983
-0.207555 0.142768 -0.0548629
0.122414 0.133947 -0.421269
-0.0499313 -0.005968 -0.075913
0.188603 -0.145051 -0.348935
0.212274 0.158654 -0.362073
-0.119541 0.0208285 -0.27802
-0.136642 0.0886421 0.40578
0.0302239 -0.0690321 0.0267778
0.0483834 0.140542 -0.418443
-0.168793 0.0137723 0.243102
0.00793551 -0.005968 0.0695003
-0.168793 0.0136641 -0.0159424
0.200842 0.041838 -0.108163
0.127723 -0.0478404 0.366867
0.197013 -0.005968 -0.136003
-0.10133 0.155353 -0.352955
0.0174597 -0.0130453 0.369852
-0.204066 0.097205 0.34767
0.202955 0.124247 0.384778
0.0258405 0.044544 0.299568
-0.168793 -0.0300888 0.109602
0.0164105 -0.005968 0.21411
-0.0508888 -0.005968 0.0102619
0.182099 -0.0690321 0.251955
-0.200931 0.114344 0.421269
0.0833826 0.0841787 -0.334032
0.208432 -0.0320905 -0.368218
0.177696 0.0459481 0.0167835
0.212274 -0.028123 -0.351477
0.17045 -0.0690321 0.272784
-0.0185102 0.0440825 -0.308478
-0.112715 0.0495432 -0.37522
0.115824 0.164364 0.379143
-0.000373155 -0.0317785 -0.368245
-0.0936218 -0.0690321 -0.240303
-0.0637459 -0.0690321 0.241606
-0.095261 0.0456289 0.251605
-0.118031 0.0358689 -0.0475194
-0.0342781 -0.005968 -0.291199
0.0691902 0.165416 -0.373095
-0.171865 0.0800107 -0.344988
0.192724 -0.0690321 0.340709
-0.144162 0.155468 -0.221202
-0.106987 0.0128443 0.328107
0.212274 0.106828 -0.348654
-0.198235 0.0903471 -0.188895
-0.125037 -0.00542418 -0.275461
0.206214 0.0279214 0.204117
0.0599668 -0.005968 -0.0438529
-0.0662726 0.0471681 -0.173867
-0.142454 0.163571 -0.383701
-0.168793 0.0657049 -0.256646
0.0625735 0.0446644 -0.296039
0.1582 -0.0690321 0.0574262
0.0225582 -0.0690321 0.0162875
-0.168793 -0.0591988 -0.0619559
-0.212274 0.11581 0.332202
-0.168793 -0.0300271 0.310428
-0.0597926 -0.005968 -0.178494
-0.168793 0.0623531 -0.315576
-0.204533 0.0977536 -0.122307
0.185816 0.0450727 0.0677101
-0.119124 0.0185145 -0.193747
-0.147929 0.092634 -0.409175
0.155671 -0.0690321 0.111335
0.212274 -0.00698815 0.187995
0.0220808 0.0442815 0.305178
0.170748 -0.164375 0.359798
-0.168793 0.0560044 0.296799
0.0678096 0.0471681 0.172683
0.201652 0.00259662 -0.029425
-0.125037 0.0434095 -0.224462
0.20509 0.0320267 0.0550663
0.137722 -0.0690321 -0.18833
0.10057 0.0471681 -0.115485
0.174548 0.0917884 0.408456
-0.0976578 -0.0690321 -0.3487
0.10457 0.137628 0.420921
0.183322 0.0846801 0.402412
0.0224501 0.00252888 0.371188
0.00327672 -0.005968 -0.0806463
-0.212274 0.109062 0.0722759
-0.0893771 -0.0690321 -0.33467
-0.0233928 -0.005968 -0.0273079
-0.119564 0.0209593 0.274028
-0.0156844 -0.0690321 0.0306143
-0.00123469 -0.0311928 0.368295
0.0627671 0.131524 -0.421269
-0.168793 -0.002032 -0.0216707
0.101906 -0.0690321 -0.167986
0.125108 0.0859331 0.334032
0.150868 0.096767 0.334032
-0.168793 -0.00597187 -0.155529
0.178249 0.0458885 0.0220545
-0.00967444 -0.0690321 -0.0123988
-0.125037 0.0314298 0.110151
-0.0249546 0.0471681 0.181076
0.193029 -0.005968 -0.0679575
0.211267 -0.0690321 0.173753
-0.112001 0.0281684 -0.373387
0.187919 -0.0690321 0.0596968
-0.212274 0.116504 -0.413827
-0.168793 -0.0259442 -0.0658883
-0.168793 -0.037988 -0.0665793
-0.14706 0.157802 -0.403767
-0.150273 -0.0690321 -0.152505
0.087065 0.0471681 0.206708
0.163751 -0.0690321 0.26378
0.0603567 0.162546 -0.389591
-0.195783 0.0874631 0.387721
0.0832553 -0.005968 0.0567263
-0.1173 0.0083898 0.148988
-0.12032 0.0251561 -0.256152
0.054797 0.161503 0.395586
0.140931 -0.005968 0.167984
0.101917 -0.005968 0.0557071
-0.0442952 -0.0690321 0.239028
0.206261 0.0281834 -0.00891174
-0.111244 0.0439059 0.0598307
0.205731 0.0252387 0.108246
0.0854494 0.0444401 -0.300832
-0.00741429 0.0471681 -0.232037
0.0738418 -0.005968 0.211726
-0.0698205 0.129044 0.336616
-0.0249923 -0.0690321 -0.339284
-0.0187856 -0.0690321 0.214837
-0.212274 0.114225 0.407924
0.0470241 -0.005968 0.0809314
0.0841459 -0.005968 -0.116339
0.021164 -0.0325709 0.368177
0.183016 -0.005968 0.133253
0.16335 0.0820619 0.334032
-0.0772166 0.0541909 0.334032
-0.0828856 0.046963 0.0256748
-0.168793 -0.0472147 -0.232475
-0.0538892 0.0252905 0.37314
-0.199665 0.152047 -0.165171
-0.131609 0.139856 -0.225943
-0.0862938 0.0465956 0.121432
-0.0245592 0.161273 -0.396906
0.212274 -0.00627973 -0.101261
0.00522736 -0.0690321 0.32068
0.105854 0.0471681 -0.0407588
0.138166 -0.005968 0.00964
-0.124521 -0.005968 0.173891
-0.0678102 0.0242664 0.373052
-0.172274 0.163994 0.345363
-0.168793 0.0249071 0.176766
0.10281 0.047132 -0.334032
-0.168793 -0.0542879 0.0772717
0.0368561 7.59449e-05 0.323421
-0.116127 0.125542 -0.335324
0.0644611 0.147583 0.412456
0.191658 0.044443 -0.135836
-0.1204 -0.0690321 0.189064
0.0243556 -0.0690321 0.0576415
-0.168793 -0.0023113 0.152606
0.0652849 -0.0690321 0.228896
-0.167359 -0.0690321 0.162553
-0.058416 -0.0690321 0.115216
-0.212274 0.113069 0.330769
-0.0319387 0.105921 -0.334032
0.0562163 -0.0690321 -0.263565
-0.212274 0.119788 -0.141155
0.112834 0.0225343 -0.330708
-0.168793 -0.0267593 -0.213618
0.11749 -0.005968 -0.25739
0.0472493 0.0898634 0.406819
0.168228 0.0706075 0.334032
-0.169041 0.164557 -0.37052
0.0583016 0.0471681 0.162706
0.11798 0.0560618 -0.37578
-0.211045 0.105413 -0.0626231
0.00294008 0.0471681 -0.0378386
-0.125037 0.10958 0.297015
0.131399 0.0471681 0.0194718
0.123388 -0.0690321 0.0690877
-0.160876 0.163104 -0.386385
-0.00634351 0.0440049 -0.310136
0.150764 -0.005968 -0.173451
0.119873 -0.005968 -0.22295
-0.125037 0.0188836 0.17816
0.205149 0.0220087 -0.19131
-0.195267 0.157219 -0.310227
0.164932 -0.135469 0.358338
-0.169042 0.164556 -0.00147653
-0.00365128 -0.0690321 -0.326071
-0.127079 0.1402 0.340731
-0.205291 0.0986455 0.400191
-0.0873108 -0.0690321 -0.362028
-0.168793 0.00148433 -0.205872
-0.126026 -7.64932e-05 0.370964
-0.197577 0.110019 0.421269
0.209486 0.10244 0.391411
-0.168793 0.0537254 0.00270832
0.112548 -0.0690321 0.180073
0.187529 0.0872498 -0.334032
0.0228377 -0.0690321 -0.273214
-0.0230736 0.0446437 0.297437
-0.0616034 0.0471681 -0.0204649
0.0400733 -0.005968 -0.209004
-0.158092 0.163405 -0.00599857
0.0550345 0.16492 -0.375946
0.188248 -0.0916236 -0.341809
-0.125037 0.100077 -0.219759
-0.0624294 0.0471681 -0.0633536
-0.168793 0.0244835 -0.274789
0.20397 0.0346136 -0.143943
-0.125037 0.0177353 -0.0993695
-0.208053 0.101893 -0.35083
0.168988 -0.005968 0.194021
0.0316324 0.11041 0.334032
0.212274 -0.0128268 0.0187534
-0.119119 -0.123678 -0.351235
0.117996 0.108784 -0.334032
0.0939735 0.0471681 0.170234
0.212274 -0.0671599 0.269259
-0.166196 0.0724003 -0.377181
0.166948 0.0471067 -0.00947277
0.0705144 0.165294 0.373794
-0.168793 -0.00740601 -0.171869
0.111352 0.103069 0.418048
-0.168793 0.0243201 -0.189097
-0.00536723 -0.005968 0.076153
0.119692 -0.0690321 -0.13746
0.0405717 -0.0398804 0.36755
-0.058243 0.141224 -0.341108
0.172958 -0.0822917 -0.341809
-0.0166823 -0.0609561 0.365742
-0.110529 -0.0690321 -0.0725525
0.178675 -0.134517 -0.341809
-0.122958 -0.0690321 0.315008
0.0356295 -0.005968 -0.216822
-0.142577 -0.0690321 0.240253
-0.0799539 -0.006211 -0.370438
-0.0530342 -0.0592472 0.365888
-0.0986644 0.0295856 -0.332548
0.0486609 -0.005968 0.0144843
0.0919083 -0.005968 -0.195581
0.0784636 0.0471681 0.0216412
0.0245252 -0.0690321 0.267571
0.0461136 0.0461053 -0.265235
0.0733422 0.0471681 -0.105773
-0.0941089 0.0568333 -0.334032
-0.186519 0.0825605 -0.322607
0.0773435 -0.0690321 0.294238
0.0626401 -0.005968 0.097295
-0.123847 0.0894173 0.406439
0.118465 0.0471681 -0.180129
0.107025 -0.0690321 -0.214618
0.150292 -0.005968 0.235598
-0.125037 0.114836 -0.259493
0.0098784 0.0471681 0.206822
-0.0023831 -0.005968 -0.109792
0.0851187 0.0471681 0.0522017
0.0323241 -0.005968 0.147544
-0.0512435 -0.0690321 0.0154261
-0.151012 0.13327 0.421269
-0.0639878 -0.0690321 -0.0546917
-0.165742 -0.0690321 -0.24972
-0.0290835 -0.0690321 -0.0730236
-0.0725005 0.0471681 0.225215
0.13831 -0.0690321 0.317788
0.160147 -0.005968 0.1732
-0.168793 0.0663573 0.361132
-0.048424 -0.005968 -0.221849
0.105832 0.0169094 -0.334032
0.100191 -0.0690321 0.168322
-0.139726 0.164905 -0.369722
0.212218 0.107748 0.360856
0.0823033 -0.0690321 0.304356
0.212274 -0.0461844 0.114809
0.123649 -0.005968 0.0935271
-0.125462 -0.0690321 -0.18638
-0.168793 -0.00366816 0.181267
-0.155247 0.0407253 0.374464
-0.125037 0.0739089 -0.0996167
0.124366 0.0549608 0.375685
-0.125037 0.0859453 -0.209724
-0.125037 0.0710966 0.0789894
0.0191003 0.0444231 -0.334032
-0.168793 -0.049864 0.0221177
0.0295761 0.16298 0.366342
0.195642 -0.005968 0.255145
0.0563162 0.145957 0.342854
-0.0992499 -0.005968 0.127506
-0.181219 0.0816383 -0.193653
0.141082 0.0471681 -0.159119
-0.0194025 -0.0690321 0.197143
-0.196098 0.0878332 0.327768
0.200244 0.0432208 0.206047
-0.117578 -0.005968 -0.0778391
-0.159587 -0.0690321 0.00884106
-0.0271293 -0.005968 -0.00173144
0.115303 -0.005968 -0.265893
0.0785219 -0.0329694 0.368142
-0.0565578 0.0471681 0.0329172
0.0315733 -0.0690321 -0.353924
0.0843667 -0.0690321 0.0377591
0.0517859 0.044232 0.306238
0.0902599 0.0471681 0.00743113
-0.0747906 -0.0690321 -0.10184
0.11818 0.0384845 -0.374272
0.0553302 -0.0690321 0.272894
0.212274 -0.0456197 0.0418982
8.68812e-05 0.0588134 0.376016
-0.118761 0.0164979 0.0860594
-0.125037 0.00133718 0.00537476
-0.127188 0.12787 0.0526187
0.190632 0.0445535 -0.0871
-0.168793 0.0430965 -0.30177
-0.125037 0.0147171 0.0454078
0.161677 -0.0690321 -0.159526
-0.14279 -0.161605 0.359598
0.14936 -0.005968 -0.258314
-0.178379 0.144573 -0.415015
0.0334615 -0.0690321 0.148576
-0.0518872 -0.0690321 0.142899
-0.168793 -0.0635534 -0.364009
0.0857988 0.0471681 -0.210906
0.0217795 -0.0690321 0.186542
0.0332428 0.151396 -0.409214
-0.0666244 0.0113078 0.334032
-0.0595246 0.00111807 0.323804
0.206113 0.0273594 -0.0388318
-0.184821 0.0822651 0.0626138
0.104708 0.0471681 0.140784
0.160824 -0.005968 -0.0453568
0.137159 0.0471681 -0.0811544
-0.119504 0.0206258 -0.105209
0.0727526 0.0471681 0.0629255
-0.0872181 -0.005968 0.181618
-0.0176711 0.165702 -0.371452
0.12977 -0.0690321 -0.0238535
-0.142339 0.154429 -0.143615
-0.194417 0.0858567 -0.0836561
-0.168793 0.0721678 -0.141437
0.137604 0.0356494 -0.334032
0.117923 0.159821 -0.360798
0.103786 -0.0690321 0.168533
0.131846 -0.005968 0.132544
0.0347258 -0.005968 -0.0804902
0.114866 0.0875572 0.404858
-0.193001 0.0841913 -0.331193
0.0202123 0.0279667 0.334032
-0.0129334 0.0175427 -0.372475
-0.0736884 0.0471681 0.110872
-0.117742 0.0108414 -0.0112248
-0.124604 0.00464552 0.371369
-0.116157 0.00204203 -0.165624
0.143288 0.0471681 -0.0616248
-0.0283692 0.0471681 0.219822
0.145678 0.120242 0.334032
-0.168793 0.00266357 0.347968
-0.212274 0.115874 0.0706004
0.000397682 0.0857614 0.403331
0.0458336 -0.005968 -0.247025
-0.0465522 -0.0690321 0.343973
0.200424 -0.0408239 0.367469
-0.168793 -0.0552076 -0.321271
-0.168793 -0.0434614 -0.331749
-0.168793 -0.0272286 0.0726194
-0.0172461 -9.7875e-05 0.334032
0.0760371 -0.005968 -0.00177109
0.00249885 0.000379177 0.323533
0.211248 0.133355 0.358692
-0.168793 -0.00639588 -0.193305
0.209039 -0.005968 -0.270825
-0.125037 0.0250552 -0.267332
0.203192 0.0364095 0.284002
-0.0442395 -0.0646227 -0.365427
0.193691 -0.005968 0.137257
0.179795 0.150538 -0.409944
-0.0205267 0.123003 -0.334388
0.203432 0.0358567 -0.0459776
0.212274 -0.063899 0.237323
0.138487 -0.0690321 -0.0882947
0.128448 -0.005968 -0.154038
-0.0740536 0.0436877 0.317872
-0.14279 -0.137648 0.348032
-0.168793 -0.0187236 -0.181036
0.136774 -0.0690321 -0.338743
-0.132079 -0.0690321 -0.285927
-0.152794 -0.0690321 -0.302597
-0.0475263 0.0918924 0.334032
0.180955 -0.0339445 -0.368059
0.0574745 0.164076 0.380797
-0.0847652 -0.005968 0.33318
-0.168793 -0.044077 0.211318
-0.12835 0.13102 0.1512
-0.0836892 -0.005968 -0.209181
-0.096848 -0.005968 -0.102475
-0.0985263 -0.005968 -0.030023
0.199299 0.145973 -0.34286
0.210036 0.0500902 -0.375267
0.0267436 -0.005968 -0.221895
-0.137404 -0.0690321 -0.166616
0.058722 -0.005968 0.00273106
0.00957268 -0.005968 -0.333251
0.117341 0.0431869 -0.320551
0.146947 -0.0690321 -0.0965627
-0.168793 0.0426374 -0.217441
-0.201831 0.1495 -0.169966
-0.0493281 0.0471681 0.142562
-0.015969 0.0455676 -0.276731
0.203263 0.0115398 0.305801
-0.185414 0.0823682 0.390937
0.0701387 -0.005968 -0.0677114
0.0918526 0.0705671 0.334032
0.145381 0.074747 0.334032
-0.00798585 -0.005968 0.257791
-0.168793 0.0100229 0.281184
0.121953 0.0471681 -0.0849885
-0.125037 0.0731297 0.124177
0.157482 0.0471681 0.0803484
0.0457744 0.154698 -0.351805
-0.0834006 0.013351 0.372116
0.096994 0.0469358 0.374997
0.212274 0.0377447 0.364766
-0.0171995 -0.00421618 0.334032
-0.0409116 -0.0690321 0.22761
-0.207575 0.142744 0.217217
-0.107185 -0.0690321 -0.217384
-0.0103823 0.062348 -0.334032
0.125108 -0.005968 -0.227025
-0.0804702 0.0149418 0.334032
-0.155945 0.164235 -0.379885
-0.0239102 0.0471681 -0.230109
-0.12506 -0.0690321 -0.335375
-0.087026 0.0465166 -0.171132
-0.0361271 0.0471681 -0.138685
-0.127599 0.128985 -0.219671
-0.119745 -0.005968 -0.0135439
0.197448 0.0438188 -0.179373
-0.168793 0.00931566 -0.351154
0.0324538 -0.005968 -0.191925
0.179306 -0.005968 0.207798
0.187758 0.0936493 -0.334032
-0.131297 0.113021 0.421269
-0.0828519 -0.005968 -0.175105
-0.120548 0.0300538 -0.250523
0.126012 -0.0690321 -0.104625
0.0453861 0.0471681 -0.0958936
-0.194845 0.0863603 -0.0628888
-0.168793 0.059557 0.136367
-0.212274 0.117107 0.140061
-0.168793 0.0620919 0.206144
-0.0908847 0.156425 0.404938
0.171544 -0.0690321 0.0476756
0.162764 -0.0690321 -0.189872
-0.154657 0.161447 0.177024
-0.030769 0.0471681 0.223019
0.0426003 -0.005968 0.0862179
0.0147792 0.0427928 0.334032
-0.00988699 0.125288 -0.421269
-0.168793 0.0632362 -0.243749
0.0065558 -0.0690321 0.292195
0.194461 0.115187 -0.334032
-0.0665304 0.138191 -0.33999
-0.125037 0.110428 -0.0704332
-0.0188925 -0.0690321 -0.0355844
-0.0431142 0.156537 -0.355034
-0.168793 -0.0545252 -0.34051
0.0883319 -0.0379338 0.367717
0.0132585 -0.0690321 -0.0672777
-0.0444621 -0.0690321 -0.279925
0.048626 -0.0690321 0.180393
0.0126949 0.135049 -0.338831
-0.0974407 0.127098 -0.335898
0.170567 -0.103024 0.341808
-0.192813 0.0839707 0.32809
-0.0403676 0.0323576 -0.373746
-0.207263 0.143112 -0.100369
0.0213931 -0.005968 -0.211728
-0.168793 0.00828604 -0.0307629
-0.125037 0.0497722 0.0489585
0.153007 0.0814083 0.388892
-0.117809 0.0112125 -0.115004
-0.168793 0.0562593 -0.137858
-0.155479 0.10194 0.417087
-0.0553527 0.0455918 0.277169
0.00250685 0.0468256 0.250796
0.102559 0.0493466 0.334032
-0.144783 0.160949 -0.398769
0.203248 0.0114567 -0.0407347
0.00174678 -0.005968 0.293582
0.153441 0.0821006 -0.392871
0.149438 -0.0690321 -0.2697
0.212274 -0.0264051 0.181555
-0.168793 0.0718973 -0.0590571
-0.0804121 -0.005968 0.297885
0.107452 -0.0690321 0.236084
0.169787 -0.109695 0.341808
-0.0283568 -0.0690321 -0.35342
-0.138543 0.152266 -0.127718
0.212274 0.136894 -0.349741
-0.125037 0.0754963 -0.144659
-0.00322919 0.0786011 -0.377713
0.122453 -0.005968 0.104214
0.212274 -0.0144582 -0.134673
-0.205095 0.145661 -0.00236653
-0.0248779 -0.0690321 -0.278941
-0.113751 -0.0283271 -0.368541
0.0824461 -0.005968 0.254426
-0.191768 0.0834737 -0.202137
0.0262931 -0.0690321 0.137384
0.212274 -0.0123745 0.0256259
0.0395037 -0.0219133 -0.369091
-0.168793 -0.0203669 -0.0881345
-0.125037 0.0725209 -0.0909758
-0.153234 0.160637 0.210225
0.0411113 0.0447263 0.295671
-0.168793 0.0161437 -0.164562
0.185009 0.0451598 -0.143175
-0.0857098 -0.0690321 0.0178509
0.107691 -0.005968 -0.31417
0.0711294 -0.0428183 0.367298
-0.131618 0.13988 -0.0396338
0.0156744 0.147148 -0.343293
0.164932 -0.0773155 0.343761
-0.118415 -0.005968 0.15989
-0.122162 -0.0690321 -0.128309
0.126399 -0.005968 -0.275874
-0.168793 -0.0192275 -0.24733
0.179835 -0.0690321 0.0892447
0.0515896 -0.005968 0.333286
-0.00222997 0.0471681 0.00555553
-0.096572 -0.0690321 0.177723
-0.0220329 -0.005968 -0.243405
0.0926054 0.0471681 0.18455
-0.168793 -0.0327609 -0.0384046
0.0887156 -0.005968 0.251595
0.155085 0.0956706 -0.411757
-0.168793 -0.0572496 -0.298051
0.181295 0.0455602 -0.171103
-0.0668682 0.0819329 -0.391907
-0.0340915 0.165133 -0.370121
0.212274 -0.0606266 -0.264052
-0.191849 0.0834879 0.395142
0.165539 0.0471681 -0.217266
0.212274 -0.0214749 0.0445359
0.0102908 0.0461753 0.334032
-0.2042 0.0973622 -0.3642
-0.118295 0.0352585 -0.169465
0.015112 0.0312842 0.332005
-0.168793 0.0652737 -0.122859
0.191883 0.0394257 -0.323869
-0.144832 0.0505324 0.375305
0.155574 -0.0690321 -0.118095
0.212274 0.0840274 -0.3413
0.00538775 -0.0690321 0.254834
-0.0421884 0.111998 -0.334032
0.11504 -0.005968 0.0874344
0.00965572 0.0471681 -0.154769
-0.00998516 -0.0690321 0.24649
0.0222066 0.0469515 0.248104
0.0883709 -0.005968 -0.199935
-0.125037 0.0965759 0.0588849
-0.117934 0.0119102 0.0174224
-0.168793 -0.0224705 -0.0468286
