ply
format ascii 1.0
comment Created by Open3D
element vertex 1630
property double x
property double y
property double z
end_header
-0.253624 0.0634695 0.260587
-0.0465292 -0.0719974 0.28474
-0.0200917 0.043857 -0.293361
0.228504 0.15235 -0.196064
0.152292 0.151871 0.343673
-0.0660469 -0.0304928 0.160322
0.04993 0.107858 -0.179197
-0.146013 0.196987 0.149773
0.260984 -0.0353352 0.131801
-0.0800242 -0.153577 0.28474
0.233037 -0.0364174 -0.283357
0.178638 -0.0628529 0.234538
-0.208069 0.193168 -0.183329
0.0830631 -0.0457596 -0.28474
0.240754 -0.198898 0.235332
0.214674 0.00179751 0.0908253
0.05531 -0.095325 -0.0581429
-0.0415597 0.0334122 0.0386721
0.181011 -0.0544633 0.0679313
0.208286 0.0131084 0.28474
-0.0746817 -0.0227345 0.0437862
-0.133272 0.212062 0.272947
-0.106137 0.153102 0.0334379
0.163592 -0.0666431 0.149662
-0.22525 0.050533 0.300808
0.199536 -0.197767 0.28474
-0.121675 0.161994 0.33928
-0.190819 0.216429 0.0440022
0.252301 -0.132545 0.0430388
-0.0687023 0.182321 0.225955
-0.113411 0.19091 -0.286928
0.248356 -0.149682 -0.0140504
0.1384 0.00179751 0.133586
0.0469921 0.117069 -0.179168
0.0568642 0.0262319 -0.171855
0.2513 0.0155658 0.0391865
-0.0746817 -0.00666412 0.139486
0.159666 -0.134227 0.28474
0.164756 -0.0930492 -0.0647715
0.0304731 -0.089359 0.28474
-0.261334 0.164369 -0.254184
-0.226354 0.0746868 -0.307643
-0.046569 0.0305826 -0.0358166
0.164236 0.0475373 0.0346397
-0.218371 0.0426387 0.268872
-0.0919415 0.0893858 0.0121674
-0.220766 0.212608 -0.228458
-0.208762 0.199171 0.100328
0.127819 -0.0488373 -0.130561
0.0323169 0.137557 0.178409
-0.0493529 -0.0488373 -0.0419462
-0.0030077 -0.0488373 0.0696588
0.0413458 0.0133338 -0.181514
-0.196304 -0.0105269 0.108191
0.249941 -0.102547 -0.171171
-0.0195161 0.189746 -0.20274
0.267544 -0.0207631 -0.00173182
0.0611135 0.00179751 0.114412
0.135142 0.0299002 0.135806
-0.196304 -0.0925464 -0.0693242
0.107831 0.0686408 -0.17694
0.229522 -0.124823 -0.284739
0.162969 0.200414 0.299626
-0.0995482 -0.104662 -0.28474
0.237562 0.069678 -0.233309
0.250732 -0.0623164 0.0827311
0.159976 0.174009 -0.194541
-0.0623919 -0.0840563 0.28474
-0.21577 0.187451 -0.0962361
0.18754 0.00179751 0.0828586
0.25207 -0.131565 -0.00333038
0.23729 0.052974 -0.202468
-0.266182 0.155063 0.0330754
0.113772 0.157667 0.185427
-0.254692 0.165367 0.0861557
-0.160694 0.101602 0.353814
-0.193323 -0.169088 -0.220729
0.00025175 -0.0936586 0.0502001
0.000647807 0.0792835 -0.17446
0.210375 0.211307 -0.295691
-0.0806437 -0.00633033 0.141769
-0.173507 0.214642 -0.0124465
0.237268 -0.063932 -0.234538
0.000656451 0.136115 0.18334
0.224711 -0.0488373 0.0165077
-0.176511 0.0181244 0.254199
-0.138507 0.212899 -0.299012
-0.0582493 0.00179751 0.0522111
-0.161149 0.196954 -0.0545277
-0.00321811 0.203571 -0.294794
0.158572 -0.0488373 0.149213
0.244728 0.0663097 -0.239584
0.250391 -0.0432998 -0.151767
0.051754 -0.144381 0.28474
0.162833 -0.0488373 0.0359068
0.0426003 0.00742354 0.168744
0.0453187 0.00179751 -0.159444
0.0658186 0.105391 0.179732
-0.0762176 -0.0532791 -0.28474
0.024415 0.0199718 0.28474
0.16854 0.123453 0.187823
-0.2282 0.13132 -0.326535
0.231512 0.195457 -0.236018
-0.196304 -0.0513345 -0.0275246
0.244728 -0.14631 -0.250987
0.20309 -0.0729745 0.122995
-0.250333 0.0558839 -0.0388429
0.234736 0.199156 0.262343
-0.0746817 -0.0539114 -0.0135047
0.252301 -0.146889 0.197896
0.0346228 0.17247 -0.191537
0.173456 -0.0406028 -0.179592
-0.161057 0.114489 -0.354213
0.210035 0.215511 0.286137
-0.069388 0.0108426 -0.0872445
0.241642 -0.0859646 -0.0595524
0.235193 0.140599 0.311811
-0.103316 0.199938 0.292288
0.0983751 -0.0172543 -0.169993
-0.208139 0.0557953 -0.318156
0.193024 -0.0353786 0.170897
0.156392 0.208761 0.220039
-0.0921566 0.0561882 -0.151967
0.243924 -0.0292824 0.238502
0.168593 0.0473035 0.00512151
0.0199673 -0.0556723 0.163348
0.166735 -0.115786 0.28474
0.21112 0.00179751 -0.117377
0.0835477 0.00821731 -0.163518
-0.196304 -0.160907 0.0443599
0.226403 0.205409 0.292999
-0.241883 0.191795 -0.218222
-0.153221 0.197147 -0.237542
-0.149074 -0.102831 0.274858
-0.12021 0.131452 -0.092058
-0.0195208 0.0181495 -0.144123
-0.19629 -0.184888 -0.198461
-0.0901673 0.0847965 0.101399
-0.0838973 0.209439 -0.228826
-0.0490544 0.207698 0.239077
0.052665 -0.0488373 -0.158942
0.167955 -0.0488373 -0.159052
0.128435 0.0388711 -0.291519
0.137946 0.211108 0.248568
0.0474847 -0.0488373 -0.103287
0.0507756 0.00179751 0.135302
0.234621 -0.0246851 0.28252
0.200093 -0.0861248 -0.0746109
0.189622 -0.21777 0.223784
0.0372764 -0.0488373 0.0759647
-0.228889 0.146632 0.309311
-0.102718 -0.187975 -0.28474
0.244728 0.127299 0.287981
-0.12541 0.189387 0.173478
0.0732494 0.0526237 0.169507
0.0304052 -0.0846405 -0.106603
0.0570756 0.0873394 -0.345874
0.0233785 -0.0672369 0.149653
0.131958 0.0873062 -0.347225
0.00360226 -0.0116833 0.177768
0.136628 0.131566 -0.350404
0.218949 0.00179751 -0.0781183
-0.241773 0.0497089 0.183744
-0.111252 0.0463137 0.140235
0.251394 -0.144983 0.173824
-0.0352848 -0.173984 -0.28474
-0.198847 0.0423372 -0.27533
0.235193 0.00262605 -0.224046
-0.269227 0.14738 -0.0316672
0.201873 0.00179751 -0.118094
0.244728 -0.0933405 -0.260981
0.208172 0.0155554 -0.139837
0.235922 -0.0635704 -0.12466
0.134591 0.00179751 0.106309
0.202662 -0.0886904 -0.130939
0.053133 -0.0504501 0.172908
0.243811 -0.198468 -0.173972
-0.101286 0.150587 0.180995
0.190891 0.00179751 -0.133826
0.217552 0.0302122 -0.18296
0.137475 0.00179751 -0.0645762
0.229551 0.119222 -0.19307
0.108638 0.00391661 -0.28474
0.170198 0.173904 0.332122
0.0728219 -0.143208 0.28474
0.206588 0.0540893 0.179349
0.231417 0.162438 0.204588
0.238149 -0.136888 -0.234538
-0.21754 0.175941 -0.294258
0.242306 -0.0544633 0.16906
-0.242695 0.0531706 -0.00238417
0.242651 0.00179751 0.0172775
0.0394105 0.0431244 0.0969701
0.251919 -0.15238 0.224655
-0.00295238 0.116539 0.183366
-0.126361 0.18476 0.126658
0.0108013 0.217442 0.260674
-0.0674109 -0.0751124 -0.28474
-0.175786 0.0231834 0.25516
-0.061988 0.00661741 -0.163964
0.0637863 0.00179751 0.00550095
0.168446 0.184703 0.319598
0.237319 0.122617 0.231897
-0.168244 0.108889 -0.354871
0.0545311 0.0410309 -0.171324
-0.149041 0.2164 0.277576
-0.0510016 0.00179751 -0.0269367
0.0873877 -0.0264295 0.28474
0.247874 0.00179751 0.0433876
0.189965 -0.0488373 0.061328
-0.0196186 0.0792353 0.17167
-0.189678 0.00927045 0.2331
0.21321 -0.0797897 -0.088718
0.191474 0.0149737 0.156111
-0.196304 -0.0862579 -0.108053
0.0482541 -0.0544633 0.171465
-0.194729 -0.122475 0.215956
-0.196304 -0.0321679 -0.167609
-0.0648057 0.1241 -0.351404
-0.0192596 0.148216 -0.195037
0.178991 -0.0584478 -0.156045
0.181794 -0.05542 0.28474
-0.0794496 0.00667478 0.0773527
0.252301 -0.143786 -0.215081
0.0620257 -0.0488373 -0.0323917
0.10336 0.00179751 0.142761
-0.0874644 0.0548153 0.15632
-0.108457 -0.161705 -0.28474
0.204895 -0.0287714 0.17997
0.235264 0.00870358 -0.234538
0.177489 -0.0488373 -0.075575
-0.245088 0.189017 0.219071
0.219498 0.132959 0.342158
-0.149996 -0.00816058 0.274437
-0.210198 0.122588 -0.336137
0.0465009 0.210695 0.300474
0.0508027 -0.167923 -0.28474
0.143332 -0.0488373 0.0429794
0.2578 -0.0488373 -0.108225
0.19486 0.149523 -0.181561
0.0182159 0.211844 -0.297757
-0.00475013 -0.178247 0.28474
-0.0166247 -0.0887512 -0.0594452
-0.102245 -0.0645323 -0.28474
0.244728 0.0345232 0.263677
-0.0934386 0.110641 0.172495
0.0697867 -0.0982458 0.28474
-0.0569888 0.176022 -0.335994
0.235678 -0.0488373 -0.166158
0.246903 -0.0488373 -0.136959
0.181604 -0.12303 0.28474
0.202674 0.179284 -0.193586
0.262332 0.00179751 -0.0737717
0.129171 0.00492602 0.174103
-0.0889367 -0.0293193 -0.0799683
0.0483467 0.0487299 -0.0306785
0.037921 0.0437505 -0.0821867
0.071555 0.138859 0.195012
0.103504 0.0958424 -0.350691
0.117456 0.015754 -0.28474
0.00358612 -0.0221088 0.28474
-0.224188 0.0639458 -0.302553
-0.250816 0.185721 0.144829
-0.0753905 -0.0423976 0.0369703
0.0184796 0.173963 0.337766
0.17664 -0.0488373 0.0879543
-0.0388235 -0.0436902 -0.28474
0.147469 0.0108183 -0.158849
-0.0192789 0.0909 0.346246
0.175911 -0.0488373 -0.140858
0.107272 0.214431 -0.24641
-0.21875 0.186853 0.182828
-0.196304 -0.0275239 -0.00404331
-0.196304 0.0140891 -0.0738781
0.121953 0.0487299 0.0490055
0.1153 0.102382 -0.354329
0.165267 -0.0488373 -0.11299
-0.1031 0.0546285 -0.140645
0.243905 0.122388 -0.297216
0.206965 -0.0488373 -0.0128929
0.128851 0.15266 0.347517
0.0819958 -0.174759 0.28474
0.00500596 0.0358697 0.28474
-0.232126 0.190711 -0.0934199
-0.213581 0.186216 0.0902435
0.230977 0.00179751 -0.0615794
0.242211 -0.0639524 0.104943
0.238767 0.00141932 0.282217
-0.0522481 0.0432258 -0.179458
0.227367 0.207369 0.27551
-0.236732 0.107791 0.309084
0.0751293 -0.0957692 0.0254553
0.252301 -0.0657187 -0.210799
-0.2666 0.106714 0.267843
-0.0948706 0.170589 0.190556
0.0881071 -0.0192597 -0.178148
-0.0595922 -0.0488373 -0.0903488
-0.196304 -0.181851 0.139433
0.18342 0.0120357 0.28474
0.193374 0.00179751 -0.0652524
-0.266227 0.115505 -0.095773
0.234668 -0.0544633 -0.0883056
-0.229227 0.0716254 -0.303728
-0.247821 0.0519847 0.0363108
0.0445954 0.181961 -0.332422
-0.119843 0.181652 0.15327
0.168334 -0.0488373 -0.0731207
0.120622 -0.180619 0.28474
-0.158335 0.212725 0.297039
-0.0723262 0.00755355 0.0461162
-0.218006 0.0367081 0.170666
-0.121835 0.13195 -0.099598
0.164822 -0.00844646 0.171841
-0.168476 0.204149 -0.0514268
0.235242 0.123202 -0.233455
0.211323 0.0524112 -0.311247
0.199303 0.158859 0.341442
-0.196304 0.0276331 -0.0740386
-0.0487555 0.208209 0.239471
0.181484 0.0113225 -0.284739
0.182024 0.0465831 0.0168804
0.111031 -0.0488373 -0.126348
-0.169794 0.208933 0.150689
0.261937 -0.0160342 -0.0898643
0.0100164 0.162949 -0.188746
-0.149128 0.203327 0.125337
-0.147767 0.209748 -0.11716
-0.196304 -0.198747 0.0928721
-0.248384 0.189704 -0.140336
0.104766 0.121383 -0.351218
-0.267334 0.122904 -0.0853887
0.240062 -0.0291 0.170978
-0.130809 0.0678728 0.334999
-0.0888755 -0.0824605 0.28474
-0.180933 0.204724 0.254807
0.243954 -0.197936 -0.164796
-0.133108 0.213224 0.262951
-0.201553 0.210279 0.201949
-0.201869 0.209194 0.198618
0.0232261 0.0276948 -0.187491
-0.235324 0.0474482 0.283539
0.0150318 -0.134512 -0.28474
0.243931 0.00179751 0.053711
-0.0128978 0.111957 -0.184053
0.100598 -0.00148524 0.176674
0.180352 0.0209872 -0.141345
0.0484794 0.00179751 0.149313
0.250088 0.00179751 0.0738733
0.225378 0.00179751 0.0454997
-0.0198209 0.0437464 -0.0132842
0.249997 -0.100912 0.149488
0.122501 0.219913 0.290149
-0.0719992 0.00582945 -0.131543
0.0958307 -0.0933476 0.0800903
-0.120322 0.182796 -0.0213481
-0.156066 0.0389854 0.281638
0.234833 -0.0544633 -0.197466
0.245347 -0.0878812 -0.0393514
0.0920321 0.210425 0.222355
0.152835 0.00179751 -0.0359806
0.221631 0.158392 0.190156
0.0648897 -0.0950511 0.0710592
0.147797 -0.0373465 0.172391
-0.07312 0.00656191 -0.00622966
-0.037907 -0.0257707 -0.174331
-0.227049 0.0406983 -0.23556
0.0496885 -0.0543045 0.172113
0.166474 0.0339454 -0.28474
0.188843 -0.0488373 -0.0171581
0.0172219 0.12561 -0.351195
-0.229365 0.139446 -0.323265
0.152734 0.0446315 -0.311716
0.231615 -0.0767727 0.0219623
0.269393 -0.0499279 0.018702
-0.194674 -0.16569 0.216144
-0.211754 0.0362201 0.181554
-0.0311274 0.144195 -0.345408
0.145004 -0.0548468 -0.172827
-0.0160876 0.0406729 -0.29613
0.207062 0.023861 0.28474
-0.077534 -0.05052 -0.0884029
-0.11163 0.0397773 0.140724
0.259011 -0.0102677 -0.117832
0.0376982 -0.0668085 -0.144786
0.187837 -0.119609 0.234538
-0.0674846 0.0431413 -0.187305
-0.106765 -0.0448639 -0.28474
-0.193312 0.212099 -0.185156
-0.142183 -0.0772881 -0.278003
0.138227 0.030222 0.134904
0.102598 0.207671 0.301536
-0.0379062 -0.0714662 0.108533
0.164782 -0.148685 -0.28474
-0.171698 -0.0765958 0.258698
0.0554894 0.0405386 0.110679
-0.117357 0.176805 0.0682175
0.252301 -0.0747639 -0.103003
0.16177 0.198547 0.291267
-0.196304 0.000609282 0.104578
-0.0549007 -0.00678151 0.168739
-0.171 0.200597 -0.318883
0.168067 0.0124018 0.160176
0.0695733 -0.0488373 -0.0425482
-0.162879 0.202035 0.229385
-0.0682137 0.0792422 -0.342985
-0.100202 0.0292796 -0.0474916
0.225896 -0.065975 0.147301
0.067674 0.0930087 0.345179
0.227982 -0.0886904 -0.210558
0.0820557 0.0487299 -0.00345787
0.132438 0.00742354 0.176103
0.0441047 -0.0488373 -0.0485464
0.166024 0.0459468 -0.30698
0.129248 -0.0957692 0.0654273
-0.114341 0.0927067 0.344019
-0.0676759 -0.0584223 0.11898
0.240458 0.101927 -0.235036
0.186914 -0.185056 0.28474
0.0855551 -0.171856 0.28474
-0.0547885 0.0420401 -0.304167
-0.145861 0.0174942 0.276324
-0.269664 0.122887 0.114134
-0.187674 -0.0543717 -0.236857
0.133568 -0.0664589 0.152475
-0.196304 -0.201035 -0.146596
-0.0740309 -0.0509298 0.154161
0.201204 -0.0488373 -0.157096
-0.223241 0.194443 0.186684
0.113216 -0.0312798 0.168149
0.104207 -0.129065 0.28474
0.258142 -0.0451902 0.139406
0.189082 -0.139493 0.28474
0.252301 -0.0713007 0.129997
0.00819871 -0.0671452 -0.145233
0.0884925 0.0487299 -0.0243775
0.052813 0.0487299 -0.0375652
-0.196304 0.0102405 -0.0742731
-0.101786 0.113169 0.00867638
0.0729527 0.0496611 -0.169686
0.153692 -0.0344599 -0.28474
0.0725751 0.102956 -0.344556
0.119933 0.0367391 0.199374
0.218196 0.195417 -0.314371
0.192169 -0.0758583 0.120724
0.120861 -0.0263104 -0.169992
0.0648237 0.0100804 -0.172583
0.0151091 0.0475498 -0.0234202
-0.161053 0.189839 -0.138047
0.198 0.0435698 -0.17652
0.104807 0.0400266 0.112482
-0.0224147 0.00179751 -0.0789931
-0.235533 0.095576 0.309088
0.217053 0.00742354 0.173507
-0.0316974 -0.0488373 -0.146942
0.0228507 -0.0172436 -0.17338
0.261681 -0.0182436 -0.0923144
-0.196304 -0.19196 -0.0816463
0.237504 -0.0356532 -0.202361
-0.0193628 0.00179751 -0.0317061
-0.248451 0.184264 0.253279
-0.258222 0.173591 0.0345744
-0.17481 0.209075 0.24895
0.193047 0.0095987 0.17594
0.117959 -0.0820971 -0.112072
0.0628777 -0.032236 -0.169992
0.0414894 -0.0496045 0.171431
0.0542695 0.00179751 0.108233
-0.14444 -0.0974768 0.276973
0.105431 -0.0957692 0.0285647
0.202811 -0.169864 0.28474
0.128807 0.0813122 -0.178165
-0.215203 0.21345 -0.0510181
-0.19791 0.211037 0.0175576
-0.136876 0.194703 0.0597985
-0.193841 -0.0272025 -0.218973
-0.0961256 -0.0363719 0.0932829
0.119949 -0.0646994 0.28474
0.232066 -0.00797885 0.197262
-0.00978006 0.211024 0.218544
-0.0311277 0.0376106 0.044668
-0.0587824 -0.0715135 -0.0222744
-0.192661 0.0607812 -0.32901
-0.0906243 0.111356 0.172216
-0.185251 0.031553 -0.240621
-0.251386 0.182324 -0.127101
0.147669 -0.0102709 0.178697
0.200221 -0.0488373 -0.0188803
0.189651 -0.0500065 -0.284739
-0.227041 0.18594 0.286545
0.235947 0.125888 -0.203139
0.236357 0.192684 -0.291476
-0.262003 0.137086 -0.0960139
-0.0158963 0.16668 -0.335724
0.227192 0.138595 0.333944
0.237045 -0.012077 0.21943
0.217543 0.0527339 -0.308564
0.0379266 -0.0886017 -0.0937872
0.0756705 0.008201 -0.163548
0.0229403 0.0479699 0.0168508
-0.185034 0.0425992 -0.26179
0.0242455 0.00179751 -0.0922409
0.160506 0.197703 -0.209087
0.236641 0.00179751 0.0336734
-0.024282 0.153031 0.192508
0.262477 -0.00445798 0.1023
0.110319 -0.0957692 -0.00512262
0.175405 -0.0544633 -0.000810847
-0.244405 0.187502 0.158665
-0.196304 -0.196393 0.154496
0.0382302 0.0270624 -0.183874
-0.267875 0.135877 -0.11032
-0.0686032 0.17549 -0.336347
0.232803 0.0777983 0.312026
0.192744 -0.0488373 0.156998
-0.0618818 0.0662846 -0.181353
0.236399 0.0473033 0.202913
0.236794 -0.0224384 -0.282217
0.0339519 0.10941 0.177244
0.181581 0.0808843 0.175113
-0.191231 0.215513 0.0218903
-0.0611536 -0.0685511 -0.0204129
0.0480591 0.0107609 -0.17654
-0.015487 0.132554 0.200193
-0.19939 0.151858 0.341674
-0.0957692 0.100875 -0.0617783
-0.125604 0.0374456 -0.282606
-0.191724 0.0652934 -0.331512
0.19888 -0.12595 -0.234538
0.0314459 -0.0488373 0.104482
-0.196304 -0.136675 0.0851847
0.151912 -0.0573738 0.163894
-0.110936 0.151778 0.34498
0.245098 -0.0882067 0.190203
-0.0398999 0.0318305 -0.171724
-0.185662 -0.0106535 0.239982
0.183904 -0.0544633 0.126678
0.244728 0.137501 0.266952
0.160353 -0.0747878 -0.130735
-0.109048 0.186114 0.323909
0.114285 0.195464 -0.232042
0.213457 -0.0544633 -0.0177906
-0.229938 0.0398902 0.103243
-0.172438 -0.140948 0.258058
-0.0649271 0.0047726 -0.28474
0.156433 -0.0906013 -0.0831864
-0.0044232 0.16898 0.192471
0.222999 -0.0414087 -0.284739
0.250373 -0.0813078 -0.207411
-0.240967 0.0464059 0.0906802
0.250242 -0.11867 0.170106
-0.221652 0.0389638 0.209624
-0.000473909 -0.077445 -0.28474
0.21915 -0.0544633 -0.156025
-0.186963 0.0402968 -0.271227
0.147038 -0.0540007 0.172298
0.0303531 -0.0488373 -0.151379
-0.0322352 0.0838824 0.342598
-0.196304 -0.040754 -0.0176427
0.23111 -0.0544633 0.0906352
-0.196304 -0.16823 0.000337575
0.167605 -0.0511079 0.176265
-0.201882 0.0340456 -0.121068
-0.0736886 0.218527 0.28144
0.0562482 0.129574 0.180979
0.235193 -0.051794 -0.21207
0.219585 -0.180824 -0.234538
-0.137529 0.193292 -0.0539871
0.235193 0.180235 0.264133
-0.223625 0.192807 -0.184285
-0.150813 0.0735109 -0.339353
0.159077 0.00179751 0.100485
-0.0648159 0.199187 -0.236505
-0.0334493 0.192078 -0.20533
0.13131 0.161572 -0.187278
0.134809 0.0387901 0.114766
-0.199486 0.0338983 0.0540915
-0.239008 0.0428761 0.236312
0.26424 -0.04362 -0.0677836
-0.0892016 0.0179125 -0.13886
-0.228756 0.204273 0.060982
-0.0035256 0.0235223 -0.138139
0.0250519 -0.0488373 -0.0354458
-0.219887 0.0359169 -0.00238417
0.105047 -0.19269 -0.28474
0.238821 -0.0906046 0.0899956
0.206948 -0.000903469 -0.179467
-0.0928249 0.0904901 0.166693
0.0384293 0.195167 0.222186
-0.0746817 -0.0478066 0.00712834
-0.158605 0.210971 -0.115672
0.141565 -0.0821511 -0.111953
0.0123924 -0.0241852 0.28474
-0.0737227 0.00580885 -0.106874
-0.0162544 -0.125946 -0.28474
-0.0324997 0.0151428 0.172623
0.0502792 0.165426 -0.340336
0.215965 0.0273093 0.0983534
0.0753998 0.0614147 0.33127
-0.102811 0.210103 -0.277269
-0.163197 0.195358 0.0499241
0.043479 -0.0258591 -0.174217
0.211233 -0.0186535 0.28474
-0.0796955 0.0530811 0.32558
0.0998513 0.146717 0.346822
0.0911263 -0.0239685 0.28474
0.244728 -0.0757341 -0.253947
0.25916 -0.0179849 -0.116486
0.225898 0.0160626 -0.140605
0.171119 0.202698 -0.289785
-0.0681193 0.195235 0.22204
0.177095 0.0511789 -0.174597
-0.0185171 -0.0490973 -0.167909
0.0720389 -0.0488373 -0.105768
0.199546 -0.0892665 0.28474
0.225859 0.203776 -0.297693
0.201645 -0.160017 -0.234538
-0.0910747 -0.132214 -0.28474
0.0136512 -0.00714836 0.28474
-0.157101 0.205352 -0.236522
0.0894484 0.109697 0.34766
-0.0529668 -0.156427 -0.28474
-0.116916 0.178071 0.0580926
-0.057893 -0.0584145 -0.128536
0.132654 0.0388199 -0.291653
-0.196304 -0.0632542 0.0234829
0.0248111 0.131875 -0.178149
-0.272025 0.10015 -0.0342904
0.11977 0.156782 0.34675
0.188474 0.15121 -0.34277
0.163633 0.218075 0.263454
0.0854758 0.110509 0.346203
-0.196304 -0.174957 -0.144362
-0.196304 -0.0781545 0.0340174
-0.141744 0.193611 -0.0560805
0.106585 -0.0488373 0.134333
0.0724196 0.162222 -0.337329
0.22417 0.0501054 0.288906
0.138859 0.218632 0.261516
0.250545 -0.063985 -0.23175
-0.196304 -0.153996 0.142424
0.0274874 0.0464337 -0.314262
-0.036623 -0.0387709 -0.28474
0.240939 -0.0886904 -0.0446268
0.223001 -0.0517293 -0.173942
-0.0400375 0.0267223 0.0926729
0.206173 -0.0886904 -0.206051
0.236609 0.0102979 0.166381
-0.12177 -0.0852536 0.283156
-0.121349 0.184646 -0.0137096
-0.196304 -0.0428045 0.104226
-0.103541 0.214022 -0.270391
0.252135 -0.117086 -0.186137
-0.037482 -0.0488373 0.106329
-0.0271863 -0.0755266 -0.0976224
-0.00512616 -0.0138805 0.28474
-0.11994 0.181018 -0.103938
0.187541 0.0462871 -0.00994236
0.0322268 -0.0544633 0.172208
0.0401312 -0.0488373 0.142774
0.0342846 -0.0488373 -0.0441331
-0.225628 0.0372742 -0.095448
-0.0150134 -0.119318 0.28474
0.252301 -0.0712065 0.175095
-0.0013216 -0.0646099 -0.148458
0.0583443 0.00179751 0.020954
-0.191262 -0.115959 -0.227723
-0.142674 0.164745 -0.345498
0.139828 0.00179751 0.128599
0.0779194 0.00179751 -0.0634096
-0.11542 0.19298 -0.313369
-0.00943964 -0.17785 0.28474
-0.0735067 -0.0398226 -0.114474
-0.0729415 -0.0315812 0.147831
0.0874156 0.069461 0.333193
-0.268868 0.095163 0.166705
0.129722 0.214232 0.246714
0.195463 0.00179751 0.0731164
-0.247825 0.174338 -0.0903423
-0.271058 0.134331 0.0473288
0.202716 0.213552 -0.302135
0.211817 -0.0544633 -0.230598
-0.223169 0.0466328 -0.286111
-0.197875 0.0408433 0.274447
-0.121453 0.18328 -0.0578629
0.240043 0.0142085 -0.126455
0.0626291 0.148399 0.343769
0.155212 0.211766 -0.277668
0.192836 -0.0488373 0.147446
-0.0704241 -0.0766983 -0.28474
0.188638 0.165834 0.336736
0.238644 -0.052355 0.170711
0.25994 -0.0527084 0.100429
0.127155 0.0487299 -0.0208139
-0.176454 0.106805 -0.353517
0.218141 -0.0562986 -0.156487
-0.268947 0.11891 -0.00238417
-0.152059 0.0410174 -0.294283
0.154733 0.0480049 -0.0494316
0.0168906 -0.0798738 -0.119193
0.109936 0.0369869 0.118097
-0.265441 0.0793271 -0.141523
0.19847 0.0292182 0.176675
0.245716 -0.0488373 -0.15641
-0.203676 0.0347067 -0.180588
-0.187263 0.213124 0.0681574
0.248509 -0.0544265 0.165376
-0.0930341 0.214045 -0.272685
0.111222 0.178568 -0.209279
-0.245104 0.0486588 -0.252672
0.212681 -0.0790033 -0.0944725
-0.245867 0.0583301 -0.278519
-0.196304 -0.140323 -0.0527852
0.247535 -0.0850192 -0.0762039
-0.0458529 -0.0310125 0.162772
0.116123 0.141798 -0.180962
-0.0955973 0.0817084 -0.0514404
-0.233743 0.0410907 -0.0763269
0.0761462 -0.0488373 -0.0247142
0.157648 0.0756901 -0.339027
0.19536 0.184342 -0.32838
-0.0475613 0.0407875 0.174177
-0.269237 0.122668 -0.0744826
0.209935 -0.0849295 -0.0308173
0.042853 0.164922 0.188038
0.0706032 0.00446912 0.172368
0.115988 -0.0324639 0.168489
-0.0787329 -0.0243206 0.128286
0.049323 0.199232 0.313839
0.0639944 -0.0365873 -0.28474
0.195907 -0.0882233 0.0736128
0.212707 0.00669045 0.169499
0.00502796 0.104073 -0.17974
0.237655 -0.0886904 -0.149836
-0.239461 0.184381 -0.178107
-0.194394 0.171881 0.334741
0.0463021 -0.117926 -0.28474
-0.158712 0.216099 -0.276505
0.192924 0.00179751 -0.0297106
-0.00580258 -0.0934678 -0.00593386
0.235193 0.075274 0.287866
0.0319399 -0.0848182 -0.106099
-0.00527001 0.0385977 0.100723
-0.0413422 0.217291 0.265351
-0.0768672 0.0955146 0.172546
0.249588 -0.0608196 0.089949
-0.238438 0.0909009 0.306535
0.238434 0.0136304 0.148174
-0.020608 0.154105 0.342411
-0.084098 -0.00741674 -0.063118
0.198935 -0.160769 -0.234538
-0.0698743 -0.17874 0.28474
0.119707 -0.0488373 0.0721827
-0.178729 0.1372 0.349953
0.0950791 -0.0488373 0.0826749
0.14934 0.142879 0.347097
-0.191091 0.0348814 -0.228303
-0.0767909 -0.0355815 0.151456
0.108547 -0.0957692 -0.0246266
-0.200785 0.146146 -0.34096
0.198253 0.00179751 -0.00401172
-0.035206 0.122648 0.183177
-0.00978671 -0.0488373 0.128036
-0.0286273 -0.0813347 -0.0693579
0.0353898 0.173917 -0.337106
0.13206 -0.0957692 -0.0288266
0.251599 -0.0634492 0.211835
0.205181 -0.0886904 0.0394172
-0.260677 0.0896594 0.000573834
0.111058 -0.0328464 -0.28474
-0.0118289 0.21601 0.236211
0.0313658 -0.0123425 -0.172829
0.193649 -0.0488373 -0.0295108
0.224444 0.121608 0.337998
-0.209386 0.0345069 0.0560895
0.17724 0.208143 -0.2944
0.195434 0.0416651 0.0723589
0.105148 0.0487299 -0.0134538
-0.115469 0.174518 0.187305
-0.0745485 -0.024858 -0.0303718
0.239155 0.15339 0.252324
-0.107282 0.0545634 0.0462882
-0.00112437 0.175588 0.33156
0.206851 -0.0488373 0.159752
-0.0243581 0.0403321 -0.0367168
0.215083 -0.0488373 0.0620607
-0.156623 0.195244 0.22835
0.0403434 0.00179751 0.0417117
-0.0760124 0.108382 -0.353518
-0.0431472 -0.0184794 -0.28474
-0.0374557 -0.0842864 0.28474
-0.181335 -0.15604 -0.246704
0.0502375 -0.0445458 0.166507
0.088748 0.0411531 -0.296709
-0.0385645 -0.0488373 0.115608
-0.230987 0.151586 0.318091
-0.212198 0.214211 -0.249201
0.0642078 0.00179751 0.0900553
0.194219 -0.0488373 0.148873
-0.113938 0.214574 0.232678
0.177965 0.200969 0.305769
-0.209334 0.162444 -0.331741
0.233863 0.197806 0.25261
-0.268567 0.134292 -0.203906
-0.0377181 0.0686263 0.173805
0.0401449 -0.164071 -0.28474
0.235193 0.142527 -0.220881
-0.173508 0.215706 0.262012
0.172343 -0.0536861 0.197292
-0.10732 0.157024 0.131941
0.242935 -0.112579 -0.279242
-0.0506927 -0.0182016 0.164142
0.00756757 0.191942 -0.206494
0.158131 -0.0488373 0.0850898
0.116764 -0.0488373 -0.0936861
-0.196304 -0.0250946 0.0482148
0.0712229 0.0713333 0.333643
0.2352 -0.00495042 0.234538
0.182891 -0.0488373 0.142545
0.175581 0.0316194 0.17491
-0.10463 0.0433166 -0.132654
0.186962 0.0871649 0.341568
0.148101 0.00179751 -0.153979
0.240442 -0.0488373 -0.092926
0.0402636 -0.0488373 0.116482
0.149522 -0.0141562 -0.178817
-0.0401974 0.167905 0.188215
-0.235018 0.0450369 0.192266
-0.175858 0.211856 0.296015
-0.257279 0.0756007 -0.095448
-0.226669 0.209386 -0.228317
-0.100081 0.156669 -0.183817
-0.00668372 -0.0825636 0.110618
0.0328532 0.0998814 -0.353519
0.0397655 0.00179751 0.044276
-0.187367 0.213476 0.166388
-0.255384 0.0637211 0.046254
0.200862 -0.0544633 0.213873
0.087952 -0.200117 -0.28474
-0.146351 0.20288 -0.23435
0.122744 0.0372184 -0.107307
0.164236 -0.0452232 -0.189171
0.244728 0.0484385 0.240405
-0.139434 0.190509 0.217557
0.0800655 0.0332915 0.168826
0.0953108 0.215309 0.264936
0.255004 0.0060201 0.135951
-0.115331 0.170533 0.0769753
-0.0326431 0.00179751 0.156726
0.0397918 0.00179751 0.0553674
0.244385 -0.0925292 -0.169797
0.236787 0.0929504 0.197389
0.132579 -0.0488373 -0.0627065
0.0968011 0.00774862 -0.28474
-0.0486962 -0.0777191 0.0325842
-0.0979707 0.17419 -0.191402
0.0888908 -0.0957692 -0.0445318
-0.130612 -0.220894 -0.233602
-0.196304 -0.147212 -0.14972
-0.0582573 -0.0488373 0.128028
-0.104389 0.0775778 0.336759
-0.135262 0.197967 -0.0639872
-0.236116 0.190225 0.014038
0.0764555 0.152833 0.336296
0.264937 -0.0235459 0.0991593
0.131292 0.200758 0.233908
0.0892463 -0.081413 -0.113581
0.244728 0.133342 0.271074
0.0656812 -0.0931103 -0.0698843
-0.257804 0.163423 0.107571
0.248606 -0.17122 -0.124688
-0.110173 0.16017 -0.02327
-0.0218761 0.00179751 -0.127167
0.244728 0.0398282 0.272369
0.0842499 -0.0488373 -0.154416
-0.0221792 -0.0488373 0.159973
0.0610711 -0.0957692 0.00828237
-0.0744089 -0.00109935 -0.0904061
0.214565 0.208312 -0.299767
0.0894096 -0.182326 0.28474
0.00227869 0.0467569 0.0486229
0.103082 0.0464254 -0.0680053
-0.0765939 0.00292578 -0.0891981
-0.11728 0.178284 -0.125351
0.265034 -0.0544633 0.0635599
0.235193 0.173221 0.243652
0.115907 0.185148 -0.23936
0.0876208 -0.0288153 0.28474
-0.0937202 -0.0441844 0.100971
-0.0344927 -0.0685002 -0.118746
0.16275 -0.0388666 0.28474
0.00521764 0.198464 -0.309692
0.134818 0.0110535 -0.181501
-0.137835 -0.080597 0.279987
0.14464 0.180839 -0.197953
0.0446967 0.00179751 0.162968
0.187932 0.0460456 -0.0407109
0.0442308 0.000523023 -0.179648
-0.10338 0.0471745 -0.0521911
0.0294983 0.0979804 0.177091
-0.0833572 -0.0493775 -0.107142
0.0866161 0.0868642 0.173794
0.0234211 0.0377675 -0.106412
0.231765 0.0551276 0.196661
-0.169176 0.02459 -0.260882
-0.135004 -0.196429 0.281255
0.174172 0.0468692 -0.0430027
0.237413 0.169115 0.316007
0.160307 -0.0488373 -0.074155
0.0116955 0.0576023 0.330555
-0.266813 0.15347 -0.0484577
-0.0993467 0.130549 -0.0363748
-0.137375 0.0162139 0.280197
-0.066784 -0.0615168 0.0318795
0.171967 -0.0269344 -0.17828
-0.0885875 0.163871 -0.198122
-0.145369 0.0438043 -0.303749
-0.193302 -0.090451 -0.220801
0.104899 -0.0727983 -0.28474
0.0716754 0.00179751 0.110317
0.115665 0.0485779 -0.0565934
0.197816 -0.0886904 -0.00454382
-0.129935 0.194225 -0.170727
0.145177 -0.200704 -0.28474
0.264183 -0.00881749 0.0925144
0.211991 -0.0847532 -0.0608551
0.244281 -0.0544633 0.227106
0.0711875 -0.0168456 0.28474
-0.183651 0.0277456 -0.243105
0.203345 0.0109152 0.163088
0.0234732 0.177808 0.335713
-0.147167 0.202448 -0.225573
0.245533 -0.0435927 0.168975
-0.176126 0.21164 0.0432407
-0.0955712 0.103544 0.0501018
0.23942 -0.0488373 -0.0844791
-0.0486166 -0.00279838 0.174642
0.165344 0.193701 0.309986
0.200176 0.222197 -0.264404
0.0126351 0.0514248 -0.325644
-0.248363 0.0528266 0.15362
0.0401099 -0.192385 -0.28474
-0.0746817 -0.0336317 0.0910151
-0.109314 0.0485792 -0.0469263
0.0656907 -0.00888634 -0.28474
0.17051 0.105531 -0.344756
0.0314088 0.0625022 -0.183485
0.249602 0.0168573 -0.0900984
0.12387 -0.0229718 -0.169993
-0.085137 0.139861 -0.177421
0.106245 0.0475486 -0.316331
0.172343 0.00179751 0.0940478
0.0314344 0.0314365 -0.122269
0.202149 -0.0544633 0.139767
0.0240992 -0.0488373 -0.135704
0.252301 -0.141774 -0.0306696
0.085364 0.201086 -0.283997
-0.106723 0.154261 -0.160316
0.011445 -0.0485976 -0.28474
-0.196304 -0.00160892 -0.129152
0.0577904 -0.00393613 0.175926
0.00284942 0.212151 -0.281099
0.0581276 0.0487299 0.0443272
-0.225742 0.0387862 -0.0688093
0.262825 0.00780127 0.0348431
0.0391133 -0.0488373 -0.106358
0.256005 0.00179751 -0.0315945
-0.00202815 -0.00398102 -0.169065
0.132955 0.0293875 0.182053
-0.198745 0.0348717 0.210882
0.191422 0.0557157 -0.17483
-0.0583163 0.0417961 0.18017
-0.0925398 -0.0118274 0.28474
-0.190776 -0.0863916 0.229372
0.200465 0.00179751 0.0135885
0.212837 0.0376385 0.0259391
0.0273637 0.217743 -0.291585
0.229201 0.0315034 -0.0459166
-0.113685 0.156927 -0.340958
0.124134 -0.0488373 -0.0903488
0.16564 0.12783 0.345845
-0.0822223 0.0224405 0.00341089
0.0797511 -0.0488373 -0.126858
-0.14323 -0.204174 -0.21794
0.0854603 0.00592191 0.163987
-0.238296 0.158404 -0.303434
0.105582 0.00179751 -0.114875
-0.00145038 0.0163166 -0.150447
-0.196304 -0.108607 0.0230928
0.245231 0.00179751 -0.0288527
-0.119155 0.0770893 0.33802
0.0201272 -0.0488373 0.108264
-0.0448827 -0.154743 0.28474
0.012636 0.0463689 0.309423
-0.196304 -0.0560553 0.112142
0.0906391 0.0055463 0.164368
0.0434597 0.00555438 -0.28474
-0.261175 0.148139 -0.279252
0.233138 0.00529561 -0.175229
-0.156506 0.213933 -0.00643612
0.0420365 0.190493 -0.211003
-0.175672 0.21503 -0.269057
0.254496 -0.173274 0.0561082
-0.216389 0.0368288 0.101504
-0.132723 -0.0941507 -0.281583
0.164582 0.00179751 -0.0463723
0.0506038 -0.0488373 -0.145078
-0.148044 -0.03395 0.275328
-0.113174 0.0783193 0.341897
0.0513059 0.00179751 0.161993
0.229931 -0.0886904 -0.00631793
-0.248847 0.0553954 0.229416
-0.266791 0.112388 0.0906802
-0.0964723 -0.178224 0.28474
0.118506 0.177177 -0.249406
0.200077 0.0549278 0.319489
0.141193 -0.0543023 -0.165231
0.0742987 0.00179751 0.0347171
-0.178901 0.185341 -0.331595
0.03668 0.0934252 0.349241
-0.051185 -0.0675398 0.104574
-0.216192 0.203128 0.272381
0.161706 -0.154496 -0.28474
-0.1101 0.217657 0.252409
0.230879 -0.0886904 0.0222977
-0.211417 0.196173 -0.0962702
0.177249 0.040902 0.290782
0.234975 -0.0488373 0.0511954
-0.228731 0.164235 -0.304032
0.115419 0.0191548 0.185718
-0.0212412 -0.141928 -0.28474
-0.264938 0.109281 -0.273244
0.23666 0.128286 0.328504
-0.0577599 -0.0668976 0.0946623
-0.0833789 0.179587 0.195288
0.156329 -0.033454 -0.184678
-0.264187 0.160098 0.219968
0.239114 -0.0891979 0.174074
-0.271485 0.110358 0.122568
-0.121299 0.207428 0.27849
0.253126 0.00179751 0.136003
0.0142011 0.124878 0.351139
0.00818406 0.0365092 -0.110125
-0.196304 0.0227533 -0.0507016
-0.0512434 0.0932086 -0.177526
-0.121639 0.202487 0.285859
-0.117994 0.198335 0.284861
-0.196304 -0.149234 0.0864397
0.250843 -0.107313 0.0121604
0.192869 0.164628 -0.337945
-0.269874 0.107339 0.095448
0.175929 0.00179751 0.0310249
0.212298 0.0194396 -0.131702
0.235997 0.0115587 0.165315
0.0607155 0.0443489 -0.0790144
0.124464 -0.0800264 0.126976
-0.170732 -0.103128 -0.259535
0.0856374 0.108359 -0.182122
-0.204836 0.0342272 -0.0484882
-0.0195667 0.137881 0.348513
-0.0794496 0.00590695 0.125444
0.0087837 0.199593 0.211693
0.244728 -0.0965668 -0.24591
-0.0196667 0.196552 -0.297872
0.128343 0.0820664 -0.178003
0.135988 -0.0999295 -0.28474
-0.0781329 -0.0268538 -0.129553
-0.0068132 -0.0488373 -0.11237
-0.230811 0.202973 0.152382
-0.196304 -0.0244861 0.156692
-0.0574347 0.0829094 -0.344963
0.209379 0.0553336 -0.180268
-0.0883901 0.0748987 0.0105591
-0.208122 0.035631 0.182677
0.211665 0.0483818 -0.181021
0.266768 -0.0294121 0.0528428
0.0323094 -0.00938564 0.167093
-0.169352 0.0149341 -0.260729
0.244728 -0.068093 0.242351
0.252577 -0.137564 -0.173865
0.186437 -0.0886904 -0.0407112
0.208911 0.00179751 -0.125346
-0.103324 0.144235 0.173143
0.150316 0.00179751 0.0278648
-0.237688 0.0434182 0.0769662
0.18263 -0.0488373 -0.0767045
0.0788271 0.0369916 0.168245
-0.0875647 0.0492825 0.0301463
0.220674 -0.0488373 0.0599888
-0.128122 -0.0430307 -0.282244
-0.196304 -0.167487 -0.179593
-0.190266 0.0437801 0.266858
0.182219 0.222037 0.265578
-0.00826908 -0.0531727 -0.166001
-0.087756 -0.0249129 -0.0960228
0.252254 -0.117989 -0.0862085
-0.261028 0.163231 -0.0932617
0.262799 0.00740601 -0.0546676
0.247789 -0.0846865 0.0407828
-0.211284 0.18793 -0.185864
-0.0384085 0.122944 0.18221
0.266797 -0.0436044 -0.0432779
0.235455 -0.0237665 0.22411
0.18749 -0.200078 0.234538
-0.00110568 -0.0118567 0.28474
0.0906496 -0.158538 -0.28474
-0.0882781 0.165703 -0.196984
0.267544 -0.0301983 0.0237555
-0.177326 0.211691 0.0527601
0.252301 -0.141537 -0.0935307
-0.101767 0.136593 0.345487
-0.159626 0.181531 0.0473546
0.250037 -0.101213 -0.0954102
0.252301 -0.0662154 -0.0307277
-0.264943 0.0969821 0.194375
0.127925 0.0346951 -0.190641
-0.0950261 0.0298575 0.0374372
0.245415 -0.196028 0.0264355
-0.112053 0.165341 0.113661
-0.027286 0.032105 -0.081525
-0.0387798 0.149667 0.186358
0.201912 -0.0886904 -0.0330208
0.0534857 -0.0429115 0.28474
-0.159365 0.196459 -0.225372
-0.193032 0.216794 0.0417576
-0.0184468 0.0385617 -0.0698498
-0.19628 -0.0445763 -0.207426
0.166092 -0.0206625 -0.17825
-0.0480217 -0.0488373 -0.118577
-0.154464 0.203911 -0.126034
-0.0658685 0.00179751 0.0622172
0.239124 -0.183107 -0.282217
0.23008 0.053621 -0.284739
-0.266236 0.129179 0.100651
0.217796 0.0267488 0.0990472
0.183312 0.199934 -0.311404
-0.058336 0.00179751 -0.0420789
0.20716 0.140644 -0.344139
0.216338 -0.0374234 0.28474
0.241566 0.0214022 0.0531698
-0.268959 0.0847865 -0.0524456
-0.0336135 -0.0488373 -0.0365571
-0.00938282 -0.104043 0.28474
-0.0328349 0.000568865 0.28474
-0.196303 -0.147893 -0.186697
0.198038 -0.0848591 -0.0841662
-0.246905 0.0505635 -0.0387481
0.23443 -0.0544633 -0.0150191
0.25621 0.00179751 -0.121614
0.0134864 0.217981 0.271375
-0.0692742 -0.177107 0.28474
0.235193 0.0801351 0.226371
0.117848 -0.00883336 0.168717
-0.245575 0.0562914 -0.00238417
-0.0881475 -0.0228618 0.00965058
0.103422 -0.0957692 -0.0276322
-0.0765303 0.128071 0.350824
-0.222698 0.0458663 -0.282778
-0.140605 0.0416529 0.297481
-0.208974 0.0450582 0.28364
0.197547 0.110405 -0.177402
-0.201492 0.212013 -0.0755543
0.170126 -0.0926087 -0.0655269
0.171494 -0.0488373 0.1599
-0.114558 0.168634 0.077581
-0.00461359 0.00179751 -0.0878298
-0.0534191 0.0986074 -0.177363
0.0586741 0.0885164 -0.176607
0.0189143 0.184151 -0.228412
-0.259169 0.0714493 0.0704694
-0.0703665 0.217987 0.292164
-0.146318 -0.216048 0.200051
0.25774 -0.0587671 -0.0106985
0.179033 0.0595886 -0.324524
0.18151 -0.0614812 0.234538
-0.00462431 0.0360324 0.111613
-0.0869291 -0.15254 0.28474
-0.155286 -0.0848154 0.272023
-0.0271329 0.0230075 0.128586
-0.0745032 0.00179751 -0.0143229
0.127116 0.000696574 0.28474
-0.0707303 -0.0565678 -0.0910582
0.0385902 -0.00253889 -0.28474
0.239288 0.173101 0.217485
0.216313 0.210582 0.231689
0.0243975 0.194452 0.223589
0.242159 0.0393655 0.236737
0.177847 0.0467405 0.0433714
0.247128 -0.0488373 0.132145
0.0328764 0.113617 0.177195
0.251582 -0.176995 0.115096
-0.251082 0.0862831 0.294191
-0.141456 0.0611094 -0.332937
0.21317 -0.0614796 0.234538
0.166471 -0.0403514 0.28474
0.210862 0.0376801 0.0391616
0.24213 -0.0544633 -0.128978
0.113552 -0.0488373 -0.0577506
-0.19963 0.194813 0.309849
0.102666 0.210655 -0.246241
0.157317 0.0692635 -0.33545
0.235843 0.181367 0.272574
0.0908985 -0.0572893 -0.28474
-0.0781082 0.00171344 -0.28474
-0.0165447 0.165094 0.33107
0.125616 0.175048 0.337108
0.0773306 0.109605 -0.181447
-0.0637855 0.0334049 -0.196804
0.000236906 0.00179751 0.0201424
-0.0143122 0.136916 0.192177
0.244728 0.0713552 -0.262899
0.138914 0.00179751 0.0925717
0.153782 0.0476107 0.314892
0.1889 -0.0974104 0.234538
0.252301 -0.141316 0.105943
0.198229 -0.0864942 -0.284739
0.119626 -0.0488373 -0.118419
0.222382 -0.0544633 -0.0219975
0.150467 0.0298039 -0.28474
-0.196304 -0.0501343 0.141405
0.0305934 0.040852 0.109018
0.082014 0.198393 0.291277
-0.0831231 0.0653924 -0.163271
-0.196304 -0.163489 -0.164221
0.185192 0.023938 -0.284739
0.0671039 -0.0345507 -0.169992
-0.167515 0.209328 0.218859
0.131484 0.00316985 -0.173568
0.204686 0.09341 0.342044
0.186874 -0.0732819 0.28474
0.0341595 -0.027459 -0.172234
-0.129646 0.213829 -0.261574
0.115734 0.0162402 0.183475
0.0298274 0.187297 0.227608
-0.194677 -0.146776 0.216133
0.0584268 -0.0639254 0.150093
0.205191 -0.0318306 -0.18018
-0.0847525 0.127184 0.175205
0.198092 -0.0508347 -0.179941
0.20291 -0.124484 0.234538
-0.041521 -0.0488373 0.0333644
0.254496 -0.175344 0.056148
0.0435455 -0.164064 0.28474
-0.0519455 0.0227807 -0.0757338
0.121917 0.177511 0.24633
0.120208 0.13807 -0.34952
-0.165583 0.0404019 -0.289564
0.0489643 -0.128769 0.28474
-0.0306646 0.208657 -0.219217
0.12492 -0.0488373 0.159302
0.129044 0.011736 0.177529
-0.196304 0.0178638 0.0357479
0.129876 0.0451405 -0.0748177
-0.115353 -0.143448 -0.284078
0.182728 -0.0488373 0.136939
-0.0448964 0.00742354 -0.166255
0.0721164 0.0630987 0.328001
0.203355 0.170757 -0.336015
-0.104368 -0.181742 -0.28474
0.195574 0.00179751 0.166397
-0.196284 -0.163958 -0.203925
0.181647 -0.133748 -0.234538
0.188536 0.00179751 -0.145247
-0.0973279 0.0666995 -0.153234
0.238436 0.00179751 0.0743189
0.006619 0.0675881 0.17389
-0.15603 0.19179 -0.231503
-0.196304 0.000131851 -0.165182
0.220426 -0.0545514 -0.161008
0.137497 -0.0488373 -0.140721
0.00554345 -0.0530786 -0.172811
0.189498 0.0406668 0.289938
0.184259 0.185802 -0.197068
0.115256 0.0368372 -0.108148
-0.196304 0.0296587 -0.109095
-0.163098 0.210992 -0.117039
0.121092 0.203226 -0.238314
-0.0591861 0.00179751 0.0776654
-0.163571 0.21534 -0.00432439
-0.0570698 -0.0729466 0.0376804
-0.220727 0.187682 0.0947952
-0.232382 0.041626 -0.182642
-0.0478524 0.0145101 0.140912
0.207008 -0.0886904 -0.183752
0.154801 0.0512741 -0.324327
0.213438 0.0366887 -0.0643909
-0.196304 1.71922e-05 0.129114
-0.087604 -0.150002 0.28474
-0.193483 -0.148778 -0.220185
-0.11546 0.14056 -0.0867677
0.0181697 -0.0488373 -0.114143
0.252301 -0.0706758 0.183273
-0.0586089 0.0947489 0.349886
-0.252906 0.167155 0.277584
0.1694 -0.0325302 0.28474
-0.247533 0.0596186 0.180816
0.0462244 -0.0488373 -0.0192055
-0.0479081 -0.197712 0.28474
-0.0739633 -0.0412073 -0.0629185
0.251054 -0.0804167 0.147297
-0.155164 0.198479 0.0402116
-0.063073 0.192576 -0.234941
0.244728 0.134346 0.292664
0.0567876 0.203202 -0.303453
0.0898535 0.0512819 -0.170964
0.0914882 0.00179751 0.156687
0.0160139 -0.0488373 0.0459205
0.00924332 0.0472351 -0.0224262
0.169453 0.19052 0.289999
-0.196304 -0.0583555 -0.054098
0.212488 0.00179751 0.0483062
0.24335 0.00179751 0.0450181
-0.0936966 0.0861527 0.117912
0.250743 -0.106553 0.0892242
0.0311994 0.196236 0.233757
0.242472 -0.0544633 0.113924
-0.196278 -0.108017 -0.208671
-0.0623015 -0.0279423 0.156201
0.227372 -0.0488373 -0.148075
0.109735 0.0422216 0.101757
-0.246829 0.0998931 -0.305344
-0.232977 0.12825 -0.313305
0.166445 -0.0406409 -0.168119
0.0671087 0.0486797 0.0675184
0.0599368 0.0656338 0.332944
-0.26494 0.149942 0.091345
0.0232776 0.119194 -0.352063
0.0223111 0.013058 -0.28474
0.102393 -0.0488373 0.0343076
-0.0787212 -0.0544633 -0.0386186
-0.00882956 0.129823 0.346398
-0.0675885 0.00179751 -0.136162
-0.0907468 0.0320986 0.15145
0.244728 0.11951 0.256849
0.199948 -0.126723 0.28474
0.196737 0.00179751 0.00821652
-0.0208051 -0.0488373 0.166615
0.252301 -0.134845 -0.154359
-0.267706 0.119477 -0.195383
-0.0572925 -0.14063 0.28474
0.105257 -0.181033 0.28474
-0.0572438 0.0323639 -0.28474
-0.0859527 0.0498667 -0.0663494
-0.211173 0.191587 -0.00163623
0.020482 0.187645 -0.229299
-0.20623 0.0457485 -0.289086
0.00202717 -0.0861274 0.28474
-0.169466 0.209592 0.15602
0.139525 -0.0541774 0.171794
-0.196304 -0.142319 0.112192
0.190595 -0.0488373 0.126506
-0.156629 -0.0255959 -0.271411
0.0750807 0.0713571 0.170767
-0.101423 -0.13703 0.28474
-0.0929516 0.0865263 -0.166106
-0.117846 0.178355 -0.119981
0.037338 0.00674332 -0.166165
0.0984996 0.0754791 -0.174715
-0.176622 -0.0120587 -0.254025
-0.0493816 0.00179751 0.137851
-0.213397 0.0420114 -0.268156
0.0980843 0.00179751 0.00944572
0.142558 0.183689 0.200225
-0.119085 0.17374 0.0717395
0.0362875 -0.054433 -0.169992
0.0777143 0.139622 0.198384
0.235193 0.0909567 -0.289175
-0.083553 0.00686651 -0.155502
-0.196304 -0.0828129 -0.0669953
0.0674019 -0.0957692 -0.036113
-0.0532041 -0.0488373 -0.0694394
0.233228 -0.0488373 -0.00417471
0.0233764 0.0479933 -0.0390974
0.238208 0.0440119 0.282217
-0.210221 0.185951 -0.000919109
-0.0944297 0.0930496 0.113039
0.268103 0.00514735 0.0800695
-0.267981 0.125528 0.262872
-0.0346711 0.0138207 -0.14697
-0.200402 0.214075 0.126452
-0.0427187 -0.0693689 -0.0951609
-0.143598 0.0418605 -0.298537
0.110063 0.0718831 -0.339173
-0.250824 0.181841 -0.217055
-0.181163 -0.159582 -0.246971
-0.0602917 0.161372 -0.186234
0.248462 -0.0978569 -0.139369
-0.122215 -0.126231 -0.283093
-0.196304 -0.0698191 -0.0253416
-0.202555 0.202256 -0.184242
-0.0379144 0.00179751 -0.0499562
0.0893116 -0.0931766 0.080997
0.0532112 -0.0488373 0.149224
0.0986557 0.0260469 0.28474
0.0470213 0.213952 0.295729
0.173098 0.0124374 0.159955
-0.196304 -0.0814048 0.0957945
-0.00645638 -0.0317144 -0.28474
0.244728 0.028788 0.262445
0.0456604 0.0930826 0.349147
0.258161 0.00742354 0.149243
-0.256325 0.0691496 -0.079987
-0.0242175 0.201448 0.210029
-0.213736 0.0414345 -0.296307
0.235553 -0.0682715 0.100552
0.116221 0.182933 -0.22519
0.0603465 0.0272145 0.171219
0.00841512 0.0161088 0.28474
0.235193 0.102606 -0.208798
-0.00422335 0.0310026 0.170233
0.156502 0.204262 0.300083
-0.0670249 0.0664199 -0.336511
-0.0372647 -0.0544837 -0.28474
0.162047 0.0464933 0.0740836
-0.0857652 -0.00551435 -0.124471
0.0810258 -0.0781776 -0.28474
0.0250991 -0.0488373 -0.125585
-0.206913 0.0904893 -0.334111
0.188595 0.00179751 0.0855068
0.234093 -0.0894322 0.0474125
-0.0804273 0.213252 0.295562
0.0263976 0.188978 0.232445
0.134415 -0.0737831 0.141942
0.20796 -0.0502969 -0.181614
-0.196304 -0.167036 0.0682192
0.0139671 -0.0744696 -0.28474
-0.066596 0.0118911 -0.0950825
-0.0952821 0.098329 0.0564856
-0.26685 0.138644 0.188511
-0.0677286 0.0479574 -0.317833
0.24668 0.0197566 0.0199963
-0.158976 0.206178 0.154814
-0.093373 0.113196 -0.172495
-0.196295 0.0115255 -0.193599
0.261359 -0.0343939 -0.0953991
0.237434 -0.0645467 0.121767
0.241118 -0.149464 0.234538
-0.079107 0.0187399 -0.163961
-0.16165 -0.0358411 -0.267397
0.117527 0.0814964 -0.178103
0.186446 -0.112313 0.234538
0.0773192 0.121139 -0.201798
0.121144 0.00179751 -0.114678
-0.154595 0.212943 -0.103861
-0.257418 0.170483 0.0707295
0.0998652 -0.0146491 0.166511
-0.180838 0.141516 0.348872
0.228345 0.00399566 0.177707
-0.258946 0.15023 -0.0986627
0.206832 0.187401 0.199905
-0.208225 0.176448 0.324084
0.231214 0.064971 0.301732
0.215647 0.00179751 -0.126117
0.0362109 0.00179751 -0.0152888
0.0729122 0.10117 0.177166
0.0900877 0.0749588 0.337153
0.235193 0.0389317 -0.231036
-0.0745189 -0.0518535 0.0206348
0.241256 0.00179751 0.157844
-0.146299 0.0166002 -0.276124
-0.133047 0.197175 0.16568
-0.127513 -0.142963 -0.282331
-0.268699 0.141172 0.116737
0.170727 0.0465243 -0.308335
0.246321 -0.19016 -0.229425
0.0152902 0.00179751 0.107365
-0.117935 0.20106 0.302116
-0.25182 0.181832 -0.034134
-0.00672244 0.130659 0.18895
0.214161 -0.0544633 0.07307
-0.0703945 0.011301 -0.28474
0.088768 0.00179751 0.00973942
-0.194897 -0.0613273 0.215387
0.224233 -0.078573 0.28474
0.233315 -0.0488373 0.040729
0.218828 -0.0471272 -0.284739
-0.260864 0.075499 0.206987
0.183165 -0.0886904 -0.0590941
0.264961 -0.0295072 -0.0608753
-0.0400164 0.00179751 0.160428
-0.188793 0.00482805 -0.235117
0.0671693 0.0595578 0.170826
0.265894 -0.0171197 0.0749638
0.219457 -0.0886904 0.0368742
-0.0520706 0.186354 0.330047
0.0680093 -0.0394866 -0.187164
0.11423 0.149471 -0.183548
0.252301 -0.0720126 0.142844
0.0840399 -0.00677683 0.165752
-0.127046 0.105666 -0.349978
-0.0604407 0.047717 -0.317572
-0.0486213 -0.0427599 -0.157967
0.10113 0.0469354 0.0767658
0.121564 0.0937825 0.177125
-0.0779437 0.00372221 0.00498185
-0.196304 -0.187345 -0.146661
-0.183182 0.20698 -0.256861
-0.199667 0.154644 0.341532
0.205802 -0.165306 -0.284739
0.152394 -0.0474481 0.172257
-0.0474097 0.125315 -0.180554
0.134365 0.0560895 0.187155
-0.266601 0.133663 -0.080909
0.149939 0.158996 0.341604
-0.109431 -0.0070089 0.28474
0.251716 -0.0546152 0.136642
-0.000344433 0.0335746 -0.28474
0.072864 0.065777 -0.333583
-0.0612148 0.045692 -0.19422
-0.167407 0.20964 -0.0321903
0.153422 -0.0488373 0.109455
0.0768976 0.204668 -0.295719
0.0960789 -0.0932027 0.0808585
0.207075 0.031753 -0.179509
0.252301 -0.157101 0.142931
0.0117294 0.174653 -0.335563
0.236984 0.0368483 -0.282217
0.0281105 0.113906 -0.352778
0.232955 0.148338 0.323408
0.270577 0.00358707 -0.0129967
-0.0578348 0.00179751 0.0956298
0.188881 -0.0488373 -0.12271
0.149351 0.00179751 -0.104369
0.0516932 0.0636381 -0.334496
0.211357 -0.0846958 -0.0479291
-0.056325 0.140512 0.18039
0.236327 0.1307 -0.238648
0.151461 0.121395 -0.181631
0.0925316 -0.0807307 0.28474
0.239581 -0.0488373 0.107434
0.238 0.124702 -0.233347
-0.238335 0.178978 -0.287301
-0.00845113 0.00179751 0.0503969
-0.203844 0.0346629 -0.00680193
0.16285 0.0454597 -0.314409
-0.0774599 0.0416182 -0.302163
-0.150237 0.205368 0.243717
-0.109873 0.0466969 0.137453
-0.152609 -0.155851 -0.273245
0.152362 0.00179751 -0.0893229
-0.088006 0.0390227 -0.28474
0.190912 -0.0488373 0.00351857
0.25522 0.00179751 -0.0906105
-0.0213043 0.205851 -0.292749
-0.0438475 -0.0704365 0.102978
-0.0378449 0.203702 0.305334
-0.149875 0.0549872 0.329595
-0.0186808 0.129161 -0.201413
0.0650024 0.0487299 0.0658378
-0.0898186 0.0822439 0.16508
-0.112392 0.158279 0.110441
0.219819 -0.0535337 0.28474
-0.170379 -0.099542 0.25984
-0.196304 -0.0400149 0.0622119
0.0359833 0.21696 0.2527
0.150205 0.0450735 0.0866369
0.206331 -0.0716533 -0.234539
-0.0151279 0.179498 0.196124
0.0660715 -0.00953797 0.175304
0.209133 -0.0488373 0.131522
0.238998 -0.0843708 -0.23259
0.161182 0.201609 -0.212764
-0.0421303 0.155063 0.345675
0.241506 -0.0147809 0.170537
0.252301 -0.131414 -0.213475
0.118367 0.050406 -0.188891
0.031865 0.00179751 -0.0918272
-0.269359 0.134931 -0.00165501
-0.0292406 0.0226225 -0.119054
-0.0494531 -0.0488373 0.0172277
0.236424 0.195302 -0.288346
0.179635 0.0318549 0.123447
-0.0410155 -0.0792696 0.0582874
0.22516 -0.0522511 -0.167319
0.174656 0.00179751 0.00537051
-0.0755885 -0.0493723 0.0432176
-0.0530012 -0.0328344 0.168835
0.147953 0.00179751 -0.0959122
0.0386019 0.183651 -0.331186
-0.263399 0.162086 0.133097
-0.196298 -0.0815829 0.191329
-0.112755 0.0431561 0.0473655
0.169308 -0.0488373 0.107597
-0.192795 0.201154 0.269065
-0.0283382 0.144075 -0.191198
0.198984 0.219556 0.282663
0.105627 -0.161455 0.28474
-0.151785 0.213985 -0.187796
-0.0368154 0.0022836 0.28474
0.166157 0.13635 0.193441
0.221444 -0.0825681 -0.234538
-0.263784 0.0926446 0.275672
-0.0545391 0.100756 -0.354026
0.237469 -0.12933 0.282217
-0.170772 0.047614 0.312554
-0.110878 0.151404 0.0104993
-0.196304 -0.107799 0.111953
0.239411 -0.073289 -0.282217
-0.0345599 0.217635 -0.268794
-0.07258 -0.0519216 0.147019
0.252301 -0.141195 0.146852
-0.229781 0.197886 0.0178112
-0.108391 0.0471297 -0.31427
-0.0744622 0.00046749 0.166655
0.148698 -0.0488373 0.0897232
-0.0537401 0.0186511 0.109505
0.0431709 0.00179751 -0.0858
0.248006 -0.121473 0.233005
0.235193 0.174962 -0.276461
-0.108938 0.161115 -0.181467
-0.0443072 0.17176 -0.192662
0.25101 -0.108572 0.208647
0.243314 -0.169717 -0.237892
-0.0277364 0.208882 -0.218442
0.0406868 -0.000504851 0.28474
-0.265303 0.0791126 0.0539046
0.135973 -0.0540046 -0.165765
-0.0746817 -0.0376991 0.0478337
0.0624346 0.00179751 -0.115699
-0.0479685 -0.148842 0.28474
-0.011803 -0.0488373 0.10682
0.211746 0.0292048 -0.181047
0.1603 -0.107053 0.28474
0.0729754 0.0428674 0.301707
-0.0752418 -0.0369926 0.153636
-0.03512 0.212409 -0.240335
0.0637783 0.11394 -0.184148
0.127226 -0.0322067 0.28474
-0.0082928 -0.0138258 -0.175999
0.213818 0.0105084 -0.18173
-0.031331 0.0121822 0.160283
