ply
format ascii 1.0
comment Created by Open3D
element vertex 861
property double x
property double y
property double z
end_header
0.237294 -0.358783 0.0673672
0.238765 -0.355577 0.0544897
0.225612 -0.356349 0.0349615
0.217857 -0.35503 0.0148783
0.210158 -0.35372 -0.00505668
0.199116 -0.351937 -0.0331844
0.188683 -0.351362 -0.0544086
0.179581 -0.350861 -0.072923
0.168663 -0.350554 -0.0937064
0.156442 -0.350878 -0.113751
0.144198 -0.351203 -0.133833
0.1324 -0.351981 -0.150938
0.119899 -0.353059 -0.167836
0.1001 -0.354767 -0.194601
0.0835837 -0.356899 -0.21351
0.0802101 -0.355165 -0.227848
0.0604452 -0.356906 -0.239852
0.224601 -0.357995 0.0705332
0.219159 -0.35612 0.0517069
0.211454 -0.35393 0.0273285
0.203673 -0.352606 0.00707161
0.228343 -0.358588 0.0951702
0.182391 -0.349185 -0.0326369
0.171801 -0.348604 -0.0542378
0.150811 -0.348096 -0.0938659
0.0798606 -0.353387 -0.193119
0.060584 -0.355888 -0.214817
0.0410869 -0.356503 -0.246246
0.135303 -0.347503 -0.109325
0.122312 -0.348024 -0.129692
0.107653 -0.349271 -0.149382
0.0891827 -0.350842 -0.174195
0.0373384 -0.357524 -0.232491
0.212143 -0.356956 0.0893227
0.18241 -0.348971 -0.00347739
0.152211 -0.346273 -0.0704668
0.211746 -0.358076 0.110158
0.198087 -0.353191 0.0611765
0.192671 -0.351302 0.0420004
0.132283 -0.345546 -0.0940313
0.0919724 -0.348099 -0.15233
0.0409555 -0.35426 -0.211222
0.0164574 -0.357996 -0.235549
0.161855 -0.345507 -0.0263333
0.152389 -0.344991 -0.0457125
0.116349 -0.344923 -0.109786
0.101833 -0.345996 -0.12995
0.0571896 -0.350767 -0.184422
0.0224606 -0.355557 -0.221265
2.81334e-05 -0.358322 -0.246753
0.205012 -0.359334 0.137405
0.191693 -0.353271 0.0824839
0.171722 -0.347136 0.0154304
0.0668067 -0.348119 -0.164985
0.194826 -0.357269 0.125436
0.192067 -0.355443 0.111025
0.179256 -0.350089 0.0604221
0.173845 -0.348183 0.0409043
0.157872 -0.344773 -0.00513732
0.132096 -0.342562 -0.062256
0.0363638 -0.350543 -0.18986
0.0216609 -0.352706 -0.204568
0.000737906 -0.356043 -0.224138
0.101528 -0.342131 -0.102243
0.0824108 -0.343722 -0.127665
-0.022567 -0.358219 -0.236907
0.185845 -0.358581 0.150912
0.174925 -0.351204 0.092383
0.138896 -0.341568 -0.0225545
0.106369 -0.340904 -0.0835965
0.0847768 -0.342196 -0.114908
0.0513965 -0.345713 -0.155226
0.00236732 -0.352719 -0.204671
-0.0191318 -0.356119 -0.224606
0.172953 -0.353626 0.119261
0.162454 -0.347841 0.0696588
0.154328 -0.344949 0.039768
0.148674 -0.34319 0.0203348
0.141817 -0.342024 0.00194985
0.11123 -0.339678 -0.0647208
0.0567045 -0.343565 -0.140271
0.0316194 -0.346703 -0.167787
-0.0439321 -0.358622 -0.237412
0.174364 -0.358509 0.166023
0.172289 -0.357076 0.154596
0.0120484 -0.348077 -0.17748
-0.0176523 -0.352733 -0.204777
-0.0402963 -0.356404 -0.224931
0.124654 -0.339091 -0.00963622
0.117045 -0.338274 -0.0275584
0.0943655 -0.337863 -0.0699087
0.0625089 -0.339944 -0.114859
0.0445814 -0.34206 -0.134983
0.152287 -0.351255 0.124111
0.147032 -0.347543 0.0943264
0.142188 -0.344512 0.0690339
0.132298 -0.340952 0.0318937
0.102065 -0.336746 -0.0447803
0.0767427 -0.337388 -0.0860138
0.0164869 -0.344215 -0.154865
-0.00789767 -0.348003 -0.177072
-0.0392426 -0.353051 -0.204629
-0.0583477 -0.356474 -0.219512
-0.0639099 -0.355424 -0.23514
0.152111 -0.35755 0.177622
0.150464 -0.355088 0.160989
0.147848 -0.352337 0.141027
-0.00435156 -0.34583 -0.164349
-0.0766168 -0.356075 -0.235024
0.132823 -0.345867 0.0972081
0.112058 -0.336929 0.0101872
0.101504 -0.335237 -0.0179952
0.0574979 -0.336117 -0.0908509
-0.028671 -0.347948 -0.176628
-0.0606996 -0.353633 -0.20126
-0.0804262 -0.357136 -0.216429
0.13703 -0.3586 0.196191
0.132362 -0.351131 0.145487
0.130051 -0.348303 0.125328
0.122407 -0.342697 0.0799529
0.116636 -0.339413 0.0510854
0.111286 -0.337464 0.0305448
0.0816393 -0.33352 -0.0442866
0.0659197 -0.333995 -0.0693817
0.0406228 -0.336315 -0.10093
0.0164974 -0.339346 -0.126358
-0.00270814 -0.342287 -0.143601
-0.0250661 -0.34571 -0.163679
0.126359 -0.354378 0.173367
-0.050004 -0.348423 -0.172649
-0.0898349 -0.355428 -0.202867
-0.0993097 -0.355085 -0.221592
0.120495 -0.358399 0.206753
0.119375 -0.356466 0.193569
0.112906 -0.345294 0.117357
0.101864 -0.336915 0.0492554
0.0918309 -0.333467 0.0115274
0.0848382 -0.332277 -0.00773969
0.0419986 -0.332974 -0.0794415
0.0205709 -0.335519 -0.102578
-0.00382888 -0.339101 -0.12495
-0.0150781 -0.340807 -0.134951
-0.0726593 -0.350707 -0.179366
0.107197 -0.349679 0.15327
0.10189 -0.341422 0.0955279
0.100052 -0.340018 0.0840529
0.0562637 -0.330494 -0.0491487
-0.0926461 -0.35247 -0.18374
-0.115366 -0.356772 -0.198714
0.102277 -0.358654 0.218673
0.101908 -0.355567 0.199761
0.100535 -0.352984 0.182048
0.0822871 -0.33271 0.0298285
0.0624246 -0.329275 -0.0256155
0.0219316 -0.332048 -0.080802
-0.00214767 -0.335423 -0.103412
-0.0353909 -0.340794 -0.130412
-0.0551246 -0.344214 -0.145071
-0.0752587 -0.347703 -0.160027
0.089354 -0.348038 0.154352
0.0874591 -0.3443 0.128655
0.0822051 -0.336291 0.0714911
0.0792688 -0.33398 0.0524811
0.0696166 -0.329667 0.00963557
0.0625609 -0.328471 -0.00999033
0.0364127 -0.32887 -0.0538387
-0.0250531 -0.33729 -0.112187
-0.105106 -0.351561 -0.168422
-0.138437 -0.356894 -0.195473
0.0810203 -0.358281 0.223276
0.0808434 -0.355132 0.20394
0.0806698 -0.352037 0.18494
0.0773685 -0.341283 0.114143
0.00240928 -0.331252 -0.0789873
-0.064275 -0.342287 -0.13024
-0.0751662 -0.344279 -0.137462
-0.125375 -0.353713 -0.169255
-0.145427 -0.35748 -0.181953
0.0698029 -0.347581 0.161029
0.0697074 -0.343844 0.138048
0.0666928 -0.337046 0.0912182
0.0623069 -0.331105 0.0471938
0.0433946 -0.325803 -0.0186073
0.016569 -0.327592 -0.0551226
-0.0205382 -0.33304 -0.0874767
-0.0536736 -0.338693 -0.111551
-0.106385 -0.348469 -0.145083
0.0588963 -0.358705 0.233064
0.0589144 -0.355481 0.213206
0.0589322 -0.352314 0.193703
0.0589962 -0.340927 0.123559
0.0560589 -0.332826 0.0683831
0.0520001 -0.328261 0.0330431
0.0482342 -0.326381 0.0147847
0.0172449 -0.325776 -0.0437419
-0.00444371 -0.328699 -0.0640571
-0.0430726 -0.3351 -0.0928642
-0.0760714 -0.341132 -0.113996
-0.0953031 -0.344711 -0.125922
-0.135002 -0.352098 -0.150541
-0.155497 -0.355911 -0.16325
-0.166681 -0.355895 -0.183124
0.0478445 -0.348534 0.17402
0.0480169 -0.343939 0.145668
0.0482671 -0.337269 0.104514
-0.0225216 -0.329827 -0.0670601
-0.057578 -0.33602 -0.0904222
-0.119658 -0.347515 -0.128505
0.0353817 -0.358495 0.238536
0.0360378 -0.35503 0.217855
0.0362638 -0.351803 0.197912
0.0370238 -0.340958 0.130877
0.0373555 -0.330908 0.0681081
0.0364548 -0.328526 0.0514927
-0.00260788 -0.324763 -0.0412956
-0.0152673 -0.326806 -0.0508011
-0.0355446 -0.33027 -0.0648176
-0.0808613 -0.33862 -0.0923013
-0.100422 -0.342223 -0.104169
-0.138401 -0.349482 -0.125555
-0.160543 -0.353763 -0.137715
-0.178651 -0.357265 -0.14766
0.021675 -0.357035 0.22997
0.0227281 -0.353456 0.209017
0.0237604 -0.349947 0.18848
0.0247722 -0.346508 0.168347
0.0254304 -0.343268 0.148857
0.0260599 -0.337219 0.111414
0.0264395 -0.333547 0.0886766
0.0258101 -0.324294 0.0285835
0.0358052 -0.3148 -0.0142621
-0.0659055 -0.334147 -0.0707797
-0.115253 -0.343536 -0.0981843
-0.145813 -0.349419 -0.114716
0.0115926 -0.344149 0.154518
0.0127178 -0.340786 0.134828
0.014365 -0.335862 0.106004
0.0154892 -0.330572 0.0738984
0.0160807 -0.326297 0.0473905
-0.0397177 -0.327634 -0.0426561
-0.0552943 -0.330553 -0.0513814
-0.0966098 -0.338471 -0.0733967
-0.135532 -0.345932 -0.0941287
-0.167012 -0.351967 -0.110896
-0.185499 -0.35551 -0.120743
-0.00331515 -0.357565 0.240672
-0.00665897 -0.354965 0.217811
-0.00563699 -0.352245 0.20189
-0.00429839 -0.348683 0.181037
0.00140482 -0.333505 0.0921895
0.00290203 -0.329521 0.0688661
0.00407422 -0.326402 0.0506047
0.0365476 -0.311303 0.00960696
-0.0781051 -0.333444 -0.0487937
-0.120841 -0.3416 -0.0711959
-0.16113 -0.349289 -0.0923161
-0.208078 -0.358248 -0.116926
-0.0159648 -0.356932 0.240764
-0.019103 -0.348924 0.182422
-0.0176275 -0.345389 0.161729
-0.0161814 -0.341925 0.14145
-0.0147642 -0.338531 0.121575
0.0210214 -0.305348 -0.0339161
-0.0570451 -0.328162 -0.0215397
-0.103295 -0.336942 -0.0454347
-0.116341 -0.339418 -0.0521751
-0.143019 -0.344483 -0.0659567
-0.156659 -0.347072 -0.073003
-0.175167 -0.350586 -0.0825645
-0.203643 -0.355992 -0.0972752
-0.0350009 -0.357872 0.240583
-0.0379091 -0.355873 0.222108
-0.0366369 -0.352324 0.200689
-0.0353898 -0.348845 0.179693
-0.0317925 -0.338809 0.119123
-0.0306388 -0.33559 0.0996994
-0.029507 -0.332433 0.0806418
-0.0753015 -0.330646 -0.0122483
-0.0966492 -0.334686 -0.0230474
-0.136419 -0.342214 -0.0431663
-0.197129 -0.353704 -0.0738779
-0.216637 -0.357397 -0.0837469
-0.0579569 -0.357779 0.227275
-0.05646 -0.35415 0.205442
-0.0557229 -0.352363 0.19469
-0.0535554 -0.34711 0.163076
-0.052146 -0.343693 0.142519
-0.0504227 -0.339516 0.117384
-0.0494087 -0.337059 0.102594
-0.0497092 -0.334415 0.0842236
-0.0982167 -0.334557 -0.000585973
-0.117928 -0.337929 -0.0126837
-0.138847 -0.341638 -0.0246523
-0.161987 -0.346004 -0.0361059
-0.180929 -0.349579 -0.0454816
-0.220012 -0.356954 -0.0648266
-0.0782655 -0.358816 0.227014
-0.0765377 -0.355123 0.204863
-0.0740118 -0.349726 0.172479
-0.0723699 -0.346217 0.151432
-0.0720047 -0.343221 0.131623
-0.0731784 -0.340119 0.108368
0.0210214 -0.294879 -0.0339161
-0.122321 -0.338684 0.0116814
-0.138642 -0.341476 0.00188673
-0.159426 -0.345032 -0.010586
-0.180648 -0.348663 -0.0233213
-0.198539 -0.351814 -0.0334492
-0.218422 -0.355554 -0.04307
-0.0981451 -0.358741 0.220684
-0.0967245 -0.355198 0.198722
-0.096289 -0.352066 0.17785
-0.0970846 -0.34942 0.158162
-0.0978683 -0.346813 0.138768
-0.0986404 -0.344245 0.119661
0.0383001 -0.291935 0.000407398
-0.00260788 -0.296369 -0.0412956
-0.148132 -0.343183 0.0248179
-0.168852 -0.346648 0.012119
-0.190534 -0.350358 -0.000588477
-0.208215 -0.353383 -0.0109519
-0.230752 -0.357239 -0.0241606
-0.238642 -0.357073 -0.0392573
-0.119763 -0.358356 0.209808
-0.12358 -0.356697 0.191461
-0.124185 -0.353948 0.171171
-0.124781 -0.351242 0.151192
-0.125368 -0.348576 0.131516
0.0227597 -0.296667 0.0304605
-0.178396 -0.348929 0.0402201
-0.200759 -0.35211 0.0229257
-0.218837 -0.355204 0.0125891
-0.239404 -0.358362 -0.00169355
-0.145909 -0.357867 0.190867
-0.152883 -0.357299 0.174514
-0.153268 -0.354508 0.154076
-0.210471 -0.355018 0.0565445
-0.230164 -0.357193 0.0371199
-0.239966 -0.357566 0.022426
-0.165118 -0.356309 0.1772
-0.18015 -0.357691 0.16053
0.00378114 -0.284236 -0.0406347
-0.230836 -0.357133 0.0669089
0.0314206 -0.28246 0.0209665
0.0374265 -0.271782 0.0049932
0.0313635 -0.265888 -0.0237213
-0.00260788 -0.264425 -0.0412956
0.0227597 -0.264303 0.0304605
0.0173904 -0.257054 -0.0359246
0.0365476 -0.251505 0.00960696
0.0369125 -0.245404 -0.0108892
-0.0556673 -0.256532 -0.0222409
0.0358052 -0.234795 -0.0142621
0.0210214 -0.235554 -0.0339161
-0.0792184 -0.257562 -0.0230735
-0.00260788 -0.23603 -0.0412956
0.0227597 -0.235535 0.0304605
0.0348333 -0.231328 0.0147517
0.0227597 -0.224748 0.0304605
-0.0128401 -0.223931 -0.0400251
0.0207238 -0.217255 -0.00969347
0.010295 -0.217256 -0.0281206
0.001508 -0.217133 -0.0111501
0.00218767 -0.217251 0.0260004
-0.0157741 -0.217253 -0.00574523
-0.0185211 -0.217252 0.0253919
0.00819492 -0.195681 0.0015462
0.00819492 -0.18491 0.0015462
0.00819492 -0.156186 0.0015462
0.00819492 -0.134643 0.0015462
0.00819492 -0.105919 0.0015462
0.00499344 -0.0949237 -0.00899056
0.152636 -0.065381 -0.138016
0.148342 -0.0648836 -0.158361
0.152741 -0.065368 -0.0602148
0.152717 -0.0647166 -0.0777349
0.152689 -0.0639518 -0.0983034
0.152662 -0.0632049 -0.118391
0.125023 -0.0626294 -0.182703
0.106653 -0.0636525 -0.187733
0.0913638 -0.0646506 -0.187986
0.152856 -0.0653536 0.0251405
0.15283 -0.0646711 0.00588733
0.152815 -0.0642683 -0.00547269
0.152775 -0.0632185 -0.0350859
0.0749696 -0.062673 -0.188008
0.0493258 -0.0642831 -0.188042
0.031485 -0.0654032 -0.188065
0.152983 -0.0653378 0.119207
0.15296 -0.0647631 0.102164
0.152931 -0.0640588 0.0812775
0.152904 -0.0633695 0.0608402
0.00352675 -0.0638826 -0.188102
-0.0159611 -0.0650466 -0.188128
0.138188 -0.0643729 0.167439
0.151455 -0.0628144 0.1423
-0.0361722 -0.062856 -0.188154
-0.0571475 -0.0640445 -0.188182
-0.0789315 -0.0652789 -0.188211
-0.101572 -0.0629637 -0.18824
0.152741 -0.0471257 -0.0602148
0.152636 -0.0450403 -0.138016
0.148342 -0.0446976 -0.158361
-0.0789315 -0.0546931 -0.188211
0.152882 -0.0467188 0.0448045
0.152789 -0.0449911 -0.024095
0.152775 -0.0447155 -0.0350859
0.0665658 -0.0447029 -0.188019
0.031485 -0.0462608 -0.188065
0.152983 -0.0452339 0.119207
0.15296 -0.044836 0.102164
0.00352675 -0.0442264 -0.188102
-0.0159611 -0.0450322 -0.188128
0.152708 -0.0374765 -0.0846455
0.15268 -0.0370354 -0.105052
0.131206 -0.0362546 -0.179056
0.106653 -0.0370073 -0.187733
-0.101572 -0.0449741 -0.18824
0.152909 -0.0374524 0.0648925
0.152845 -0.0365077 0.0173907
0.152736 -0.034894 -0.063747
0.0913638 -0.0345806 -0.187986
0.0493257 -0.0360612 -0.188042
0.138188 -0.036536 0.167439
0.151455 -0.0356514 0.1423
0.152931 -0.0344932 0.0812775
-0.0361722 -0.035675 -0.188154
-0.0571475 -0.0363496 -0.188182
0.152877 -0.0273286 0.0408382
0.152825 -0.0267589 0.00208485
0.152662 -0.024988 -0.118391
0.131206 -0.0246531 -0.179056
0.031485 -0.0271184 -0.188065
0.152983 -0.0251299 0.119207
0.15296 -0.0249089 0.102164
0.152904 -0.0243729 0.0608402
0.00352675 -0.0245702 -0.188102
-0.0159611 -0.0250179 -0.188128
-0.0789315 -0.0264644 -0.188211
0.146404 -0.019537 -0.0914243
0.135071 -0.0192246 -0.139186
0.134289 -0.0190254 -0.158248
0.105333 -0.0195292 -0.16474
0.12095 -0.0195306 0.178153
0.134953 -0.0190901 0.156705
0.134494 -0.0189735 0.143665
0.133443 -0.0187069 0.113848
0.13242 -0.0184478 0.0848573
0.131707 -0.018267 0.0646369
0.131008 -0.0180897 0.044809
0.129917 -0.0178132 0.0138724
0.128859 -0.0175449 -0.0161324
0.127832 -0.0172847 -0.045247
0.126835 -0.017032 -0.0735104
0.126107 -0.0168473 -0.0941716
0.125394 -0.0166665 -0.114389
0.124696 -0.0164896 -0.134178
0.0930219 -0.0167515 -0.162716
0.0613989 -0.0172842 -0.162759
0.0448211 -0.0175635 -0.162781
0.0189248 -0.0179997 -0.162817
0.000934005 -0.0183027 -0.162841
-0.0202038 -0.0186679 -0.161915
-0.0395178 -0.0189933 -0.161939
-0.0595174 -0.0193302 -0.161965
0.114924 -0.0139032 -0.0986817
-0.0802263 -0.016101 -0.161995
-0.10171 -0.0163971 -0.162022
-0.123999 -0.0167043 -0.16205
-0.135459 -0.0168623 -0.162064
0.108779 -0.0124277 0.156494
0.108406 -0.0123512 0.143212
0.107672 -0.0122008 0.117133
0.107312 -0.012127 0.104331
0.106489 -0.0119582 0.0750515
0.105914 -0.0118405 0.0546323
0.10535 -0.011725 0.0346116
0.104797 -0.0116118 0.0149774
0.103934 -0.0114352 -0.0156608
0.103097 -0.0112639 -0.0453808
0.102284 -0.0110976 -0.0742234
0.100919 -0.0108181 -0.1227
0.100354 -0.0107026 -0.142737
0.0927621 -0.00899815 0.156137
0.0922996 -0.00890488 0.133797
0.0916681 -0.0087775 0.103288
0.0910543 -0.00865371 0.0736392
0.0904578 -0.00853336 0.044815
0.0869786 -0.0079548 -0.0948385
0.0724728 -0.00549928 0.158868
0.0721697 -0.00545338 0.140682
0.0717977 -0.00539708 0.118372
0.0715057 -0.00535287 0.100853
0.0711473 -0.00529862 0.0793539
0.0708658 -0.005256 0.0624657
0.0705202 -0.00520368 0.0417337
0.0701814 -0.00515239 0.0214105
0.0698493 -0.0051021 0.0014838
0.0695234 -0.00505279 -0.0180575
0.0691407 -0.00499485 -0.0410143
0.0688285 -0.00494758 -0.0597465
0.068522 -0.00490119 -0.0781275
0.0681619 -0.00484667 -0.0997349
0.0678095 -0.00479334 -0.120867
0.0675218 -0.00474978 -0.138125
0.0671871 -0.00469853 -0.158426
0.0531669 -0.00475171 -0.162766
0.0442109 -0.00187563 0.157963
0.0440511 -0.00185982 0.139436
0.0438941 -0.00184427 0.121218
0.0437012 -0.00182519 0.0988699
0.0435498 -0.00181021 0.0813214
0.0433642 -0.00179183 0.0597867
0.0431821 -0.00177382 0.038685
0.0430392 -0.00175967 0.0221066
0.0428637 -0.0017423 0.0017519
0.0426915 -0.00172526 -0.0182048
0.0425228 -0.00170856 -0.037775
0.0423245 -0.00168894 -0.0607649
0.0421478 -0.00167296 -0.0795161
0.0419003 -0.00165742 -0.0978802
0.0416093 -0.00163915 -0.119472
0.0413246 -0.00162128 -0.140593
0.0276926 -0.00162292 -0.162802
0.0100046 -0.00165 -0.162829
-0.0107947 -0.00168268 -0.161903
-0.0297766 -0.00171175 -0.161927
-0.0494402 -0.00174187 -0.161948
-0.171269 0.00218994 0.139589
-0.164564 0.00215867 0.115368
-0.161878 0.00214458 0.103858
-0.156521 0.00211257 0.0764002
-0.153613 0.00209016 0.0556939
-0.151631 0.00206994 0.0358703
-0.150425 0.00205156 0.0167955
-0.150092 0.00203908 0.00298172
-0.150466 0.00201655 -0.0236734
-0.151209 0.00200654 -0.03653
-0.154085 0.0019858 -0.0655479
-0.157039 0.001973 -0.0855359
-0.162464 0.00195787 -0.112588
-0.168156 0.00194711 -0.13506
-0.171676 0.0197169 0.139836
-0.166381 0.0195004 0.121452
-0.160927 0.0192452 0.0983765
-0.156881 0.0190195 0.0765993
-0.153957 0.0188175 0.0558782
-0.151961 0.0186353 0.0360412
-0.150744 0.0184696 0.0169547
-0.150408 0.0183572 0.00313574
-0.150771 0.0181541 -0.0235327
-0.151506 0.0180639 -0.0363969
-0.154374 0.017877 -0.0654266
-0.157321 0.0177617 -0.0854233
-0.163631 0.0176081 -0.116272
-0.171692 0.0213738 -0.145964
0.0485829 0.0246866 0.192639
0.0485567 0.0244709 0.173448
0.0485311 0.0242589 0.154589
0.047303 0.0272152 -0.153525
0.0472745 0.0269155 -0.173917
0.0472468 0.0266223 -0.193865
0.0311165 0.0269338 -0.201244
0.0485829 0.0360805 0.192639
0.0485567 0.0357652 0.173448
0.0485311 0.0354554 0.154589
-0.172185 0.0416444 0.140144
-0.166882 0.041187 0.121748
-0.161401 0.040647 0.0986478
-0.158297 0.0402862 0.0822268
-0.155039 0.0398452 0.0612101
-0.152743 0.0394474 0.0411137
-0.15128 0.039087 0.0218123
-0.150692 0.0386902 -0.00124282
-0.151036 0.0384081 -0.0189776
-0.152207 0.0380886 -0.0404531
-0.154209 0.037805 -0.0612139
-0.168833 0.0409152 -0.134824
-0.172031 0.0408174 -0.14585
-0.172592 0.0592015 0.14039
-0.167283 0.0585511 0.121985
-0.16178 0.0577823 0.0988649
0.0485829 0.0550703 0.192639
-0.158749 0.0615159 0.0824791
-0.155471 0.0608415 0.0614434
-0.153157 0.0602331 0.0413301
-0.15169 0.0596825 0.022019
-0.151087 0.0590758 -0.00105214
-0.151419 0.0586444 -0.0187995
-0.152578 0.0581558 -0.0402882
-0.154571 0.0577223 -0.0610606
0.0472468 0.0454146 -0.193865
-0.169172 0.0604179 -0.134706
-0.17237 0.0602735 -0.145735
0.047303 0.0528296 -0.153525
0.0485567 0.0658833 0.173448
0.0485311 0.0653125 0.154589
0.0472745 0.0554143 -0.173917
0.0311165 0.055452 -0.201244
-0.173101 0.0811667 0.140699
-0.167784 0.0802746 0.122282
-0.162254 0.0792188 0.0991365
-0.15814 0.0782851 0.0772972
-0.155249 0.0816433 0.0565706
-0.153201 0.0808486 0.0366832
-0.151824 0.079963 0.0129207
-0.151455 0.0793224 -0.00537744
-0.152621 0.0783605 -0.0358965
-0.155458 0.0775472 -0.0649715
0.047303 0.0656368 -0.153525
-0.169511 0.0799331 -0.134588
-0.172709 0.079742 -0.145621
0.0485829 0.0854538 0.192639
-0.173508 0.0987539 0.140945
-0.166774 0.101669 0.116664
-0.161525 0.10036 0.0938034
-0.157625 0.0991981 0.0721911
-0.154942 0.0981691 0.0516729
0.0472468 0.0736029 -0.193865
-0.153245 0.101386 0.0320539
-0.152107 0.1003 0.0085032
-0.151955 0.0995187 -0.00962582
-0.152664 0.0986434 -0.0314879
-0.153975 0.0980247 -0.0483745
0.0485567 0.0960014 0.173448
0.0485311 0.0951697 0.154589
-0.16985 0.0994607 -0.13447
-0.173048 0.0992229 -0.145506
0.0472745 0.0839131 -0.173917
0.0311165 0.0839702 -0.201244
-0.174018 0.120757 0.141254
-0.167159 0.119017 0.11689
-0.161983 0.121765 0.094063
-0.158074 0.120356 0.072438
-0.155372 0.119105 0.0519016
-0.153576 0.117976 0.0322236
-0.152504 0.120815 0.00869846
-0.15234 0.119873 -0.00944334
-0.153037 0.118817 -0.031319
-0.154346 0.118072 -0.0482127
0.047303 0.0944529 -0.153525
0.0485829 0.115837 0.192639
-0.158496 0.135267 0.193981
-0.169375 0.135264 0.174683
-0.17019 0.119001 -0.134351
-0.173388 0.118716 -0.145392
-0.112446 0.135268 0.194194
-0.129294 0.135262 0.164293
-0.154091 0.136568 0.144368
-0.17067 0.138167 0.144346
-0.0692289 0.135268 0.194394
-0.0855529 0.135261 0.165407
-0.0916808 0.135259 0.154542
-0.106582 0.136174 0.14443
-0.129931 0.138498 0.1444
-0.169191 0.14121 0.123114
-0.162349 0.138903 0.0942709
0.0472745 0.102912 -0.173917
0.0311165 0.102982 -0.201244
0.0485567 0.126119 0.173448
0.0485311 0.125027 0.154589
-0.0325508 0.135267 0.18755
-0.0424473 0.135262 0.169973
-0.0523509 0.135258 0.152401
-0.069361 0.136545 0.144478
-0.158524 0.141531 0.0726851
-0.155152 0.139697 0.0470689
-0.15325 0.138093 0.0228066
0.0472468 0.104923 -0.193865
-0.00568831 0.135262 0.167449
-0.0172257 0.135257 0.146973
-0.152786 0.141059 0.0042935
-0.153177 0.139238 -0.0268475
-0.155493 0.137717 -0.0563666
-0.147818 0.131066 -0.154016
-0.159033 0.131066 -0.173834
-0.170248 0.131067 -0.193653
0.019659 0.135257 0.148482
-0.000681698 0.137229 0.144568
0.047303 0.113664 -0.153525
-0.113045 0.131065 -0.154276
-0.123943 0.131066 -0.173537
-0.134842 0.131066 -0.192797
-0.174936 0.160415 0.14181
-0.168026 0.158098 0.117399
0.0472745 0.115578 -0.173917
0.0311165 0.115657 -0.201244
-0.0854772 0.131065 -0.163889
-0.0960765 0.131065 -0.182621
-0.103143 0.131066 -0.195109
-0.162806 0.160343 0.0945308
-0.158884 0.158485 0.0728828
-0.0593795 0.131064 -0.172989
-0.0662572 0.131065 -0.185144
0.0485829 0.146221 0.192639
-0.0621575 0.156075 0.144487
-0.0840026 0.158651 0.144459
-0.155581 0.160613 0.0472952
-0.153662 0.158766 0.0230142
-0.0346378 0.131064 -0.181615
-0.0446864 0.131064 -0.199375
-0.0272834 0.15591 0.144532
-0.153183 0.161563 0.0044871
-0.15356 0.159476 -0.0266725
-0.155856 0.157731 -0.0562113
0.0472468 0.123715 -0.193865
-0.0111489 0.131063 -0.189806
-0.169589 0.149444 -0.201515
-0.175345 0.178063 0.142058
0.01118 0.131063 -0.197591
-0.1309 0.148429 -0.201463
0.0485567 0.156238 0.173448
0.0485311 0.154884 0.154589
-0.168509 0.179837 0.117682
-0.164442 0.178075 0.100389
0.047303 0.132874 -0.153525
-0.106426 0.148983 -0.20143
-0.160307 0.180215 0.0784975
-0.157237 0.178278 0.0576355
-0.071537 0.148031 -0.201382
-0.155192 0.180698 0.037714
-0.153856 0.179072 0.0185115
-0.153383 0.177617 5.6386e-05
-0.049409 0.148566 -0.201352
-0.15372 0.180374 -0.0177282
-0.154811 0.178859 -0.0392956
-0.156745 0.177515 -0.060139
-0.0177856 0.147672 -0.20131
-0.175856 0.200142 0.142367
0.047303 0.145682 -0.153525
0.0472745 0.144077 -0.173917
0.0472468 0.142508 -0.193865
0.0311146 0.144176 -0.201243
0.0023185 0.148188 -0.201282
-0.168992 0.201595 0.117965
-0.164919 0.19962 0.100662
-0.174477 0.181178 -0.145025
-0.160759 0.201503 0.0787482
-0.15767 0.199334 0.0578675
-0.155608 0.201548 0.0379293
-0.154257 0.199731 0.0187117
-0.15378 0.198108 0.000248075
-0.159718 0.192223 -0.0802408
-0.16327 0.191103 -0.0998479
-0.169336 0.189764 -0.126503
-0.176265 0.21782 0.142615
-0.154104 0.200715 -0.0175492
-0.155184 0.199027 -0.0391298
-0.157108 0.197529 -0.0599851
-0.171006 0.219793 0.124187
-0.165396 0.221184 0.100935
-0.161122 0.218547 0.078949
-0.17588 0.200564 -0.148583
-0.158103 0.220407 0.0580994
-0.15594 0.218239 0.0381016
-0.160002 0.208133 -0.0801263
-0.154658 0.220406 0.0189121
-0.154178 0.218614 0.000439823
-0.163624 0.210875 -0.0997121
-0.16791 0.209806 -0.118817
-0.176777 0.239937 0.142926
-0.154599 0.220673 -0.0217664
-0.155558 0.219208 -0.0389639
-0.157472 0.217557 -0.0598311
-0.171511 0.24167 0.124486
-0.164458 0.237678 0.0954685
-0.16256 0.240569 0.0846084
-0.159112 0.237895 0.0634109
-0.174093 0.220458 -0.141114
-0.156737 0.239673 0.0431998
-0.160357 0.228032 -0.079983
-0.177188 0.257646 0.143174
-0.155311 0.241623 0.0238464
-0.154467 0.238654 -0.00393641
-0.163978 0.23066 -0.0995764
-0.168257 0.229489 -0.118691
-0.171915 0.259186 0.124725
-0.155093 0.240575 -0.0259716
-0.157311 0.237924 -0.0555889
-0.164917 0.259203 0.0957295
-0.162925 0.257689 0.0848123
-0.159547 0.259055 0.0636459
-0.175499 0.239852 -0.14468
-0.157155 0.260617 0.0434181
-0.155642 0.258225 0.0240131
-0.160136 0.248269 -0.0758297
-0.177701 0.279801 0.143485
-0.154854 0.259147 -0.0037511
-0.163625 0.250751 -0.095533
-0.16936 0.279169 0.113169
-0.155477 0.260886 -0.0257961
-0.157675 0.258007 -0.055433
-0.163382 0.279106 0.0850672
-0.161501 0.281745 0.0743211
-0.158655 0.278782 0.0536452
-0.170585 0.260498 -0.126058
-0.178112 0.297541 0.143734
-0.15681 0.28028 0.0338842
-0.155658 0.277811 0.0148215
-0.160499 0.268223 -0.0756817
-0.171122 0.29757 0.119215
-0.155568 0.278145 -0.0168674
-0.16398 0.270586 -0.0953954
-0.167117 0.298977 0.101921
-0.157002 0.279399 -0.0426962
-0.158039 0.278104 -0.0552771
-0.162848 0.299666 0.0799054
-0.159751 0.300644 0.0589824
-0.157525 0.29767 0.0389221
-0.170933 0.280175 -0.125934
-0.178626 0.319734 0.144045
-0.156183 0.299116 0.019675
-0.160863 0.28819 -0.0755336
-0.171607 0.319436 0.119499
-0.15577 0.300796 0.00120831
-0.156062 0.29802 -0.0210916
-0.164335 0.290435 -0.0952578
-0.167596 0.320631 0.102195
-0.157053 0.300079 -0.0382991
-0.163303 0.321057 0.0801577
-0.160099 0.317568 0.0591688
-0.179037 0.337504 0.144294
-0.157943 0.318613 0.0391383
-0.159074 0.305843 -0.0591522
-0.169508 0.300455 -0.118235
-0.17546 0.298878 -0.140648
-0.156585 0.319867 0.0198762
-0.161779 0.307763 -0.0794089
-0.172093 0.341321 0.119784
-0.167979 0.337968 0.102414
-0.156169 0.32138 0.00140083
-0.156448 0.318411 -0.0209137
-0.165397 0.309934 -0.099032
-0.163668 0.338183 0.0803598
-0.157428 0.320333 -0.0381325
-0.160534 0.338739 0.0594018
-0.177735 0.358401 0.138372
-0.158361 0.339572 0.0393547
-0.159438 0.325946 -0.0589976
-0.169856 0.320197 -0.118108
-0.175802 0.318515 -0.140531
-0.172482 0.358845 0.120013
-0.156988 0.340635 0.0200776
-0.156488 0.337859 0.00155497
-0.162136 0.327729 -0.0792651
-0.167103 0.358483 0.0969709
-0.156834 0.338816 -0.0207357
-0.165752 0.329786 -0.0988958
-0.164124 0.359608 0.0806125
-0.157803 0.340601 -0.0379659
-0.160301 0.358994 0.0545198
-0.158394 0.359715 0.0346973
-0.159803 0.346063 -0.0588429
-0.170205 0.339953 -0.117981
-0.176144 0.338164 -0.140415
-0.157012 0.359204 0.00635219
-0.162492 0.347709 -0.0791212
-0.15722 0.359237 -0.0205575
-0.166108 0.349651 -0.0987593
-0.17144 0.359368 -0.12165
-0.176486 0.357825 -0.140298
