ply
format ascii 1.0
comment Created by Open3D
element vertex 880
property double x
property double y
property double z
end_header
0.236822 -0.258239 -0.281238
0.236822 -0.240951 -0.281238
0.236822 -0.221502 -0.281238
0.237454 -0.278629 0.332756
0.236822 -0.202053 -0.281238
0.237454 -0.261124 0.332756
0.236822 -0.180443 -0.281238
0.237454 -0.240701 0.332756
0.237445 -0.222484 0.325211
0.236822 -0.160994 -0.281238
-0.235406 -0.276885 -0.282497
0.237449 -0.202449 0.328978
-0.235417 -0.257399 -0.293048
0.236822 -0.141545 -0.281238
-0.235406 -0.236003 -0.282497
0.237454 -0.182349 0.332756
-0.234786 -0.278972 0.323682
-0.235406 -0.224853 -0.282497
0.236854 -0.130905 -0.249526
-0.234778 -0.261485 0.328779
0.236886 -0.130914 -0.218875
0.236918 -0.130924 -0.187154
0.236952 -0.130934 -0.154305
0.236933 -0.129617 -0.173217
0.236827 -0.122386 -0.277075
0.187715 -0.130258 -0.295379
0.237454 -0.161926 0.332756
0.236987 -0.130944 -0.120267
-0.242596 -0.244287 0.318037
0.237023 -0.130955 -0.0849735
0.237005 -0.129759 -0.102781
0.237061 -0.130966 -0.0483549
0.2371 -0.130978 -0.0103346
0.23708 -0.129736 -0.029525
0.139006 -0.129465 -0.295429
-0.235406 -0.19512 -0.282497
0.23714 -0.13099 0.0291693
0.237123 -0.129904 0.0120518
0.236843 -0.11249 -0.262347
0.237182 -0.131003 0.0702455
0.237164 -0.129895 0.0524429
0.236878 -0.112459 -0.22774
0.237223 -0.130826 0.109879
0.237204 -0.129699 0.0914027
0.236915 -0.112427 -0.191754
0.236899 -0.111456 -0.207672
0.237454 -0.141503 0.332756
0.237269 -0.130836 0.154265
0.237239 -0.129118 0.125523
0.236954 -0.112394 -0.154305
0.236934 -0.111264 -0.173218
0.187692 -0.111818 -0.295378
0.083005 -0.128554 -0.295487
0.237316 -0.130846 0.200527
0.237296 -0.129672 0.180463
0.236994 -0.11236 -0.115304
-0.23541 -0.176331 -0.286022
0.237366 -0.130857 0.248786
0.237348 -0.129855 0.231313
0.237038 -0.112472 -0.072052
0.237022 -0.111585 -0.0875381
0.237417 -0.130868 0.299175
0.237399 -0.129844 0.280925
0.237082 -0.112438 -0.0295257
0.237062 -0.111382 -0.0483555
0.138987 -0.112206 -0.295428
0.017927 -0.130362 -0.295553
0.237127 -0.112402 0.0148841
0.237098 -0.110868 -0.0130993
0.236821 -0.0960506 -0.283312
0.237175 -0.112364 0.0613054
0.237154 -0.111262 0.04074
0.237228 -0.112488 0.112989
0.237209 -0.111518 0.094459
-0.235417 -0.157402 -0.293048
0.237454 -0.12108 0.332756
0.23728 -0.112451 0.164015
0.23726 -0.111458 0.144599
0.236877 -0.0924172 -0.227739
0.236855 -0.0913031 -0.249526
0.0829925 -0.110001 -0.295486
-0.0585943 -0.129369 -0.295631
0.237335 -0.112411 0.217525
0.237318 -0.111563 0.200525
0.237297 -0.110562 0.180462
0.236924 -0.0924464 -0.182532
0.236902 -0.0914173 -0.203152
0.237393 -0.11237 0.273703
0.237364 -0.110986 0.245268
0.236973 -0.0924771 -0.135004
0.236943 -0.0910751 -0.163809
0.187692 -0.0910684 -0.295378
0.237435 -0.111436 0.31398
0.237021 -0.0923878 -0.0875379
0.237001 -0.091426 -0.10781
0.0179379 -0.110305 -0.295553
0.237076 -0.0924185 -0.0349418
0.237056 -0.091553 -0.0536706
0.237035 -0.0905836 -0.0746499
0.138987 -0.0924775 -0.295428
-0.149889 -0.128184 -0.295725
0.237133 -0.0924509 0.0205742
0.237112 -0.0915614 0.000796378
0.237193 -0.0924852 0.0792601
0.237175 -0.0916997 0.0613055
0.237154 -0.0908001 0.04074
0.236837 -0.0773566 -0.26658
0.236811 -0.0761741 -0.29361
-0.0585688 -0.110662 -0.295632
0.237454 -0.100657 0.332756
0.237254 -0.0923857 0.138202
0.237238 -0.0917128 0.122375
0.237215 -0.0907871 0.1006
0.0829925 -0.0914469 -0.295486
0.237322 -0.09242 0.203904
0.237294 -0.0913157 0.177152
0.237394 -0.0924565 0.273703
0.237364 -0.0913177 0.245268
0.237354 -0.0908979 0.234784
0.250039 -0.0865591 0.160595
-0.149843 -0.111088 -0.295726
0.237435 -0.091175 0.31398
0.0179379 -0.0902495 -0.295553
0.250172 -0.086105 0.290242
0.249664 -0.0674677 -0.205646
0.249635 -0.0664001 -0.234053
0.249615 -0.0656805 -0.253198
0.187692 -0.0703186 -0.295378
0.249725 -0.0674239 -0.146
0.249696 -0.0664055 -0.174014
0.249676 -0.0656617 -0.194475
-0.0585688 -0.0919587 -0.295632
0.249793 -0.0674662 -0.0797143
0.249772 -0.0667593 -0.0998432
0.249752 -0.0660671 -0.119555
0.138987 -0.0702829 -0.295428
0.237454 -0.0802336 0.332756
0.249863 -0.0674192 -0.0112466
0.249844 -0.0667784 -0.0301557
0.249825 -0.0661497 -0.0487089
0.249941 -0.0674645 0.0652186
0.24992 -0.0667989 0.0448355
0.2499 -0.0661463 0.0248506
0.236829 -0.0574706 -0.274986
0.236811 -0.0568623 -0.29361
0.0829925 -0.0702418 -0.295486
-0.149843 -0.0905796 -0.295726
0.250023 -0.0674137 0.14462
0.249994 -0.0665286 0.116454
0.249972 -0.0658561 0.0950522
0.237435 -0.0709139 0.31398
0.250114 -0.0674625 0.233805
0.250086 -0.0666417 0.206616
0.250066 -0.066039 0.186655
0.250046 -0.0654472 0.167052
0.0179379 -0.0701941 -0.295553
0.250172 -0.0663432 0.290242
0.250153 -0.0658237 0.272301
0.250132 -0.0652109 0.25114
0.187692 -0.0518744 -0.295378
-0.0585688 -0.070138 -0.295632
0.24966 -0.0474419 -0.210075
0.249642 -0.0469782 -0.227577
0.24962 -0.0464111 -0.24898
0.237454 -0.0598105 0.332756
0.24975 -0.0474604 -0.12199
0.249732 -0.0470342 -0.138861
0.249713 -0.0465564 -0.157776
0.249692 -0.0460303 -0.178601
0.138987 -0.0505544 -0.295428
-0.149808 -0.0700686 -0.295727
0.250161 -0.0547913 0.279444
0.249849 -0.0474809 -0.0247899
0.24983 -0.0470327 -0.0434437
0.249809 -0.0465306 -0.0643357
0.249788 -0.0460392 -0.0847864
0.249767 -0.0455581 -0.10481
0.0829925 -0.0516874 -0.295486
0.249956 -0.0474355 0.0800285
0.249938 -0.0470309 0.0622819
0.249918 -0.0465676 0.0419564
0.249897 -0.0461132 0.0220275
0.249877 -0.0456677 0.00248361
0.237435 -0.0506528 0.31398
0.250079 -0.0474568 0.199922
0.250059 -0.047029 0.180081
0.250039 -0.0466088 0.160595
0.250019 -0.046196 0.141454
0.249997 -0.0457236 0.119547
0.249978 -0.0453263 0.101123
0.0179379 -0.0501386 -0.295553
0.250142 -0.0460005 0.261671
0.250121 -0.0455742 0.240707
0.2501 -0.0451558 0.220127
0.236837 -0.0359545 -0.26658
0.236811 -0.0354049 -0.29361
-0.0585653 -0.0514343 -0.295632
0.237454 -0.042305 0.332756
-0.149792 -0.0495599 -0.295728
0.187692 -0.0311246 -0.295378
0.250142 -0.0348489 0.261671
0.249653 -0.0274808 -0.216679
0.249626 -0.0270813 -0.242613
0.138987 -0.0308258 -0.295428
0.249811 -0.0274778 -0.0617486
0.249793 -0.0272232 -0.0797143
0.249772 -0.026938 -0.0998432
0.249752 -0.0266586 -0.119555
0.249732 -0.026385 -0.138861
0.249713 -0.026117 -0.157776
0.249692 -0.0258219 -0.178601
0.249671 -0.0255334 -0.19896
0.0829925 -0.0304823 -0.295486
0.237435 -0.0303917 0.31398
0.25 -0.0274743 0.122649
0.249972 -0.0271172 0.0950522
0.249953 -0.0268843 0.0770495
0.249932 -0.0266176 0.0564335
0.24992 -0.0264675 0.0448355
0.2499 -0.0262089 0.0248506
0.249872 -0.0258482 -0.00303116
0.249849 -0.0255666 -0.02479
0.24983 -0.0253253 -0.0434437
0.0179936 -0.0300812 -0.295555
0.250172 -0.0268196 0.290242
0.250121 -0.0262397 0.240707
0.2501 -0.0259988 0.220127
0.250079 -0.0257623 0.199922
0.250059 -0.02553 0.180081
0.250039 -0.0253019 0.160595
0.250019 -0.0250778 0.141454
-0.0585078 -0.0296119 -0.295634
-0.149823 -0.0324713 -0.295727
0.237454 -0.0218819 0.332756
0.248138 -0.016092 -0.263506
0.236821 -0.0161883 -0.283312
0.25009 -0.0149832 0.209978
0.187692 -0.0103749 -0.295378
0.138987 -0.0110973 -0.295428
0.0830707 -0.0119267 -0.295489
0.237435 -0.0101306 0.31398
0.0180107 -0.0100269 -0.295556
-0.0584952 -0.0109095 -0.295635
0.250172 -0.00705779 0.290242
0.250153 -0.00700253 0.272301
0.250132 -0.00693734 0.25114
0.25011 -0.00687335 0.23037
0.250069 -0.00674885 0.189957
0.250049 -0.00668828 0.170294
0.250029 -0.00662878 0.150982
0.25001 -0.00657034 0.13201
0.249987 -0.00650344 0.110294
0.249969 -0.00644718 0.0920301
0.249947 -0.00638275 0.0711172
0.249926 -0.0063196 0.050618
0.249906 -0.00625769 0.0305206
0.249886 -0.00619698 0.0108131
0.249866 -0.00613743 -0.00851563
0.249844 -0.00607076 -0.0301557
0.249825 -0.00601361 -0.0487089
0.249803 -0.00594959 -0.0694892
0.249783 -0.00588692 -0.0898317
0.249762 -0.00582556 -0.10975
0.249742 -0.00576547 -0.129258
0.249723 -0.0057066 -0.148367
0.249701 -0.00564179 -0.169404
0.249682 -0.00558541 -0.187706
0.249662 -0.00552331 -0.207863
0.249642 -0.00546258 -0.227577
0.217443 -0.00442156 0.303729
0.193421 -0.00454033 0.303704
0.163711 -0.00468722 0.303673
0.136672 -0.00482091 0.303644
0.112933 -0.00493828 0.303619
0.0930968 -0.00503634 0.303595
0.0653794 -0.00516054 0.296637
0.0545273 -0.0052142 0.296626
0.032132 -0.00532493 0.296603
0.00876468 -0.00544046 0.296579
-0.0156388 -0.00556112 0.296554
-0.0411497 -0.00568725 0.296528
-0.0610552 -0.00578567 0.296507
-0.0816618 -0.00588755 0.296486
-0.0968787 -0.0059216 0.274246
-0.132399 -0.00611196 0.282165
-0.13226 -0.00606809 0.258867
-0.132151 -0.00603345 0.240467
-0.132042 -0.0059992 0.222276
-0.131909 -0.00595693 0.199826
-0.131804 -0.00592354 0.182092
-0.0265691 -0.005268 0.10924
-0.0238383 -0.00521642 0.0886951
-0.0204374 -0.00516863 0.0719864
-0.0162709 -0.0051101 0.0515253
-0.0121962 -0.00505287 0.0315219
-0.00630242 -0.0049861 0.0112269
-0.0336161 -0.00511363 0.00714162
-0.0481105 -0.0051884 0.0088034
-0.045746 -0.00514133 -0.0102813
-0.130761 -0.00559428 0.00722435
-0.130622 -0.0055502 -0.0161825
-0.130507 -0.005514 -0.0354083
-0.130326 -0.00545705 -0.0656531
-0.0611085 -0.00504284 -0.104419
-0.0628222 -0.00501419 -0.12445
-0.0641947 -0.00498415 -0.144317
-0.0576746 -0.00493119 -0.155492
-0.0416569 -0.00482264 -0.171315
-0.0246717 -0.00470432 -0.189822
-0.0374052 -0.00473619 -0.206609
-0.0607908 -0.00484586 -0.209847
-0.0598054 -0.00480585 -0.228803
-0.0484153 -0.00457148 -0.324859
0.237454 -0.0014588 0.332756
-0.0993679 -0.00199599 0.303396
-0.0967118 -0.00195681 0.247077
-0.0970041 -0.00194915 0.233884
-0.116996 -0.00193748 0.161653
-0.0953357 -0.00189257 0.146767
-0.0954355 0.00192972 0.206625
-0.0957286 0.00192226 0.193771
0.0930943 0.00503634 0.303597
-0.0890056 0.00589879 0.282966
-0.0246884 0.00527139 0.116097
-0.0235894 0.0052434 0.103931
-0.0186169 0.00516506 0.0749334
-0.0147732 0.00510833 0.0545816
-0.0166594 0.00506478 0.026054
-0.0427295 0.00517171 0.0141728
-0.0477595 0.00514584 -0.0132107
0.236837 0.00326858 -0.26658
0.236811 0.00321861 -0.29361
0.0724531 0.00856401 0.303572
0.0509533 0.00874118 0.303551
0.0285485 0.0089258 0.303526
0.00517231 0.00911843 0.303503
-0.00689763 0.00921789 0.303491
-0.0255046 0.00937122 0.303472
-0.0512987 0.00958378 0.303446
-0.0714227 0.0097496 0.303424
-0.0918604 0.00952005 0.174573
-0.119547 0.0092198 0.00348797
-0.119551 0.00916028 -0.015788
-0.119557 0.00906665 -0.0461173
-0.119564 0.0089749 -0.0758328
-0.053234 0.00835504 -0.0994868
-0.0548866 0.0082966 -0.122814
-0.053447 0.00775034 -0.295808
-0.0774097 0.00786753 -0.321819
0.237435 0.0101305 0.31398
-0.0363092 0.0123238 0.0906093
-0.0374119 0.0122557 0.0719196
-0.0390543 0.0121794 0.0499011
-0.0391163 0.0120995 0.0312534
0.187692 0.00806934 -0.295378
0.139058 0.00863039 -0.295431
0.0830439 0.0092766 -0.295488
0.0180192 0.0100268 -0.295556
-0.0922645 0.0178584 0.303407
-0.113845 0.0181785 0.303384
-0.100056 0.0170925 0.144872
-0.121591 0.0174463 0.151029
-0.0371576 0.0143089 -0.187907
-0.0833847 0.0213501 0.256936
-0.0837266 0.0212672 0.243812
-0.0845149 0.021076 0.213583
-0.058172 0.0182032 -0.138849
0.237454 0.0189643 0.332756
-0.094203 0.0256626 0.28169
-0.123655 0.0251154 0.134959
-0.0564923 0.0233941 0.0998784
-0.10077 0.0227211 -0.102077
-0.108589 0.0211254 -0.321624
0.197519 0.0226003 0.303703
0.180923 0.0230106 0.303687
0.159311 0.0235448 0.303666
0.141289 0.0239904 0.303646
0.117779 0.0245715 0.303619
0.0981308 0.0250573 0.3036
0.0776936 0.0255625 0.303577
-0.000831664 0.0275037 0.303498
-0.0255063 0.0281137 0.303473
-0.0513015 0.0287514 0.303448
-0.0714291 0.029249 0.303428
-0.0815281 0.0284513 0.190402
-0.0805817 0.0282269 0.168712
-0.0357489 0.0256957 0.0152235
-0.0446432 0.025743 -0.00341007
-0.124505 0.0277973 0.00513968
-0.124476 0.027617 -0.0142425
-0.12446 0.0275099 -0.0257517
-0.0597005 0.024679 -0.158409
-0.0591099 0.0241565 -0.213215
-0.0588738 0.0239477 -0.235113
0.217444 0.0250554 0.303728
0.0618133 0.0294157 0.303562
0.0398665 0.0300306 0.30354
0.0169827 0.0306717 0.303516
-0.0425987 0.0300545 0.0857444
-0.0351574 0.0296504 0.0671327
-0.0352135 0.0294151 0.0445751
-0.125392 0.030889 -0.0557451
-0.125326 0.0304985 -0.0927481
-0.05915 0.0283378 -0.121874
-0.0602078 0.027779 -0.177906
-0.0922644 0.0377012 0.303407
-0.113845 0.0383769 0.303384
-0.100115 0.0361853 0.153321
-0.0584512 0.0296101 -0.295636
-0.0948412 0.0306213 -0.306599
-0.133348 0.031653 -0.321469
0.237364 0.0303951 0.314052
-0.0809032 0.0407116 0.259878
-0.0797899 0.0404341 0.241465
-0.0797461 0.0401484 0.219558
-0.0805029 0.0357165 -0.124056
0.236837 0.0228801 -0.26658
0.236811 0.0225304 -0.29361
0.0830786 0.0278286 -0.29549
0.0180317 0.0300799 -0.295557
0.185127 0.0351235 0.303692
-0.127792 0.0448625 0.154009
-0.106834 0.0401964 -0.11844
0.139019 0.0283585 -0.29543
-0.150558 0.038971 -0.321361
-0.0447441 0.0476488 0.303455
-0.057938 0.0481925 0.303444
-0.0800388 0.0475433 0.202436
-0.0596507 0.0450802 0.0973747
-0.0598487 0.0433875 -0.01275
-0.125432 0.0450823 -0.0780399
-0.128345 0.0446492 -0.113852
-0.0655502 0.0407354 -0.19967
0.187725 0.0288177 -0.29538
0.235336 0.039455 0.331156
0.154874 0.042578 0.303656
0.12732 0.0438041 0.303628
0.0930973 0.045327 0.303594
0.0398651 0.0476958 0.303541
0.0169811 0.0487141 0.303517
-0.00690007 0.0497767 0.303493
-0.0955179 0.0532956 0.277953
-0.082422 0.0511181 0.182364
-0.0423854 0.0475939 0.0779383
-0.128912 0.0501906 0.00269631
-0.127565 0.0496717 -0.0248129
-0.126568 0.0493051 -0.0441313
-0.126378 0.0491074 -0.055477
-0.0677584 0.0449718 -0.146965
-0.0676445 0.0437732 -0.218513
-0.11952 0.0446741 -0.302939
-0.171427 0.0465718 -0.327699
0.172401 0.0448943 0.303675
0.0724515 0.0496713 0.303574
-0.0922644 0.0575439 0.303407
-0.113844 0.0585753 0.303383
-0.104374 0.0554715 0.155424
-0.129041 0.056329 0.137455
-0.0400954 0.0507184 0.0616677
-0.0400069 0.0503089 0.0390501
-0.0915946 0.0495861 -0.138963
-0.0703561 0.0479608 -0.172999
0.232974 0.0450345 0.310985
-0.0852649 0.0602866 0.258084
-0.0845651 0.0599024 0.239889
-0.0838746 0.059523 0.221925
-0.0408921 0.053475 0.020844
-0.131162 0.0557991 -0.0987047
-0.129228 0.0552758 -0.120869
-0.0585364 0.0483156 -0.295633
0.112938 0.0543206 0.303615
-0.103783 0.0656939 0.283113
-0.130739 0.0645572 0.155425
-0.106368 0.0571464 -0.14303
-0.0856857 0.0556662 -0.16044
-0.0856013 0.0552531 -0.180476
-0.0855155 0.0548459 -0.200218
-0.0854309 0.0544447 -0.219671
-0.128863 0.0552437 -0.296383
-0.0646457 0.0678564 0.303437
-0.12823 0.0715181 0.303093
0.0180442 0.0501324 -0.295557
-0.15546 0.0599343 -0.305274
0.209583 0.0550116 0.303714
-0.000832438 0.0678426 0.303499
-0.0255147 0.0693478 0.303479
-0.0861927 0.0707189 0.201533
-0.0536942 0.0661146 0.0868384
-0.0502388 0.0639696 0.00222632
-0.0670461 0.0646239 -0.0140042
-0.131838 0.0689802 0.00365976
-0.13332 0.0686361 -0.015346
-0.134053 0.0679843 -0.0458136
-0.131162 0.0656925 -0.138361
-0.105951 0.0635739 -0.163757
-0.105711 0.0630934 -0.184139
-0.105476 0.0626202 -0.204214
-0.105243 0.0621539 -0.223991
0.0830908 0.0490307 -0.29549
0.224458 0.0576828 0.330859
0.136677 0.0626712 0.30364
0.0930957 0.0654725 0.303596
0.0564082 0.0678306 0.303559
0.0342323 0.0692559 0.303536
-0.0993727 0.0778434 0.303399
-0.0896145 0.074289 0.181922
-0.111588 0.0750464 0.154718
-0.133266 0.0764866 0.156639
-0.132553 0.076121 0.143369
-0.0449775 0.0685714 0.063746
-0.0448704 0.068107 0.0447586
-0.135203 0.0708363 -0.0830322
0.233351 0.0427239 -0.266246
0.138991 0.048088 -0.295428
0.185129 0.0626112 0.30369
0.163717 0.064058 0.303667
-0.0782946 0.0804112 0.303422
-0.091208 0.0802275 0.261711
-0.0897607 0.0795425 0.238529
-0.0890343 0.0790368 0.220503
-0.0669739 0.0744104 0.0967325
-0.127051 0.0718743 -0.163713
-0.125784 0.0701483 -0.228471
0.232673 0.0442731 -0.293388
0.0172908 0.0782459 0.329349
-0.128668 0.0879034 0.303368
-0.0998573 0.0851363 0.276092
-0.0466344 0.0744436 0.0156282
-0.125577 0.0741774 -0.20506
0.18776 0.0495639 -0.295381
-0.0941129 0.0859988 0.180016
-0.0729059 0.078983 -0.0157456
-0.134082 0.0805267 -0.123475
-0.0585451 0.0701362 -0.295633
0.204132 0.071121 0.331919
-0.0192445 0.0876048 0.303486
-0.0382658 0.0890781 0.303465
-0.0579378 0.0906019 0.303444
-0.0915214 0.0903303 0.204469
-0.0732714 0.0858702 0.0995714
-0.13643 0.087909 0.00124055
-0.140024 0.0861001 -0.0706482
-0.137339 0.0852251 -0.093616
-0.134218 0.082476 -0.179962
0.0098713 0.0891398 0.30875
-0.099369 0.0978029 0.303397
-0.138164 0.0963028 0.150315
-0.0496592 0.0855604 0.0316478
-0.0515226 0.085057 0.0100479
-0.1389 0.0912818 -0.0175067
-0.141225 0.0907893 -0.0399793
-0.137644 0.0852382 -0.213792
0.01801 0.0701882 -0.295556
-0.149762 0.0837367 -0.295729
-0.0782946 0.100024 0.303422
-0.0957708 0.0999826 0.255482
-0.0949982 0.0993403 0.237159
-0.094425 0.0988639 0.223569
-0.139722 0.0997096 0.129527
-0.0525343 0.0906501 0.0746747
-0.050816 0.0898782 0.0547624
-0.137502 0.0908948 -0.144307
0.0831015 0.0675819 -0.29549
-0.121214 0.107695 0.303377
-0.113516 0.106406 0.284555
-0.117694 0.102618 0.157705
-0.139138 0.0957944 -0.107899
0.00834614 0.100976 0.331783
-0.097012 0.10557 0.185832
-0.141689 0.0977056 -0.164844
0.139089 0.0678075 -0.295433
-0.0382657 0.108031 0.303465
-0.0579377 0.109879 0.303444
-0.0740129 0.100292 -0.011683
-0.143951 0.101112 -0.175035
0.217002 0.0639577 -0.266852
0.218158 0.0629419 -0.29261
-0.0585525 0.0888399 -0.295633
0.00763929 0.107609 0.310393
-0.013043 0.109369 0.303492
-0.0993743 0.117763 0.3034
-0.145158 0.116599 0.149265
-0.143634 0.11114 0.00358465
-0.145223 0.110596 -0.015571
-0.144822 0.109845 -0.0351074
-0.144932 0.108195 -0.0806744
-0.141241 0.106065 -0.129262
0.187694 0.0680129 -0.295378
-0.0782946 0.119636 0.303422
-0.104919 0.120544 0.256451
-0.102699 0.119594 0.237176
-0.101056 0.118891 0.222918
-0.0633342 0.109687 0.0793622
-0.0629021 0.108905 0.0597579
0.009489 0.0884535 -0.289733
-0.149762 0.104244 -0.295729
-0.121214 0.128015 0.303377
-0.109761 0.125823 0.277624
-0.122102 0.122521 0.159862
-0.0755876 0.115228 0.0966156
-0.0675018 0.11213 0.0385856
-0.146732 0.115009 -0.0988657
-0.144646 0.111019 -0.195824
-0.144172 0.109507 -0.233392
0.197846 0.072662 -0.26731
0.00643593 0.119421 0.32882
-0.10511 0.125979 0.194456
-0.0761321 0.118475 0.0849168
-0.0758571 0.117337 0.0573117
-0.073121 0.115614 0.0217079
-0.143532 0.112108 -0.253484
0.00830746 0.095278 -0.267381
-0.0447491 0.1277 0.303458
-0.0579377 0.129156 0.303444
-0.136215 0.137799 0.303361
-0.119529 0.133807 0.25145
-0.0785892 0.118302 -0.0138741
-0.146432 0.123984 -0.0576521
-0.147319 0.119829 -0.160394
-0.146019 0.118947 -0.178233
-0.013043 0.127906 0.303492
-0.0993745 0.137723 0.3034
-0.133062 0.14027 0.273234
-0.122746 0.137281 0.23065
-0.117616 0.135815 0.209958
-0.151622 0.136299 0.130571
-0.149262 0.135075 0.108141
-0.148296 0.134228 0.0908496
-0.14813 0.133317 0.0699364
-0.149072 0.132562 0.0497126
-0.151065 0.131953 0.030087
-0.150307 0.130491 -0.0021832
-0.148728 0.129619 -0.0184158
-0.147508 0.128637 -0.0381994
-0.0585599 0.107544 -0.295632
0.00534236 0.129838 0.312084
-0.0782958 0.139249 0.303423
-0.155387 0.147117 0.277062
-0.135218 0.143427 0.246776
-0.150552 0.12833 -0.13833
-0.121214 0.148335 0.303377
-0.155086 0.15058 0.262761
-0.152659 0.14897 0.23354
-0.129128 0.144153 0.189528
-0.127449 0.142535 0.158154
-0.154763 0.145823 0.15815
-0.148547 0.135195 -0.060901
-0.148888 0.134388 -0.0797158
-0.152121 0.132803 -0.123483
-0.147494 0.128844 -0.198917
-0.149153 0.127662 -0.229545
-0.149762 0.124751 -0.295729
0.00450647 0.138099 0.330279
-0.143853 0.155197 0.303353
-0.155905 0.156365 0.296402
-0.153551 0.151915 0.206635
-0.151801 0.1464 0.0922838
-0.151376 0.14537 0.0711983
-0.150818 0.130281 -0.252952
0.00689024 0.108825 -0.295138
-0.0513059 0.147591 0.303451
-0.155381 0.155599 0.194036
-0.154443 0.148123 0.0394042
-0.150471 0.138139 -0.159878
-0.0255144 0.148067 0.303479
-0.099376 0.157683 0.303401
-0.157705 0.156345 0.120322
-0.156266 0.150271 -0.000290185
-0.153824 0.148952 -0.0208025
-0.152471 0.147806 -0.0406652
-0.152128 0.145894 -0.0789305
-0.153416 0.14498 -0.10109
-0.150286 0.140837 -0.177608
-0.149762 0.135004 -0.295729
0.00343764 0.148231 0.309117
-0.0714219 0.157943 0.303423
-0.158803 0.16792 0.269604
-0.158818 0.165594 0.223081
-0.156151 0.155061 0.0197122
0.00593036 0.118216 -0.284026
-0.161039 0.171474 0.252088
-0.15802 0.166097 0.155281
-0.155424 0.151106 -0.130146
-0.152827 0.146196 -0.218951
-0.154338 0.145363 -0.239231
-0.0585685 0.129366 -0.295632
-0.159152 0.166001 0.0742222
-0.15996 0.165038 0.0537271
0.00217968 0.160624 0.332038
-0.128669 0.177851 0.303369
-0.163842 0.182522 0.296393
-0.162376 0.176273 0.184049
-0.157832 0.162585 -0.0584793
-0.15804 0.159979 -0.107519
-0.157814 0.157778 -0.147872
-0.155014 0.15431 -0.204919
-0.0318544 0.167739 0.303472
-0.0513023 0.170592 0.303448
-0.099376 0.177643 0.303401
-0.161817 0.176363 0.113486
-0.159174 0.16977 0.000633508
-0.160755 0.168937 -0.0187338
-0.160345 0.167792 -0.0384643
-0.159778 0.165377 -0.0808687
-0.15779 0.160217 -0.169403
0.00475693 0.129457 -0.295057
-0.00690901 0.167768 0.303499
-0.0782956 0.178474 0.303423
-0.16312 0.189706 0.276845
-0.163921 0.189054 0.263105
-0.166174 0.185816 0.199503
-0.159664 0.175026 0.0249493
-0.149762 0.155511 -0.295729
-0.163843 0.195109 0.296393
-0.167991 0.191548 0.223348
-0.161736 0.18602 0.143825
-0.16595 0.183793 0.0938096
-0.158404 0.169801 -0.129574
-0.15944 0.165861 -0.200905
0.000666797 0.175178 0.324327
-0.166156 0.186048 0.0643519
-0.161453 0.175706 -0.0993175
-0.161647 0.168769 -0.218017
0.00378221 0.138991 -0.283917
-0.0585759 0.14807 -0.295632
-0.0646429 0.188059 0.303435
-0.128669 0.198294 0.303369
-0.165811 0.19611 0.167816
-0.165914 0.182692 -0.0563713
-0.159105 0.170263 -0.2456
-0.0382655 0.187633 0.303465
-0.099376 0.197603 0.303401
-0.171124 0.205087 0.23429
-0.168583 0.196407 0.0991512
-0.169185 0.195478 0.0823554
-0.163979 0.189233 -0.00584376
-0.165503 0.188296 -0.0252294
-0.162059 0.180057 -0.150757
-0.163896 0.179273 -0.168466
-0.0192443 0.188257 0.303486
-0.0782986 0.198087 0.303425
-0.16988 0.211626 0.276007
-0.171547 0.210484 0.253253
-0.164754 0.195215 0.026685
-0.162445 0.185819 -0.117731
-0.168104 0.20645 0.133555
-0.165571 0.197947 0.00668901
-0.16812 0.193178 -0.0750549
-0.172157 0.215932 0.207112
-0.17259 0.215133 0.193631
-0.170017 0.198036 -0.0630481
-0.167861 0.189475 -0.189279
0.0021438 0.155006 -0.266951
-0.128669 0.218737 0.303369
-0.151586 0.222778 0.303344
-0.169385 0.225678 0.299724
-0.171906 0.21671 0.157323
-0.172262 0.209948 0.0540851
-0.165194 0.195918 -0.139287
-0.166478 0.190974 -0.217505
-0.163874 0.189132 -0.23841
-0.149762 0.182854 -0.295729
-0.00195849 0.200412 0.30868
-0.0447479 0.20775 0.303457
-0.0579405 0.21012 0.303446
-0.099376 0.217563 0.303401
-0.176598 0.229857 0.27989
-0.175853 0.22841 0.260381
-0.173962 0.226416 0.235815
-0.172174 0.215839 0.0835299
-0.170294 0.209344 -0.00789681
-0.172124 0.208102 -0.0312259
-0.167961 0.19864 -0.160632
0.00169116 0.159107 -0.294942
-0.0585086 0.169879 -0.295634
-0.00248402 0.205724 0.331115
-0.0782986 0.217699 0.303425
-0.171208 0.215594 0.0247876
-0.168422 0.20565 -0.112791
-0.175399 0.226552 0.114919
-0.175727 0.237959 0.218161
-0.175823 0.236349 0.195241
-0.176626 0.235239 0.177477
-0.172582 0.217705 -0.05852
-0.173396 0.215959 -0.0852734
-0.171936 0.209092 -0.178024
-0.169645 0.205137 -0.227579
-0.0192417 0.218079 0.303484
-0.121214 0.237742 0.303377
-0.151586 0.243598 0.303344
-0.183063 0.248245 0.283627
-0.18232 0.245311 0.24502
-0.179249 0.236699 0.134073
-0.175273 0.230229 0.0551834
-0.171334 0.215759 -0.13449
-0.00390834 0.219285 0.310095
-0.0513077 0.228096 0.303452
-0.099376 0.237523 0.303401
-0.180019 0.252829 0.296375
-0.181782 0.242958 0.157417
-0.175563 0.236404 0.0848611
-0.177698 0.233174 0.0352332
-0.176938 0.230003 -0.00586316
-0.175009 0.228112 -0.0264417
-0.173462 0.219081 -0.145145
-0.172421 0.214895 -0.199313
-0.169737 0.210776 -0.248167
1.8537e-05 0.175476 -0.275295
-0.149762 0.203361 -0.295729
-0.0584609 0.188571 -0.295636
-0.185044 0.25536 0.204441
-0.18302 0.247397 0.105059
-0.181084 0.240219 0.0157706
-0.175365 0.265153 0.303318
-0.186619 0.261333 0.223821
-0.18537 0.256422 0.163563
-0.183095 0.247479 0.0538258
-0.175953 0.237699 -0.0537531
-0.175932 0.236196 -0.0731616
-0.177738 0.233656 -0.110871
-0.174742 0.228161 -0.174025
-0.1741 0.225819 -0.202642
-0.0056023 0.235865 0.329004
-0.0255101 0.23803 0.303476
-0.0714347 0.247643 0.303432
-0.121214 0.258062 0.303377
-0.143853 0.2628 0.303353
-0.188679 0.270133 0.27719
-0.188622 0.268987 0.262736
-0.183167 0.247558 0.0041739
-0.182567 0.2452 -0.0242723
-0.17951 0.23603 -0.132979
-0.00584936 0.238237 0.311505
-0.187037 0.262551 0.133052
-0.178101 0.230867 -0.240642
-0.0513106 0.251098 0.303454
-0.0852423 0.258424 0.303417
-0.187333 0.263508 0.0938027
-0.182969 0.246395 -0.106002
-0.17699 0.235603 -0.223388
-0.149762 0.223868 -0.295729
-0.183524 0.278401 0.23625
-0.182793 0.275534 0.20331
-0.182178 0.273123 0.175612
-0.187811 0.265187 0.0639964
-0.187152 0.262604 0.0343228
-0.184296 0.251411 -0.0942808
-0.182843 0.275528 0.153429
-0.181943 0.271982 0.113312
-0.186706 0.260665 -0.0350869
-0.184095 0.250442 -0.150687
-0.183352 0.24753 -0.183619
-0.00241387 0.198918 -0.283605
-0.0585174 0.210402 -0.295634
-0.0120617 0.255925 0.329352
-0.0318576 0.258207 0.303474
-0.188934 0.269202 0.0142005
-0.188087 0.265888 -0.0226875
-0.0141596 0.258368 0.308691
-0.0579422 0.267951 0.303447
-0.188174 0.266045 -0.066289
-0.184941 0.2534 -0.204912
-0.184038 0.249869 -0.243618
-0.0260789 0.266773 0.330694
-0.188622 0.267622 -0.0933269
-0.185728 0.25631 -0.215466
-0.189155 0.269531 -0.116115
-0.1887 0.267752 -0.135027
-0.149762 0.244375 -0.295729
-0.183937 0.278887 -0.0398207
-0.188775 0.267879 -0.175615
-0.188156 0.26546 -0.200965
-0.0584272 0.229083 -0.295637
-0.189271 0.26949 -0.239717
-0.00460327 0.220095 -0.283495
-0.149762 0.264881 -0.295729
-0.0584272 0.247783 -0.295637
-0.00646901 0.238325 -0.283401
-0.0125713 0.255784 -0.27454
-0.0175135 0.261066 -0.294219
