ply
format ascii 1.0
comment Created by Open3D
element vertex 1658
property double x
property double y
property double z
end_header
0.000183945 -0.0205845 -0.0455733
-0.0701773 0.21461 -0.0999878
-0.166072 0.21461 -0.280158
-0.193473 0.224197 0.163963
-0.11627 0.21461 0.0318015
0.0420919 0.227061 0.218745
0.162933 0.21461 -0.0455674
0.196125 0.21461 0.383677
-0.0477626 0.227061 0.179886
-0.143322 0.227061 -0.0310515
0.129897 0.227061 -0.284237
0.0950708 0.0978515 -0.303388
0.0602552 0.21461 -0.250264
0.13548 0.21461 -0.264344
-0.0911797 0.227061 0.243606
0.187834 0.226732 0.23902
0.0665703 0.227061 -0.179749
0.156227 0.21461 -0.215854
-0.0251155 0.121244 0.311281
0.0653785 -0.169639 -0.309488
0.182726 0.21461 0.122716
-0.040781 0.21461 0.329488
-0.00589323 0.227061 0.14765
-0.0701291 -0.188638 0.290529
0.000466082 0.226984 -0.385371
0.00414418 0.0599709 -0.311282
-0.0135421 0.227061 0.0531356
-0.0124514 0.0325943 -0.171809
-0.0749529 0.21461 0.170309
-0.0360769 0.21461 0.258759
-0.090703 0.227061 -0.182758
0.0124514 -0.00835947 0.00279275
0.142828 -0.217054 0.290529
-0.0146772 0.21461 -0.0284943
-0.0283647 -0.0201907 -0.29883
0.171099 0.21461 0.271668
0.0998669 0.129326 -0.304978
-0.142319 0.21461 0.364719
-0.0198716 -0.161874 -0.315701
-0.00616883 0.21461 -0.370181
-0.0121733 0.0385653 0.0622731
0.0124514 0.0293474 -0.0850955
-0.111403 0.21461 -0.35987
-0.00876112 0.227061 0.28378
-0.15163 0.227061 -0.267423
-0.0124514 0.0381055 -0.169779
-0.0472748 -0.171887 -0.29883
0.0293438 -0.191253 -0.291619
0.00608844 0.179566 0.29883
0.166226 0.21461 -0.217568
0.135548 0.227061 0.345297
0.152326 0.227061 0.0232406
-0.0332036 0.169409 -0.303691
-0.100503 -0.18204 -0.295576
0.0645809 0.227061 -0.066979
-0.183574 0.227061 -0.00701851
0.0462431 0.227061 -0.0868816
0.0275549 -0.0289303 -0.29883
0.136898 0.21461 -0.22464
0.0226385 -0.142627 -0.29883
0.133401 -0.21711 -0.290529
0.0564354 0.172894 -0.29883
0.0205149 0.227061 -0.266053
0.0543213 0.21461 0.100258
-0.0518212 0.227061 -0.375982
-0.0963508 0.21461 -0.262087
0.0761837 -0.199425 0.319582
0.134114 0.21461 0.00963758
-0.114703 0.227061 0.308546
0.0675368 -0.0116022 -0.29883
0.153708 0.21461 0.338722
-0.0220571 -0.1828 0.290529
-0.0456545 -0.134046 -0.307611
0.00155279 0.0385653 0.0234586
0.0886116 0.227061 -0.180861
0.130565 0.227061 -0.122668
0.0699264 0.0376422 -0.311282
0.0363413 0.21461 -0.0840918
-0.112061 0.200872 -0.300808
-0.0863808 0.21461 -0.252384
0.0499808 -0.0771201 0.29883
0.0168664 0.090732 0.29883
0.107623 -0.185583 -0.295422
0.15646 0.21461 0.199167
0.0274937 0.227061 -0.227805
0.0417638 0.21461 0.317184
0.125212 0.215981 -0.398159
-0.00288024 0.0385653 0.11675
-0.0764643 0.227061 0.287439
-0.0087899 0.21461 0.382738
-0.0081972 -0.149043 -0.311282
-0.00421395 0.0385653 -0.257142
0.187501 0.222238 -0.394874
0.0619508 0.201967 0.311281
-0.0108556 0.0385653 0.185402
-0.0892791 -0.186819 -0.290529
-0.0485474 0.136802 0.29883
-0.0727435 0.21461 0.371126
0.0717981 0.21461 -0.383274
0.164245 0.21461 0.12465
0.0438495 0.227061 0.0937421
0.0330299 0.227061 -0.151431
-0.0778855 0.176767 0.311281
0.0124514 0.0147793 -0.0305912
0.0837693 -0.175457 0.291597
-0.0710068 0.227061 -0.120186
-0.019662 0.227061 0.107459
0.00121436 0.171179 0.311281
0.126628 0.227061 0.289813
-0.0893663 0.21461 -0.37632
0.131277 0.21461 -0.331176
-0.0783788 0.205512 0.29883
-0.0600668 -0.172002 -0.311282
-0.0731658 0.223062 0.394046
0.012201 -0.127026 0.311281
0.0691145 0.00657085 -0.29883
0.194661 0.223222 0.27832
-0.138362 0.21461 -0.14309
-0.190477 0.225904 -0.3856
-0.168694 0.227061 -0.264058
-0.0289837 0.21461 -0.0328834
-0.19003 0.21461 -0.15492
-0.0790964 0.227061 0.377567
0.144101 0.227061 -0.282242
-0.0369425 0.212795 0.29883
-0.0124514 -0.0266142 -0.179022
0.0244385 -0.162174 0.311461
-0.0618026 0.129505 0.29883
0.0700953 0.0177845 -0.311282
-0.0751489 0.119422 -0.29883
0.0278548 0.227061 -0.238066
-0.126416 0.227061 -0.136467
0.0999048 0.227061 0.0443368
0.0417984 0.227061 -0.0708465
-0.10187 0.21461 0.386415
-0.00446784 0.21461 0.277135
-0.0207846 -0.0461067 0.29883
0.0680277 0.00828925 -0.29883
-0.0110581 -0.166004 -0.303353
0.0998625 0.22437 0.392467
0.0228215 0.111877 0.311281
-0.073849 -0.172275 0.295034
-0.0620171 0.21461 0.392552
-0.0131237 -0.0560562 0.311281
-0.000949718 0.227061 -0.337646
0.0456545 0.0489145 -0.304728
0.0204781 0.201137 -0.29883
0.047732 0.00763406 -0.29883
0.0477002 0.21461 0.0423051
-0.116935 0.21461 0.0521523
0.0764185 0.0378004 0.29883
0.0207648 -0.161946 0.294325
-0.00553054 0.21461 0.332547
0.0612557 0.21461 0.376497
0.0866471 -0.0728151 0.302746
-0.184132 0.21461 0.185706
-0.0124514 -0.00571291 0.0481603
0.114781 0.227061 -0.1211
-0.119171 0.227061 0.0075739
-0.071695 0.0101572 0.29883
-0.198844 0.216392 -0.109662
-0.156112 0.21461 -0.287948
0.179628 0.21461 0.179447
0.0902633 0.0541968 -0.302042
-0.0876879 0.0350893 -0.29883
0.18207 0.227061 0.343224
-0.037009 0.21461 0.167016
-0.00317618 0.21461 -0.00973348
-0.0839907 0.21461 -0.381549
-0.0651716 0.227061 -0.367971
0.0211685 0.227061 0.315748
0.0561725 -0.125048 0.29883
-0.0429354 0.227061 -0.32216
-0.0124514 0.0199573 -0.19711
0.0419465 0.227061 0.179144
-0.0135946 0.227061 0.21808
0.199188 0.214765 0.115652
-0.0652113 0.0601428 -0.29883
-0.0533056 -0.0998237 -0.29883
-0.167837 -0.227061 -0.291885
0.0879466 0.0209193 -0.305941
0.100881 0.227061 0.227371
-0.080244 0.0791782 0.311281
-0.174873 0.21461 0.0758835
-0.00536213 0.0385653 0.102555
0.0205725 0.21461 0.0553164
0.169574 0.227061 0.25122
-0.0853875 0.227061 0.276886
-0.0336884 0.21461 -0.278437
-0.136287 -0.226214 0.319582
-0.00841033 -0.163753 0.319582
-0.186998 0.226883 -0.165628
-0.039224 0.21461 0.0891117
-0.00742711 -0.130703 0.29883
-0.0503786 0.227061 -0.324599
0.0267827 0.227061 0.311024
-0.0317646 -0.0546433 0.311281
0.0651564 0.200671 -0.311282
-0.0724059 0.0464257 0.29883
-0.0332036 -0.0200559 0.305917
0.0285663 0.21461 -0.124779
-0.0900882 0.227061 0.172531
0.0338678 -0.190805 0.290529
0.0652836 0.21461 0.377364
-0.0582515 0.227061 0.307674
-0.0662456 0.00981943 -0.29883
0.185174 0.21461 0.248472
-0.00524031 0.21461 0.202034
-0.17823 0.21461 -0.224654
0.0702505 -0.20135 0.319582
-0.00205274 0.19381 0.29883
-0.049485 0.227061 -0.3648
0.103242 0.21461 0.133213
-0.115361 0.21461 -0.243317
-0.139299 0.227061 0.0280758
0.0441011 0.227061 -0.261404
0.140799 0.227061 -0.0090935
0.0866471 -0.0383487 -0.302076
-0.0805531 0.0159471 0.311281
-0.0951213 0.21461 -0.0461091
-0.0124514 0.0149336 0.175511
-0.0745154 0.21461 0.155804
0.121189 -0.208263 -0.290529
0.0678617 0.00254022 0.311281
-0.0747869 -0.0394657 0.29883
-0.0796872 0.227061 0.170901
-0.0654501 -0.134062 -0.311282
0.0458924 0.189707 0.298123
0.100718 0.227061 -0.159308
0.0578838 0.21461 0.101337
0.019967 0.00238894 -0.29883
-0.0995661 0.21461 0.275072
-0.169081 0.227061 0.2761
0.0691975 0.0637419 0.311281
-0.0127723 0.227061 -0.185525
0.14782 -0.227061 -0.294258
0.0761727 -0.122767 -0.29883
0.156345 -0.225175 -0.290529
-0.0332036 0.0114242 0.303737
0.181682 0.227061 -0.328764
0.132588 -0.206141 -0.290529
-0.0576987 0.0492864 0.311281
0.0247132 0.0316322 0.311281
0.0952359 0.21461 0.223228
0.194701 0.223184 0.0602508
0.0833506 -0.107704 -0.311282
0.0239824 0.227061 0.369714
0.0208581 0.104619 0.29883
-0.0482057 0.0829212 -0.311282
-0.147767 0.21461 0.304871
-0.0725583 0.21461 0.120325
-0.0670182 0.227061 -0.358087
0.189261 0.21461 -0.144745
0.19889 0.216224 -0.304889
0.162591 0.227061 -0.0961513
0.104763 0.21461 0.1995
-0.0150783 -0.172652 -0.290529
0.136685 -0.201739 0.30696
0.0276992 0.189707 0.286628
-0.197695 0.219286 -0.0859789
-0.0277531 0.227061 0.153155
-0.0385254 0.21461 -0.283833
0.00352817 0.21461 -0.17654
-0.0124514 -0.0141813 0.167867
-0.0132253 -0.0899836 -0.29883
0.0452164 0.21461 0.0348662
-0.0124514 -0.00619604 0.279447
0.00685681 0.227061 -0.0123115
-0.0456545 0.155477 0.30595
-0.177509 0.21461 -0.174927
-0.0124514 -0.0402013 -0.28168
0.104681 0.189707 0.29298
0.090987 -0.200233 -0.290529
0.151597 0.227061 -0.37358
0.0434804 0.21461 -0.331219
-0.0562834 0.21461 -0.0835204
0.0121405 0.156535 0.29883
0.0282319 -0.166004 -0.301724
0.0858714 -0.199379 0.290529
-0.0942868 0.227061 0.0953135
0.196735 0.21461 -0.0164177
0.0534672 -0.174025 0.29883
0.111719 0.21461 -0.258113
-0.0871589 -0.162073 -0.303587
0.00842053 0.21461 -0.394481
-0.0124514 -0.0218493 0.194913
-0.0353805 0.227061 -0.311899
0.0183025 -0.0485947 0.29883
-0.0255061 0.21461 -0.162006
-0.141552 0.21461 -0.183603
-0.108232 0.227061 -0.243914
0.0470278 0.21461 0.0379815
-0.0357178 -0.192162 -0.302065
-0.197028 0.21461 -0.209362
0.0704673 -0.0769259 -0.311282
-0.00632648 0.0626887 -0.311282
-0.0525767 0.214273 0.311281
-0.164829 0.21461 0.144224
-0.0286482 0.227061 0.304589
0.0238372 0.0536171 -0.311282
0.0708675 0.227061 -0.154888
0.0346715 0.227061 0.258781
-0.116952 -0.216514 -0.290529
-0.116716 0.21461 -0.0854822
0.111345 -0.19653 -0.319582
0.0684125 0.21461 -0.270819
0.0179738 0.227061 -0.264106
0.0531694 0.227061 -0.320283
0.148509 0.227061 -0.0902877
-0.0545582 -0.158345 -0.311282
-0.0721397 0.21461 -0.0628995
0.0332031 -0.0606974 -0.309471
-0.0124514 -0.0215488 0.269209
-0.0542658 0.0318561 -0.29883
0.0497739 0.227061 0.259522
-0.10012 0.227061 -0.27771
0.05011 0.0508831 -0.29883
-0.00719838 0.0385653 -0.136288
0.110213 0.21461 0.312232
-0.0255742 -0.0573515 0.311281
-0.0706205 -0.0113048 0.311281
0.0694412 0.212042 -0.29883
-0.153576 0.21461 -0.152879
-0.0439672 0.227061 -0.363301
-0.1931 0.224484 -0.251045
0.0577612 0.227061 0.0278152
0.0476373 0.0562952 -0.311282
0.133435 0.227061 0.184417
0.0468697 0.203691 0.311281
0.0495705 0.21461 0.108777
0.0580417 0.227061 0.00593583
0.124128 -0.194046 -0.30477
0.136024 0.227061 0.0870825
-0.00116056 0.21461 0.0903209
0.0224035 -0.170814 -0.290529
-0.0462143 -0.144409 -0.29883
-0.193866 0.223896 -0.0512361
-0.109824 0.227061 0.0497842
-0.0504546 0.21461 -0.0498543
0.117513 0.21461 -0.127851
0.0941065 -0.211681 0.296424
-0.0551575 0.0689223 0.29883
0.187148 0.226856 0.0123389
0.0557153 0.21461 -0.0492087
0.0124514 -0.0142586 0.19864
0.044255 0.227061 0.317725
0.140348 -0.204029 0.300648
0.0272096 0.189707 -0.29848
0.0783965 0.227061 0.286248
0.00694729 0.21461 0.371086
-0.171966 0.227061 0.00510001
-0.060653 0.189707 -0.293618
-0.128854 0.21461 -0.0802673
-0.0570721 -0.10254 0.29883
-0.131663 0.227061 0.0618876
0.0637733 0.133817 -0.29883
-0.0124514 -0.0246621 0.220716
-0.117047 0.227061 0.098284
-0.000879733 -0.00851787 -0.319582
0.0759759 0.21461 -0.247847
0.0269992 -0.183957 0.319582
0.178876 0.227061 -0.283996
-0.00892494 -0.115742 0.311281
0.0456545 0.113572 -0.3058
-0.054026 0.0120309 0.311281
-0.046606 0.166322 -0.311282
-0.103408 0.148084 -0.299083
-0.0991725 0.21461 -0.350583
-0.115139 -0.188835 -0.291084
0.0692291 -0.148519 -0.29883
-0.0868517 0.0704318 0.311281
0.0866582 0.227061 -0.0212184
0.095872 0.108602 -0.29883
-0.0290258 0.21461 -0.224736
-0.0894913 0.0856482 0.29883
0.117983 0.21461 0.0398426
0.187288 0.226831 0.252484
0.0608705 -0.198086 0.316749
0.0124514 -0.0354481 -0.200564
0.147155 0.227061 0.0602605
-0.0124514 -0.0441379 -0.287194
0.04414 -0.165054 0.304243
-0.169779 0.21461 -0.0989065
0.164366 0.227061 0.180174
0.0467178 -0.0449659 -0.311282
-0.0182191 0.227061 0.10236
-0.151752 0.21461 0.237786
-0.00418298 0.227061 0.18578
-0.158608 0.227061 -0.101021
-0.041148 0.227061 -0.2541
0.198651 0.216971 0.337731
-0.105329 0.227061 0.285531
-0.00246944 -0.044443 0.236089
-0.00945207 -0.0243516 -0.100817
-0.0238581 -0.190323 -0.294636
0.00474923 -0.0220769 0.0735074
0.0190523 -0.0239891 0.311281
-0.0962981 0.104261 -0.308479
-0.0124514 0.0228337 -0.0085143
0.158142 0.227061 -0.11929
-0.0124514 -0.00929372 0.131102
0.0124514 0.0331918 -0.224346
0.187114 0.226862 0.326504
-0.0319684 0.21461 -0.0604872
-0.0204673 0.227061 -0.309631
-0.0124514 -0.00522258 -0.223733
0.108958 0.227061 0.0729544
0.0726297 0.21461 -0.193215
-0.168606 0.227061 0.256578
0.0129873 0.21461 -0.34995
-0.000150972 -0.0773348 -0.311282
-0.189257 0.226352 -0.038784
-0.0124514 0.0383126 0.210161
0.0824982 -0.0831321 0.311281
0.179297 0.21461 0.133767
0.00717588 0.095739 0.29883
-0.125178 0.227061 -0.261899
-0.0738036 -0.194962 -0.319582
0.0574148 0.227061 0.246209
0.010187 0.189707 0.296015
0.112061 0.202285 -0.296732
-0.114149 0.227061 0.158189
-0.0124514 0.0171063 0.274014
-0.00483374 -0.160937 0.311281
-0.0533541 0.227061 0.149468
0.124499 -0.20138 0.319582
-0.00918042 0.227061 0.259088
0.0518237 0.227061 -0.360193
-0.146218 0.21461 0.359045
0.0128551 -0.140442 -0.311282
0.0950291 0.227061 0.326886
-0.0548613 0.066417 -0.29883
-0.194313 0.223552 0.228556
-0.0427793 0.21461 0.227838
0.00295621 -0.189037 -0.307566
-0.0124514 -0.0384618 -0.298601
-0.145192 0.21461 -0.0960318
0.0153385 0.21461 0.174592
-0.0654138 -0.173925 -0.319582
-0.0230637 0.21461 0.028414
0.012991 0.227061 -0.361196
0.0389292 -0.178686 0.290529
-0.0170024 0.227061 -0.0972566
0.0826638 -0.150695 -0.311282
-0.00665099 0.21461 -0.34591
0.0816598 0.227061 -0.0383808
-0.111482 -0.190031 0.290529
0.0990293 -0.209181 -0.319582
-0.0131579 0.227061 -0.0703547
0.178104 0.227061 -0.331936
-0.130367 0.224869 -0.391702
0.00102512 -0.0413472 0.216806
-0.04969 0.21461 -0.396157
-0.084688 0.21461 0.224066
0.00892199 0.125606 0.29883
-0.0765656 0.143547 0.311281
-0.118286 0.227061 -0.104176
0.155585 0.21461 0.213676
-0.120116 -0.21445 -0.290529
-0.0723371 0.0892148 0.29883
0.0306027 0.0817396 -0.29883
-0.086666 0.227061 -0.183521
-0.0893044 0.227061 -0.0932044
0.106988 0.227061 -0.343306
0.0124514 0.0182504 -0.263153
-0.0684487 -0.109786 0.29883
0.0120272 0.227061 0.326332
-0.0408262 0.21461 0.112548
-0.0148895 0.21461 -0.25881
0.169506 0.21461 0.322084
0.0116104 0.202608 0.29883
0.031474 0.227061 0.161908
-0.180175 0.227061 0.272399
-0.192163 0.225058 0.0783042
-0.134048 0.227061 0.0558959
-0.0859055 0.21461 0.056189
0.0332031 0.0493414 0.301157
-0.126835 0.21461 -0.0991419
0.0633032 0.0180521 -0.311282
0.0332031 0.19466 -0.300086
0.00450223 -0.0783319 -0.311282
-0.140686 0.227061 -0.286596
0.163774 0.21461 0.270644
-0.0484235 0.194054 0.286378
-0.0456545 0.134661 -0.302072
-0.115589 0.227061 -0.31707
-0.187403 0.21461 -0.265932
-0.0905923 0.21461 0.0888448
0.162953 0.21461 0.282229
0.157362 0.227061 0.0299387
-0.0308582 -0.124569 0.29883
0.110386 0.21461 0.179863
-0.17508 0.21461 0.179027
0.171213 0.21461 0.137756
0.0960655 0.21461 -0.0652981
0.0716462 0.00455558 0.311281
0.0631912 -0.0266655 0.29883
-0.0371304 0.227061 -0.171361
0.157987 -0.217358 0.319363
0.0568986 0.21461 0.226435
-0.0804873 0.21461 -0.221365
0.106849 0.189707 -0.294595
-0.0493238 0.227061 -0.333561
-0.171833 0.227061 -0.316637
0.101055 0.227061 -0.30294
0.0124514 0.00633034 0.295097
-0.0563066 0.227061 -0.249498
-0.0859963 0.201918 0.311281
0.0876577 0.0149598 0.302582
-0.0266269 0.0284216 0.311281
-0.145914 0.21461 -0.208717
0.00190048 0.21461 -0.125627
0.00184794 -0.18898 -0.292616
-0.00849444 -0.0204389 -0.0428498
0.0790174 0.223455 -0.393643
0.0623654 0.122822 -0.311282
0.119534 0.227061 0.207221
-0.0124514 0.00802114 -0.18632
-0.0959343 0.21461 0.260312
-0.0124514 -0.0154753 -0.202354
-0.14494 0.227061 -0.133407
0.10294 0.21461 0.142507
-0.0124514 -0.0136612 -0.187181
-0.0262332 0.193868 -0.311282
-0.00456961 0.0385653 0.0364548
-0.0576316 0.00830458 0.311281
0.122358 -0.213931 0.290529
0.123193 0.227061 0.151615
0.0859509 0.193143 -0.286379
0.0692948 0.21461 0.0111605
0.0866471 -0.0988283 -0.310806
-0.0123235 0.227061 -0.255682
-0.171733 0.21461 0.294654
0.0124514 0.0115977 -0.0385191
-0.0124514 0.0228125 0.286077
-0.00784298 0.21461 0.167855
-0.0871589 -0.0309085 -0.301524
-0.0386575 0.227061 0.0461301
-0.0511166 0.189707 0.286678
-0.0529614 0.21461 0.209888
-0.0462895 0.150532 0.29883
-0.163417 0.21461 -0.0679847
-0.0776113 0.21461 0.0794885
-0.0788725 0.227061 -0.209587
-0.136337 0.21461 -0.0126654
-0.164639 0.21461 -0.0636952
-0.105053 0.227061 0.178567
-0.0651748 0.227061 -0.171324
0.133322 0.21461 -0.0558151
0.189362 0.21461 0.0542623
-0.0582098 0.21461 -0.118726
0.0312911 0.21461 0.112597
-0.0223179 0.140044 -0.311282
-0.128553 0.21461 0.0645462
-0.199004 0.21461 -0.300261
0.0124514 0.0212169 0.255327
0.140931 -0.210597 -0.290529
-0.0124514 0.0354126 -0.175028
-0.0124514 -0.0382707 -0.233592
0.00223531 0.227061 -0.100371
0.0337554 -0.163097 0.302673
-0.0902944 -0.194481 -0.290529
0.174321 0.227061 -0.159777
0.0588385 0.21461 0.198894
-0.086042 0.0493616 0.29883
-0.0124514 -0.0217596 -0.119286
-0.126604 0.21461 -0.181884
-0.189779 0.226192 -0.0777339
0.0980327 0.118295 0.302671
0.169027 0.226885 0.386206
0.0545754 0.0420146 0.311281
-0.15918 0.21461 0.204031
-0.0249051 0.227061 0.221947
-0.0913605 0.15478 -0.29883
-0.162519 0.227061 -0.330952
0.144723 -0.206925 -0.311152
0.0737061 0.21461 0.321263
0.184979 0.21461 -0.234773
0.102742 0.21461 0.36752
0.00927104 -0.0206762 0.0472896
-0.0305442 0.227061 -0.0191187
0.184265 0.21461 0.394607
-0.156645 0.227061 -0.0493122
-0.0776828 0.209262 -0.311282
-0.0142685 0.21461 0.388028
0.0534476 0.21461 -0.0189128
0.16765 0.21461 0.208776
0.109234 0.196007 0.286378
0.0579681 -0.177846 0.304746
-0.0124514 0.0383001 -0.0599866
0.011849 0.0385653 -0.181741
-0.0215927 0.227061 -0.342948
0.133645 0.227061 -0.345111
0.143999 0.21461 0.134142
0.192045 0.225128 0.0403898
-0.0880401 0.227061 -0.233791
-0.180817 0.21461 0.297662
-0.144443 0.21461 0.381972
-0.0631115 0.227061 0.187734
0.0653134 0.186574 0.311281
-0.0456545 0.134977 0.310511
0.0907748 0.21461 0.227833
-0.0239494 -0.183544 -0.290529
0.138815 0.227061 -0.0467217
-0.134832 0.227061 -0.177635
-0.138067 0.21461 -0.115673
-0.130286 0.21461 -0.110267
-0.0439685 0.196077 -0.29883
-0.116807 0.227061 0.0682188
0.0124514 -0.00156238 0.0697756
0.0185844 0.21461 0.131148
-0.0172731 0.227061 0.0242063
-0.0185191 0.227061 0.269214
0.112554 0.227061 0.308155
-0.136509 0.21461 -0.14914
-0.0871589 -0.09932 0.309897
-0.0124514 -0.00890316 0.222227
0.0332031 -0.109316 -0.301961
0.104654 0.227061 -0.282841
0.131231 0.21461 -0.121473
-0.0154198 0.186783 -0.29883
-0.173043 0.227061 -0.188436
-0.18926 0.226351 -0.0286915
0.092518 0.227061 -0.136805
0.139366 0.21461 0.0457084
0.0124514 0.00480674 0.132429
0.167728 0.21461 0.310054
0.0456545 -0.0405659 -0.300015
0.127922 0.227061 -0.245948
-0.0740023 -0.0231824 -0.29883
0.0124514 0.0134748 0.114511
-0.160761 0.21461 -0.0588952
-0.0859246 0.118073 0.311281
-0.00468757 0.21461 0.207746
0.055077 -0.0782686 -0.29883
-0.131578 0.21461 0.309308
-0.00981261 0.227061 0.307605
-0.113709 0.227061 -0.194737
0.119649 0.227061 0.0493827
0.051125 0.21461 -0.153277
0.0635577 -0.105678 -0.311282
-0.0717848 0.21461 0.324263
0.0191204 -0.0283726 -0.311282
-0.0942241 0.227061 -0.0931518
-0.00984557 -0.044443 -0.268606
-0.0456545 0.0433176 0.310017
0.0456545 0.0625866 0.306936
0.103249 0.21459 0.29883
0.0147034 0.0809814 0.29883
0.012984 -0.0539317 -0.29883
0.0750399 0.21461 -0.10233
-0.0523147 -0.18601 0.290529
-0.0134735 0.227061 0.0153004
-0.00976563 -0.044443 -0.276802
-0.089832 0.227061 -0.307737
-0.0778618 -0.0529762 -0.311282
0.0124514 0.0223432 -0.122785
-0.0496142 0.21461 -0.326967
-0.074293 -0.0855699 0.29883
0.127562 0.21461 0.305251
0.131086 0.21461 0.314199
0.166813 0.227061 0.176572
0.0895791 0.21461 0.346426
-0.0124514 -0.0240764 0.228913
-0.174152 0.21461 0.257495
-0.187527 0.226787 0.227163
0.156534 0.21461 0.0652697
0.000759983 0.209795 -0.29883
0.00690368 -0.0366208 0.192696
0.0964235 0.176254 0.29883
-0.0701239 0.21461 0.164206
-0.0625417 0.092876 -0.29883
0.00919978 0.227061 0.0479909
0.0124514 0.00946363 0.0386377
-0.0330715 0.226815 0.386597
0.0866471 -0.159751 0.308713
-0.0871589 -0.0418965 -0.309963
-0.147753 0.21461 0.14788
-0.0683629 0.227061 0.113874
0.0406891 -0.164452 -0.308217
0.0727771 0.189155 0.311281
-0.0243547 0.227061 -0.250496
0.0695774 0.21461 0.267396
0.0706193 0.21461 -0.0642087
0.0332031 -0.0267917 -0.305495
0.114249 -0.18866 -0.318567
0.0780892 0.21461 0.132748
0.0737523 0.21461 -0.0694659
0.180487 0.227061 0.0523918
0.0750242 -0.177846 0.303737
-0.107876 0.227061 -0.159823
0.0211658 -0.0809605 -0.29883
-0.131431 0.21461 0.0530089
-0.0988569 0.1216 -0.30865
-0.00294752 -0.044443 0.261764
-0.0086037 0.227061 -0.339029
0.128869 0.227061 -0.0416314
-0.0270173 0.227061 -0.238783
-0.151202 0.21461 -0.0350704
0.0762884 0.133622 0.311281
-0.164367 0.227061 -0.0904521
0.194376 0.223502 -0.045162
0.0572964 -0.163997 0.311281
-0.0332036 0.109211 -0.30018
0.000285156 0.194655 -0.286379
-0.129251 0.21461 -0.35985
0.0238933 -0.116666 0.311281
-0.0332036 0.0972666 -0.300074
-0.0124514 -0.0415626 0.291775
-0.0124514 -0.0346226 0.216989
-0.126601 0.227061 0.143898
0.0887583 -0.20902 0.30331
0.174692 0.21461 -0.117576
-0.188124 0.21461 -0.298781
-0.0453113 0.227061 0.363062
-0.0246832 0.187525 -0.311282
-0.0568532 0.21461 -0.363289
-0.0791698 0.227061 -0.2473
0.0866471 -0.0747573 -0.299683
-0.135525 0.227061 -0.0999542
0.0838693 0.227061 -0.0638883
0.0625736 0.21461 0.129376
0.00953906 -0.044443 0.29412
0.0349672 0.227061 0.105784
-0.155414 0.21461 -0.349222
0.019493 0.0192691 0.311281
0.0018883 -0.159935 0.29883
-0.0245538 0.117387 -0.29883
-0.169282 0.21461 -0.106651
-0.00573986 0.183231 0.29883
-0.183909 0.21461 0.104393
0.00962758 0.227061 -0.383659
-0.189055 0.21461 0.192919
0.00584304 0.0385653 -0.152184
0.0124514 0.0345071 -0.280384
-0.122759 0.220369 -0.396272
-0.168601 0.21461 -0.0339322
0.0588321 0.227061 0.209149
0.00832419 0.21461 -0.18774
0.0974346 0.227061 0.118857
0.0819421 0.227061 0.131352
-0.169813 0.21461 -0.0127309
-0.139526 0.21461 -0.120571
-0.00205925 0.21461 0.391849
-0.0116009 0.21461 -0.136669
0.0799678 0.21461 -0.23522
0.182479 0.227061 -0.00484856
0.00378232 0.0385653 0.247689
-0.0805957 0.0050795 -0.29883
0.185434 0.21461 0.0458547
-0.00268584 0.143614 -0.311282
-0.137439 0.227061 -0.179414
0.133102 0.21461 -0.317401
-0.0119362 0.227061 -0.150457
-0.0456545 -0.158779 -0.306116
0.00792826 0.0385653 -0.0577486
0.0318235 0.21461 -0.187591
0.10738 0.227061 -0.135117
-0.182977 0.21461 0.0257142
-0.0679073 -0.00172396 0.29883
-0.0734506 -0.174801 -0.290529
0.0124514 -0.041223 -0.2967
0.0509652 0.227061 -0.190856
0.0912755 0.227061 -0.342663
-0.0725056 0.21461 0.344896
0.092126 0.143744 0.29883
0.186474 0.226964 -0.165983
-0.084292 0.227061 -0.247656
0.020193 0.0373436 0.29883
-0.0374805 -0.192476 0.311419
0.00970971 0.0385653 -0.0731727
0.0414636 0.21461 0.260168
0.0730709 -0.140851 -0.311282
0.108452 0.21461 0.0607001
0.0828336 0.21461 0.282665
0.0141869 -0.0247524 0.29883
-0.115239 0.21461 -0.259659
-0.0507865 0.130736 0.311281
0.0469222 0.21461 0.285685
-0.00969453 0.0698844 0.29883
-0.0269735 0.227061 -0.0342819
0.0651519 -0.185578 0.319582
-0.012545 0.0275394 -0.29883
0.0768097 0.227061 -0.226834
0.00299482 0.198455 0.29883
0.0947972 0.21461 0.187842
-0.0473128 0.21461 -0.025157
-0.110804 0.21461 -0.231286
0.00636337 -0.0224975 0.0800243
-0.198387 0.217768 -0.100135
-0.0124514 0.0328543 -0.19859
0.032288 -0.101963 -0.29883
0.0520771 -0.179996 0.290529
0.0456545 0.13683 -0.300235
-0.00530546 0.21461 -0.152842
0.0124514 -0.00634341 -0.266157
-0.0154991 0.227061 0.287218
0.0598795 -0.119665 0.311281
0.0124514 -0.0374367 0.26414
-0.0124514 0.00499994 -0.174765
0.140771 0.227061 0.19236
-0.0487704 0.00261679 0.311281
0.0332031 0.161112 0.300486
0.106056 0.21461 0.154548
0.0866471 -0.0498435 0.303521
-0.00782622 0.218412 0.397327
-0.00160715 -0.160738 -0.313764
-0.0672217 0.227061 0.0331553
-0.0718483 -0.0775612 -0.29883
-0.0124514 0.00457459 -0.122619
0.018861 0.170359 -0.311282
0.136277 -0.215093 0.290529
0.0332031 -0.0679224 -0.299604
-0.0660636 0.0698203 -0.29883
0.00409558 0.227061 -0.0590274
-0.18787 0.226726 -0.227049
-0.0124514 -0.0311188 -0.264261
0.0124514 -0.00900294 -0.0553513
-0.0931774 0.227061 -0.351879
0.0870553 0.0722103 0.311281
-0.0126709 -0.0193489 0.311281
-0.0456214 0.21461 0.322189
0.06416 0.0770827 0.29883
0.122623 0.21461 0.0609726
-0.00825925 -0.13644 -0.311282
0.0415139 0.227061 0.2917
0.0773446 -0.15135 0.311281
-0.19305 0.215611 -0.398235
0.0180427 0.21461 0.0587842
-0.0959698 -0.212481 -0.313223
-0.139116 0.21461 -0.116825
-0.024354 0.227061 -0.243285
-0.0124514 0.0147861 0.0169547
-0.112658 0.227061 0.277101
-0.00688985 0.21461 0.281312
0.0332031 0.101807 -0.308085
0.0215615 0.212238 -0.286379
0.157746 0.21461 0.0788645
0.0456545 0.0405112 0.299104
0.0373595 0.227061 -0.110331
0.183057 0.21461 -0.15946
0.0336122 0.227061 -0.171526
0.0819779 -0.173996 0.311281
0.0866471 -0.104787 -0.302476
-0.00787532 -0.0527719 0.29883
0.151357 0.21461 -0.351892
0.0265669 0.052103 -0.311282
-0.0124514 0.021336 0.11871
-0.0124514 -0.0150937 0.0222942
0.175056 0.21461 -0.187193
-0.182669 0.227061 -0.359823
0.0877131 0.21461 0.0660826
0.174702 0.227061 0.230269
0.103513 0.227061 -0.280353
-0.18698 0.21461 0.161392
-0.0306929 -0.0534697 0.29883
-0.0456545 0.144873 0.308047
0.0124514 0.0172415 -0.265496
0.0942238 0.213167 0.311281
0.0588916 -0.177846 0.306554
0.0565338 -0.0610752 -0.311282
0.0272984 -0.182094 0.319582
0.094218 -0.209758 -0.290529
0.116332 0.21461 -0.133674
-0.0554829 -0.196606 -0.317777
-0.0332036 0.0758193 -0.306593
0.00686373 0.151925 0.311281
-0.0156406 0.227061 0.0635169
-0.100162 0.227061 -0.0117087
-0.14891 0.227061 0.246301
0.169761 0.21461 -0.306617
0.0866786 -0.0245885 0.300295
0.0597401 0.21461 0.144674
0.00761387 0.0385653 0.0805014
-0.00121209 0.21461 0.234856
-0.0848874 0.227061 -0.14555
0.06727 0.164182 0.311281
0.00547145 -0.0262607 0.120688
0.0763734 0.21461 -0.259004
0.14878 0.21461 -0.36769
0.0230806 0.0785492 0.29883
0.153666 0.21461 -0.294138
-0.148201 -0.227061 -0.302128
0.012762 0.227061 -0.124044
-0.00219287 -0.164754 0.300918
0.00940958 0.0385653 0.163263
0.0332031 -0.098789 -0.301458
0.0124514 -0.00593524 0.16981
0.155747 0.227061 -0.282157
0.0263263 0.0738988 -0.311282
0.0611894 -0.139972 0.29883
-0.19157 0.21461 -0.101404
-0.0124514 0.0166923 0.141477
0.182625 0.227061 -0.241051
-0.171121 0.21461 -0.107797
0.142284 0.21461 0.230356
-0.107913 0.21461 -0.00213775
-0.0315048 0.140554 0.29883
0.105832 0.18826 -0.311282
0.197921 0.218806 -0.212316
0.0761337 0.21461 0.0364333
0.0314949 0.227061 -0.0459617
0.0124514 -0.0290027 -0.219528
-0.0533839 0.227061 -0.147895
-0.0683468 -0.0282251 -0.29883
-0.034134 0.21461 0.215341
0.154968 0.21461 0.152307
0.0882788 0.21461 -0.219467
0.0778435 0.21461 0.167175
0.00055379 0.21461 0.194396
0.0332031 -0.137892 -0.30369
-0.00529186 0.227061 0.320487
0.182465 0.21461 0.390443
-0.0244709 -0.163708 -0.290529
-0.0124377 0.227061 -0.0746006
0.0702925 0.227061 -0.198267
0.0124514 0.0137952 -0.262814
0.128911 0.227061 -0.241778
0.0280385 0.184813 -0.311282
-0.0396002 0.21461 -0.0843936
0.0784261 0.227061 -0.274872
-0.03509 0.227061 -0.0432573
0.121335 0.227061 -0.340814
0.125985 0.227061 -0.105049
0.0512506 -0.177846 -0.305053
0.16982 0.227061 -0.0677611
0.0754855 0.123951 0.29883
-0.0860932 0.128258 0.29883
0.123011 0.21461 -0.118584
0.0348701 0.21461 0.340848
-0.0482831 -0.0430961 -0.29883
-0.0605902 0.21461 -0.314055
-0.0124514 0.0256104 0.0135309
-0.0593342 -0.145971 0.311281
0.102121 0.142145 -0.301409
0.0815254 0.227061 -0.364631
-0.156812 0.227061 0.227415
0.187052 0.21461 0.0217515
0.0501132 0.227061 -0.0770179
-0.0311571 0.227061 0.0816098
0.127284 -0.195859 0.296089
-0.0543601 0.080337 -0.29883
-0.0511567 0.127615 -0.311282
0.0615087 0.21461 -0.11154
-0.0623655 -0.0255652 -0.311282
-0.195522 0.21461 -0.12982
0.0258051 -0.110233 0.311281
0.0222975 0.21461 0.279003
0.018651 -0.0149778 0.29883
0.17792 0.227061 0.340903
0.165941 0.21461 0.192549
-0.084232 -0.0541786 -0.29883
-0.0886912 0.227061 -0.379386
0.0332031 0.0225198 0.307662
-0.14831 0.227061 0.271808
0.0695135 0.21461 0.31194
-0.163888 0.21461 0.332752
-0.0634484 0.227061 0.0326643
-0.144027 0.227061 -0.0203846
0.0857008 0.21461 0.0190418
0.0924237 0.146936 0.311281
0.00941137 0.134826 -0.311282
-0.0124514 -0.0403951 0.225115
0.191445 0.21461 -0.0376295
0.0314421 0.227061 0.37522
0.0495073 0.227061 0.0569583
0.0866471 -0.0808842 -0.303391
0.0188226 -0.06795 -0.311282
-0.00816985 0.216094 0.398136
0.0936583 0.21461 0.354993
0.1219 0.227061 -0.360884
-0.00723913 -0.189231 -0.304267
-0.115761 0.227061 -0.00507669
0.115191 0.227061 -0.318184
0.120152 0.227061 0.280366
-0.109695 0.227061 -0.057641
0.0944358 -0.179342 0.304531
0.0124514 -0.0116589 0.0741929
0.19002 0.21461 -0.127635
0.0531609 0.21461 0.127695
0.0124514 0.0112595 0.107732
0.0621758 0.170154 0.311281
0.0583337 0.0146576 -0.29883
-0.127694 -0.208988 -0.290529
0.0296403 0.227061 -0.102456
0.0332031 0.00394288 -0.311133
0.0288429 0.227061 0.138455
0.0281776 0.131799 -0.311282
0.118431 0.227061 -0.371598
0.0156586 0.21461 -0.00372258
-0.198993 0.215718 0.332421
0.138861 0.21461 -0.288218
-0.139262 0.21461 0.0870078
0.0124514 -0.0128186 0.197458
-0.00266429 -0.0281787 0.136011
-0.153338 0.21461 -0.0553089
0.00437013 0.0385653 0.177459
-0.0257136 0.199115 -0.29883
0.0460656 -0.167793 -0.29883
0.0332031 0.198656 -0.301329
-0.0124514 -0.0109252 -0.159067
0.00796525 0.1757 -0.29883
0.0650296 -0.0692609 0.29883
0.0579614 0.142209 -0.29883
-0.0104423 0.0518709 -0.311282
-0.0232732 0.227061 -0.373566
-0.0866336 0.21461 0.37188
0.0672621 0.227061 -0.341649
0.104417 -0.217129 0.316204
-0.0456545 0.0506135 0.311155
0.175258 0.227061 0.336017
-0.128407 -0.20836 0.319582
-0.0196811 0.199512 -0.311282
-0.145745 0.227061 0.0105523
-0.163362 0.227061 -0.192703
0.00416229 -0.189099 -0.308881
0.18971 0.226213 0.196772
0.000601176 -0.10748 -0.29883
-0.0124514 -5.15422e-05 0.0701477
-0.154453 0.21461 -0.0692176
-0.0456545 -0.0897609 0.304163
-0.193319 0.21461 0.128075
-0.115185 0.227061 0.0640114
-0.097637 0.113597 0.300377
-0.142205 0.21461 0.221803
-0.161718 0.21461 -0.174365
-0.0579236 0.227061 -0.0515461
0.167113 0.226207 0.38895
-0.00177553 0.0385653 0.117625
-0.0110781 0.0385653 -0.233109
0.144335 0.227061 -0.249164
-0.140149 0.21461 0.141165
0.199051 0.215438 0.0719085
0.172733 0.21461 0.0997472
-0.0785688 0.196166 0.311281
0.127171 -0.195789 0.297457
-0.145076 0.21461 -0.0659246
-0.0851817 -0.00604613 0.29883
0.0383192 0.21461 0.0574825
-0.186263 0.21461 0.227638
0.0527828 0.21461 0.355646
-0.054658 0.193209 -0.311282
0.0332031 0.193404 0.299697
-0.164751 0.21461 -0.258232
-0.0267548 0.21461 0.0876119
0.102596 0.21461 0.149788
-0.15224 0.227061 0.0523902
0.00451617 0.227061 0.360426
0.105223 0.220457 -0.396217
-0.0124514 -0.0118755 0.187612
0.00386735 0.227061 0.0116113
-0.161409 0.21461 -0.0760138
-0.0972198 0.21461 0.346378
0.0332031 0.153334 0.309974
-0.0124514 -0.0104058 0.199654
0.0907824 -0.210154 -0.313361
-0.12855 0.21461 0.18093
0.0844666 -0.039658 -0.311282
-0.0483734 -0.169821 -0.311282
0.0456545 0.0845308 0.31059
-0.199074 0.215324 -0.355031
0.0124514 -0.00546432 0.256668
-0.0798612 0.227061 -0.113643
-0.0195424 0.21461 -0.143734
-0.102217 0.227061 0.07803
-0.0962108 0.103653 0.309531
0.0152665 -0.0626664 -0.29883
0.0120612 -0.162065 -0.319582
0.169734 0.227061 0.341745
-0.119014 0.221702 -0.395306
-0.0553465 0.227061 0.374421
-0.00454012 0.227061 -0.196318
0.0866471 -0.13014 0.302689
0.0677278 -0.0738661 -0.29883
0.0730215 -0.202502 -0.299448
0.03157 0.0502496 -0.29883
-0.166138 0.21461 -0.354223
-0.199063 0.21461 -0.395968
0.0124514 -0.0422541 0.290774
0.186697 0.21461 -0.26747
0.0973347 0.113578 -0.30563
0.02457 0.227061 0.323538
0.0017625 -0.044443 -0.252208
-0.0849896 0.178251 0.29883
0.0665935 0.227061 -0.136232
0.0828573 0.21461 0.236643
-0.0110101 -0.0211309 -0.0558005
-0.0124514 -0.0175871 0.108395
-0.0827782 0.154832 -0.29883
-0.0124514 -0.00519383 0.185927
0.000549614 0.227061 -0.383627
-0.185279 0.227036 0.251273
-0.129602 0.227061 -0.177123
0.139061 0.21461 -0.00226952
0.0463402 0.128096 0.29883
0.141773 0.227061 -0.312992
0.056569 0.1271 -0.311282
0.0332031 0.0226331 -0.300864
0.190954 0.21461 0.0334034
0.00297965 0.21461 0.2467
0.0272679 -0.160753 0.311281
0.00523062 -0.0454031 0.311281
-0.167579 0.227061 -0.288479
0.0504084 -0.166284 -0.30917
-0.0620581 -0.116148 -0.29883
0.0124514 0.0121963 -0.288345
-0.0124514 -0.000547433 -0.0159811
-0.0765795 -0.137973 -0.311282
0.0167341 0.0372723 0.311281
0.0187707 0.227061 0.154484
0.0865899 0.227061 -0.288555
0.01619 0.227061 0.216109
0.0426204 0.21461 -0.117457
0.0660535 -0.112872 0.311281
0.0463511 -0.127081 0.311281
0.189539 0.226266 0.0766636
-0.0124514 -0.0350772 0.187471
0.108899 0.227061 0.0837713
0.109227 0.21461 -0.225132
0.0305788 0.21461 -0.321923
-0.0730093 0.21461 0.384693
-0.0466637 0.227061 0.0769809
-0.0298522 0.0661942 -0.29883
0.127182 0.21461 0.199271
-0.109405 0.177744 -0.301917
0.0947419 0.213297 0.29883
0.065897 0.203341 0.311281
0.0352353 0.21461 -0.0991073
-0.0124514 0.0142268 -0.00101005
0.0124514 0.0324079 0.253099
-0.079056 0.226057 -0.389351
0.180613 0.227061 -0.293818
0.0214995 0.21461 0.0269575
-0.0229482 0.227061 0.0569603
-0.0434116 0.197551 0.29883
0.185727 0.21461 0.0960309
0.168856 0.21461 0.183319
0.0130774 0.21461 0.187301
0.0172604 -0.166004 -0.301243
-0.028452 -0.162408 -0.293591
0.111936 0.21461 -0.279287
-0.0799352 0.227061 -0.0717986
-0.193131 0.22446 -0.273071
0.0732949 -0.03574 -0.311282
-0.0182304 0.21461 0.339581
0.17899 0.227061 0.0631593
0.0385115 0.21461 -0.331883
0.12532 0.227061 0.126142
0.15838 0.21461 0.000313237
-0.0730051 0.153683 0.311281
0.057986 -0.140967 -0.29883
-0.00671291 -0.0276439 -0.131739
0.0750083 -0.0134536 0.29883
0.110638 0.21461 -0.255027
0.0383449 0.227061 0.173835
-0.167979 0.21461 0.174868
-0.00585412 0.165568 0.29883
0.0124616 0.127691 0.29883
0.0866471 -0.143003 0.306346
0.0897093 0.21461 -0.18063
-0.0805842 0.214554 0.286378
-0.0693777 0.227061 -0.0121282
-0.0177906 0.0176341 -0.29883
-0.0543091 0.21461 0.235005
0.195891 0.21461 0.293799
-0.10938 0.227061 -0.356455
0.0124514 0.019355 -0.140689
0.0591529 -0.0101678 -0.311282
-0.0124514 0.0266229 0.256121
0.146277 0.227061 0.24393
0.0291481 -0.116747 0.311281
0.0332031 0.00452975 0.303932
0.0333491 -0.183908 0.319582
-0.105418 0.21461 -0.331351
0.117016 0.21461 0.254888
-0.152856 -0.212974 -0.30193
-0.151164 0.227061 0.220964
-0.0377942 0.21461 -0.0604331
0.0124514 -0.00775726 -0.130798
0.0124514 -0.0193894 0.152818
-0.00830078 0.0177974 -0.312114
0.0827644 0.199638 -0.29883
0.0878989 -0.189828 -0.290529
0.0707392 0.103482 0.311281
0.0211163 0.21461 0.031346
-0.11478 -0.219668 0.319582
0.0210835 0.214388 -0.286379
-0.0312077 -0.180647 -0.319582
-0.148549 0.21461 0.0174162
-0.135313 0.227061 -0.0352634
0.107162 0.19561 -0.29883
-0.190965 0.225687 -0.0622505
0.0221364 -0.00965723 0.311281
-0.0724074 0.227061 0.345656
-0.00312906 0.227061 0.124082
-0.0308889 0.193633 -0.29883
-0.0254025 0.227061 -0.115582
0.0787243 -0.199179 0.290529
0.13357 0.21461 0.319416
0.0124514 0.00212144 -0.195185
0.121142 0.227061 0.172787
0.196224 0.221529 0.205792
-0.0653436 0.178285 -0.29883
-0.132713 -0.199095 -0.308058
0.0207373 0.227061 0.199403
-0.0100118 0.21461 -0.185439
0.0556258 0.21461 0.189541
0.0265265 0.144 0.29883
-0.0853614 0.227061 -0.00886239
-0.0264338 -0.0996496 0.311281
-0.0783341 -0.0698512 0.29883
-0.0798103 -0.144318 -0.29883
-0.0494429 0.032648 0.311281
-0.0124514 -0.00201717 -0.195039
-0.0781662 0.21461 0.0788877
0.0684116 0.227061 -0.0918468
-0.06718 -0.00261861 0.29883
-0.032474 0.21461 -0.167159
0.110962 0.21461 0.0392575
0.0332031 0.21043 -0.300512
-0.0626028 0.203922 0.29883
0.0276883 0.19665 -0.286379
0.0857387 0.143642 0.29883
0.0650034 0.21461 0.285046
-0.0727222 0.227061 -0.209948
0.014101 -0.189609 -0.312565
-0.0441531 0.21461 -0.369274
0.170148 0.227061 0.0743413
-0.0544994 -0.0965412 -0.29883
0.187563 0.226781 0.325164
-0.0595824 -0.0516873 -0.311282
0.194633 0.22325 0.0909915
0.0456545 0.161141 0.31063
-0.168814 0.227061 0.374511
-0.113469 0.227061 -0.186804
-0.0729756 0.21461 0.247147
0.0346444 0.227061 0.112814
-0.10556 0.21461 0.0283583
-0.0359596 0.21461 0.34513
-0.0961418 0.227061 0.0151487
-0.0889311 0.227061 -0.3069
-0.10215 0.21461 0.197637
0.0161752 -0.162126 -0.29883
-0.0124514 -0.0195357 0.0282333
0.00218876 -0.0719647 0.311281
0.090294 0.119618 -0.311282
0.0798642 0.189707 -0.293387
0.0456545 -0.16791 -0.305894
0.0713034 0.21461 0.396773
-0.152533 0.21461 0.0117793
0.0633783 -0.0353634 -0.29883
0.0789642 0.205418 -0.286379
0.012526 0.21461 -0.390887
-0.00477662 0.0513547 -0.311282
-0.0456545 0.0258942 -0.310607
0.0252784 0.178121 0.29883
-0.0124514 0.0310447 -0.010769
-0.0730862 0.215845 0.398187
0.0225694 0.150331 0.311281
0.00944938 0.0385653 0.0887227
0.139777 0.227061 -0.285226
0.0684572 -0.177846 0.300325
-0.144798 0.227061 0.0420047
-0.130313 -0.203775 0.290529
-0.0124514 -0.0275962 -0.182021
0.0332031 0.0526361 -0.305926
-0.0124514 0.0295669 -0.0519708
0.0456545 -0.00569767 0.309202
0.142893 0.219935 -0.396544
0.0905103 0.227061 0.185159
-0.00178681 -0.115462 -0.29883
0.0938651 0.21461 0.269492
-0.153725 0.21461 -0.0367205
-0.0818046 0.227061 0.254043
0.0256327 0.21461 0.200988
0.067338 0.110966 -0.29883
0.0313481 0.21461 0.0894013
-0.093264 0.227061 0.112215
-0.0484848 0.0046346 -0.29883
0.0175711 0.158982 0.311281
-0.163592 -0.227061 0.314963
-0.0983887 0.226971 -0.385579
0.00675797 0.0219637 -0.317783
-0.0653184 0.21461 -0.136715
-0.183158 0.227061 -0.0984892
-0.0124514 -0.006525 -0.0455062
-0.0782086 0.21461 -0.124698
-0.0640253 0.21461 0.0775129
0.0124514 0.00233628 0.141916
0.0469285 0.120641 -0.311282
0.0194547 0.227061 -0.243171
-0.0685026 -0.133518 -0.311282
-0.0124514 0.0137602 0.152305
0.029607 0.18535 0.29883
0.0124514 0.00920323 -0.096528
0.0110637 0.227061 -0.0203063
0.00209479 0.227061 -0.322825
0.00399958 -0.0346799 -0.180677
-0.018801 0.053606 0.311281
0.0284217 0.0455411 0.29883
-0.180984 0.21461 -0.114298
-0.0933966 -0.17886 0.294523
-0.0190139 -0.133305 0.311281
0.187276 0.226833 -0.311516
-0.0124514 0.0223488 0.164527
0.0875916 0.227061 0.37001
-0.058976 -0.185255 -0.319582
-0.0374286 0.227061 0.270008
0.00238879 0.0437249 0.311281
0.159033 -0.221513 -0.319582
0.0780162 0.132223 0.311281
-0.0450565 0.219864 0.396587
0.0582421 0.227061 0.186568
0.151921 0.227061 0.181845
-0.0669741 -0.177846 -0.304701
0.028307 -0.0376896 0.311281
-0.0667251 0.21461 0.313256
-0.0124514 -0.0313698 -0.246295
-0.00251783 0.0385653 0.286633
-0.198066 0.218499 -0.0302495
-0.114283 0.21461 0.367835
-0.0330304 -0.167705 0.290529
0.0277686 0.21461 0.214502
0.0544779 0.227061 -0.245958
0.0618964 -0.198355 0.315968
0.187218 0.226843 -0.129953
-0.0756386 0.152877 -0.29883
-0.0232415 0.150625 -0.311282
0.0543992 0.227061 -0.282342
0.0284983 0.227061 0.104224
0.118901 -0.226298 0.3054
0.0744554 0.148159 -0.311282
0.0124514 -0.0132095 -0.154134
0.191297 0.21461 -0.0830455
-0.054434 0.21461 -0.075784
-0.0183673 -0.164989 -0.319582
-0.155963 0.21461 0.280522
0.112061 0.208079 -0.296119
0.1825 0.227061 0.252174
0.0733586 0.189707 -0.297166
0.0594091 -0.0343646 -0.311282
-0.1312 0.21461 -0.376505
-0.0659758 0.21461 0.0920934
0.0345254 0.21461 0.310402
0.0842547 -0.0523354 -0.29883
0.197824 0.219012 -0.390675
0.0124514 0.0208355 -0.109652
0.118533 0.21461 0.117468
0.0635319 -0.198843 0.308888
0.194282 0.223576 -0.00245925
-0.0402984 0.21461 -0.268715
-0.129708 0.227061 -0.272621
-0.0272013 0.21461 -0.208175
0.0357438 0.227061 -0.244621
-0.0443935 0.21461 -0.138284
0.0124514 0.0318824 0.246484
0.0320223 0.0209157 0.29883
0.0793166 0.227061 -0.241779
0.197505 0.219643 0.075512
-0.178255 0.227061 -0.120155
-0.0788849 0.175745 0.311281
-0.0124514 -0.00696278 0.282836
-0.0553078 -0.0364901 0.29883
-0.00506976 0.189707 0.292226
0.0652109 0.227061 0.129508
-0.0871589 -0.0416623 0.29937
-0.0850581 0.197133 -0.29883
0.00802305 -0.0691305 0.29883
0.0456545 -0.138411 0.302949
0.0124514 0.0242884 0.13535
0.140427 0.21461 -0.254654
0.00621568 -0.021117 0.0555397
-0.00875628 0.0703225 -0.29883
0.0731534 0.21461 0.0864484
-0.0292463 0.21461 -0.219118
-0.0347034 0.21461 -0.222147
0.0479414 0.21461 0.390043
0.137504 0.21461 -0.326249
0.0773283 0.21461 -0.13973
-0.0124514 0.00541672 -0.0159176
-0.138223 0.21461 0.342898
0.108958 0.194257 -0.29883
-0.147507 0.21461 0.200139
-0.0456545 0.0555402 0.306589
0.0866471 -0.0471675 -0.308689
-0.0205333 0.210171 -0.311282
0.0456545 0.0891282 0.309968
-0.0490446 0.21461 0.139883
-0.126334 0.227061 0.286344
0.0618593 0.0846303 0.311281
-0.0638729 -0.0535259 -0.29883
0.198387 0.217767 -0.0963395
-0.0668447 0.227061 -0.171935
-0.129536 0.21461 -0.33645
-0.169654 0.227061 -0.282495
0.19354 0.224146 0.392616
0.154667 0.21461 0.186336
-0.120622 0.227061 0.142032
0.0391525 0.21461 -0.357297
0.15304 0.21461 0.0235196
-0.0046199 0.227061 -0.284523
-0.0372549 0.21461 0.377764
-0.0124514 0.0298065 0.158136
0.0259472 0.21461 -0.133682
-0.0124514 0.0210727 0.0255057
-0.0043523 0.177667 -0.29883
-0.00631801 0.130733 -0.29883
0.00393276 -0.106402 -0.29883
0.12147 0.21461 -0.055947
-0.0546111 -0.0736452 -0.311282
-0.00287708 -0.189007 -0.295406
0.0922951 0.227061 0.234352
0.0163112 -0.16424 0.308428
-0.00831554 -0.0229112 -0.0846635
0.0584257 0.0674667 -0.311282
0.100836 0.21461 0.21499
-0.049046 0.226328 -0.388555
-0.0124514 0.00768018 0.056309
-0.0542746 0.105767 -0.29883
0.0862874 0.21461 0.0198587
0.143907 -0.216767 0.290529
-0.0620229 0.0370621 -0.311282
-0.0996041 0.227061 -0.291882
-0.0798682 0.21461 0.0664676
-0.0325252 0.227061 0.243352
-0.0605083 0.21461 0.0213205
0.0825407 0.177537 -0.311282
-0.00638374 -0.044443 -0.285454
-0.155708 -0.215503 0.298987
0.1019 0.21461 -0.0977569
-0.0836344 0.0575124 0.29883
-0.17342 0.227061 0.0672979
0.122807 0.21461 0.078837
-0.092338 0.21461 -0.172944
-0.068484 0.0434701 -0.29883
-0.194237 0.21461 0.242386
0.0640852 -0.0572487 -0.29883
-0.116234 0.21461 -0.0784355
-0.184705 0.21461 -0.33969
0.00670186 -0.0608723 0.29883
-0.0534134 0.21461 -0.250332
-0.0493851 -0.0594533 0.29883
-0.0200825 -0.161903 0.29512
-0.151175 0.21461 -0.253823
0.196518 0.21461 -0.0948063
0.0557857 0.227061 0.243868
0.166932 0.227061 0.0225112
0.0378078 0.21461 -0.282021
0.0332031 0.147502 -0.300109
-0.0124514 -0.00378577 0.297899
-0.0340296 0.227061 0.200506
-0.14456 0.227061 -0.2037
0.133977 0.227061 -0.284811
0.0101671 0.0385653 -0.15362
0.0738547 -0.0621341 -0.29883
0.030927 0.227061 -0.251539
-0.0810055 0.21461 -0.366942
-0.0721617 0.120589 0.311281
0.0179419 0.197089 -0.29883
0.0176149 0.118746 -0.29883
0.172461 0.21461 0.158859
-0.112061 0.197425 0.302298
0.0682379 0.21461 0.0112767
-0.00783467 0.189707 0.292677
0.015956 -0.189444 0.290529
0.068329 0.107072 -0.29883
0.0124514 0.011678 0.0849594
0.158256 0.21461 -0.0196578
0.0549209 0.227061 0.157125
-0.00156701 0.21328 0.29883
0.0512202 0.133717 -0.29883
-0.0124514 -0.0412881 -0.242277
0.0702764 -0.0293435 0.29883
-0.142434 0.227061 -0.341426
0.0332031 0.168006 0.301999
0.0793563 0.148222 0.29883
0.0228423 0.196356 -0.29883
-0.0254514 -0.162221 -0.314859
0.1382 0.227061 0.321498
0.0124514 -0.0157622 -0.115699
0.0124514 -0.0324687 0.224837
0.0124514 -0.0120797 0.057931
0.185269 0.21461 -0.216056
-0.0454326 -0.165249 -0.302437
-0.0124514 0.0196693 -0.219494
0.0456545 -0.143056 -0.307539
-0.191449 0.225473 -0.0900849
-0.115558 0.21461 -0.0519675
-0.0662797 -0.00750425 -0.29883
-0.00445784 -0.0220799 -0.0735622
0.0645503 -0.172665 -0.311282
-0.0417125 0.21461 -0.00739522
0.00460335 0.0385653 -0.11018
0.104297 0.195118 -0.29883
0.110884 0.227061 -0.346941
-0.0711424 -0.159487 -0.311282
0.0017529 0.227061 0.0560933
0.0631642 0.227061 -0.173678
-0.174624 0.227061 0.233861
0.0179066 0.227061 0.0841093
-0.00496272 0.21461 -0.027714
-0.0665661 0.21461 0.36525
0.00297856 0.212621 -0.29883
-0.0456545 -0.0224582 -0.300959
-0.160782 0.227061 0.288562
-0.107728 0.227061 0.142172
-0.0637223 -0.162586 -0.311282
-0.0188354 0.227061 -0.111926
0.0295669 0.181706 0.311281
-0.10304 0.21461 -0.242416
0.0569469 0.166903 -0.29883
-0.0954247 0.21461 -0.358061
-0.0415202 -0.193102 0.295527
0.0456545 0.204924 -0.300771
-0.014731 0.207278 -0.286379
-0.0124514 0.0278738 -0.284345
0.104416 0.21461 0.038709
-0.0345672 0.21461 0.151045
0.0749988 0.180105 0.311281
0.16044 0.21461 -0.222819
-0.0124514 0.0246469 0.0202727
0.185332 0.227033 -0.249723
-0.0845504 0.180935 0.29883
-0.00355744 0.21461 0.240326
0.0324777 0.0955735 0.29883
-0.043175 -0.165652 0.290529
0.013215 0.0428565 -0.311282
-0.00775765 -0.171254 -0.319582
-0.0124514 -0.000151233 -0.260038
-0.0251615 0.21461 -0.14263
0.00509135 0.227061 -0.189493
0.00526164 0.0726023 0.311281
-0.0704329 0.21461 0.344825
0.124855 0.227061 -0.096704
0.0124514 -0.0178976 -0.180673
-0.0626673 -0.177846 -0.308158
-0.160633 -0.227061 0.308575
0.000443412 0.0385653 -0.04129
0.0124514 0.0256528 0.208762
-0.184946 0.227056 0.139009
-0.150679 0.21461 -0.304266
-0.091857 -0.178145 0.306261
-0.0124514 -0.0210991 0.23472
0.118341 -0.218467 0.290529
0.115886 0.21461 0.0776636
0.0124514 -0.00354057 0.297061
0.0626544 0.149552 -0.311282
-0.184527 0.21461 -0.0266414
0.15503 0.21461 -0.212278
-0.00908777 0.21461 -0.147963
0.0696463 0.205765 0.29883
-0.0124514 0.0314138 -0.249549
0.166921 0.21461 -0.238435
-0.08739 -0.181846 -0.290529
-0.151992 0.21461 -0.350801
-0.0223757 -0.167528 0.290529
0.0167548 0.227061 -0.0572
-0.0196622 0.21461 0.0720634
0.172128 0.227061 -0.27804
-0.0480464 -0.0221072 0.29883
0.0211672 0.21461 0.0464258
-0.0695324 0.227061 -0.268472
-0.0611556 0.169778 -0.311282
-0.149891 0.227061 0.201973
-0.0872705 0.203049 0.311281
-0.00274307 0.21461 0.327868
0.0124514 0.00154081 0.215914
0.137139 0.227061 0.215812
0.0510654 0.0722708 0.311281
-0.0802753 0.165262 0.311281
0.0192383 -0.0411356 0.29883
0.153079 0.21461 0.141077
0.0167455 -0.173112 -0.290529
0.057821 -0.0426786 0.29883
-0.0220377 0.190399 -0.29883
-0.114351 0.21461 0.301805
-0.0408238 0.193342 -0.286379
0.0166415 0.227061 0.249219
0.187111 0.226862 -0.0349936
0.142689 0.21461 0.258657
-0.0612957 -0.062248 -0.311282
0.135881 0.21461 0.107527
0.0650192 0.209407 -0.29883
0.0397211 -0.192823 0.298247
-0.0265207 0.189707 -0.297797
0.030961 0.21461 -0.386913
0.0124514 0.0162933 -0.210372
-0.06245 0.0150856 0.311281
0.0680937 0.227061 0.34284
-0.125753 0.21461 0.239143
-0.0636952 0.0805711 0.311281
-0.026999 0.0378789 -0.311282
0.139592 0.227061 0.272279
-0.0124514 0.0311197 -0.23429
-0.0124514 -0.0150442 -0.252156
-0.0174358 0.0163869 0.311281
0.0771936 0.21461 0.0678281
-0.0532885 0.21461 -0.325174
-0.100768 0.227061 -0.0429191
-0.130275 0.227061 -0.27011
-0.135399 0.227061 -0.307891
-0.100247 0.227061 0.20432
0.0156642 0.21461 -0.380671
0.0304669 -0.00251958 -0.311282
-0.0482107 0.21461 -0.398015
0.0124514 -0.036146 -0.235046
-0.18055 0.21461 0.375271
-0.0902818 0.183767 0.311281
0.0683981 0.195713 0.29883
0.0581715 0.21461 0.340807
0.0937274 0.0889513 0.311281
0.0456545 -0.137916 -0.310964
-0.0620541 0.0480748 0.311281
0.00910952 -0.0304762 0.154366
0.0124514 0.000290951 0.145245
0.0275766 0.178713 -0.29883
0.141328 0.21461 -0.241814
0.0518517 0.227061 -0.325515
0.0639804 0.227061 -0.029018
0.0124514 0.0176025 -0.123377
-0.0563872 0.227061 -0.273694
0.153525 0.21461 0.344284
0.0996306 0.21461 0.279005
-0.0915732 0.21461 -0.336261
-0.00379494 -0.10542 0.311281
-0.190166 0.226042 -0.294033
-0.16035 0.21461 -0.248448
-0.165901 -0.227061 0.315274
0.00420772 -0.151915 -0.29883
-0.0602725 0.227061 0.351287
0.0165107 0.21461 -0.317313
0.0469943 0.21461 0.129831
0.00823678 -0.0509067 0.29883
0.085279 0.189825 0.311281
-0.0391072 -0.192728 0.293781
-0.100796 0.21461 -0.223276
0.0150106 0.21461 -0.0989687
0.0124514 -0.0365147 0.219582
-0.0384852 0.21461 -0.0061025
0.0936352 0.21461 -0.0460601
-0.0872553 0.21461 -0.0954825
-0.0938127 0.21461 -0.125777
-0.0286642 0.227061 0.0536233
0.0124514 -0.0091044 -0.152789
0.0810524 0.21461 -0.079518
-0.164352 0.21461 -0.19934
-0.0835637 -0.00170236 0.311281
0.0692032 0.227061 -0.223476
-0.0213717 -0.0380614 0.29883
0.0558817 0.21461 -0.358043
-0.136279 0.227061 -0.123234
-0.112776 0.21461 -0.191378
0.0751995 -0.0311364 0.311281
-0.0783393 -0.175611 -0.311282
0.0761091 -0.00870895 0.29883
-0.151767 0.227061 -0.127126
0.0124514 0.0357765 -0.269592
-0.0691161 0.21461 -0.0956831
