ply
format ascii 1.0
comment Created by Open3D
element vertex 577
property double x
property double y
property double z
end_header
-0.145351 -0.154412 -0.347125
-0.0874072 -0.159315 -0.346567
-0.128761 -0.15324 -0.349688
-0.0670763 -0.154894 -0.348814
-0.108108 -0.149162 -0.351475
-0.0237223 -0.153287 -0.349794
-0.0484554 -0.149972 -0.351676
0.0124488 -0.15417 -0.349334
-0.160077 -0.132388 -0.350822
0.0850081 -0.159493 -0.345756
0.050903 -0.155109 -0.348844
0.0734552 -0.149683 -0.351997
0.115885 -0.150523 -0.351567
0.136206 -0.148629 -0.351714
-0.163995 -0.112486 -0.348549
-0.136326 -0.155121 0.342277
-0.0850035 -0.155962 0.342306
-0.112426 -0.153041 0.341046
-0.155413 -0.1486 0.341538
-0.0515163 -0.154661 0.341898
-0.0734671 -0.152378 0.340612
-0.00133288 -0.154809 0.341914
-0.0247517 -0.15245 0.34059
0.147611 -0.128885 -0.349551
0.0846946 -0.158044 0.342077
0.0522468 -0.154966 0.341932
0.0272067 -0.152527 0.340565
0.109579 -0.155134 0.34195
-0.155507 -0.130843 0.341446
0.132847 -0.151842 0.340028
-0.160077 -0.0898933 -0.350822
0.1024 -0.144049 0.342925
0.147611 -0.111982 -0.349551
0.150644 -0.142656 0.340168
-0.137739 -0.0816937 -0.431613
-0.152015 -0.0815046 -0.409457
-0.165064 -0.112448 0.343861
-0.0983602 -0.0814817 -0.431664
-0.118418 -0.0799579 -0.431638
-0.152039 -0.0790709 -0.390712
-0.152064 -0.0798486 -0.371598
-0.152124 -0.0817239 -0.325503
-0.0558614 -0.0812529 -0.431719
-0.0775236 -0.0796743 -0.431691
-0.152151 -0.0791853 -0.305078
-0.152164 -0.0795899 -0.294709
-0.152201 -0.0806894 -0.266533
-0.152229 -0.0815342 -0.244886
-0.00985539 -0.0810052 -0.431779
-0.0333232 -0.0793678 -0.431748
-0.152267 -0.0791698 -0.215307
-0.152282 -0.0795923 -0.203997
-0.152307 -0.0803067 -0.184878
-0.152348 -0.0814767 -0.153563
0.0401105 -0.0807361 -0.431844
0.0146015 -0.0790355 -0.43181
-0.15209 -0.0707672 -0.352104
-0.152374 -0.078571 -0.133523
-0.152411 -0.079595 -0.104841
-0.152438 -0.0803429 -0.0838917
-0.152477 -0.081414 -0.0538924
0.149792 -0.11566 0.339533
0.0945704 -0.0804429 -0.431914
0.0667417 -0.0786739 -0.431878
-0.107586 -0.0689654 -0.391408
-0.118701 -0.0689658 -0.370677
-0.129815 -0.0689663 -0.349945
-0.152517 -0.0786761 -0.0230823
-0.152552 -0.0795979 0.00399661
-0.152582 -0.0803827 0.0270519
-0.152607 -0.0810218 0.0458262
-0.152644 -0.0819998 0.074554
-0.155507 -0.0909251 0.341446
0.154159 -0.0801221 -0.431991
0.12368 -0.078279 -0.431952
-0.130598 -0.0629409 -0.43047
-0.107373 -0.0689664 -0.288133
-0.117388 -0.0689668 -0.269451
-0.127403 -0.0689672 -0.250769
-0.152669 -0.0786325 0.0940941
-0.152695 -0.0792756 0.113954
-0.152722 -0.0799293 0.134141
-0.152748 -0.0805938 0.154664
-0.152762 -0.0809303 0.165055
-0.152789 -0.0816117 0.186097
-0.0691106 -0.0632443 -0.430425
-0.0939554 -0.0618008 -0.430987
-0.146598 -0.0600536 -0.389589
-0.146399 -0.0606586 -0.370313
-0.145974 -0.0618033 -0.333934
-0.108896 -0.0689677 -0.170407
-0.119453 -0.0689681 -0.150714
-0.13001 -0.0689685 -0.131021
-0.152817 -0.0780839 0.207497
-0.152852 -0.0789215 0.234764
-0.152867 -0.0792616 0.245834
-0.152903 -0.0801248 0.273934
-0.152918 -0.0804754 0.285346
-0.152956 -0.0813655 0.314318
0.00010252 -0.0635857 -0.430374
-0.0279391 -0.0620455 -0.430972
-0.0546577 -0.060578 -0.431542
-0.147236 -0.0558598 -0.420929
-0.146785 -0.0597116 -0.289546
-0.146703 -0.060232 -0.271831
-0.146465 -0.0608777 -0.250113
-0.146262 -0.0614263 -0.231655
-0.108733 -0.0689689 -0.0426915
-0.123613 -0.0689695 -0.0149322
-0.134773 -0.0689699 0.00588745
-0.153018 -0.0783538 0.36203
-0.153041 -0.0788867 0.380368
-0.153074 -0.0796086 0.40521
-0.153107 -0.0803438 0.430511
0.0785973 -0.0639727 -0.430318
0.046702 -0.0623222 -0.430955
0.0164055 -0.0607543 -0.431562
-0.147414 -0.0557846 -0.307119
-0.146992 -0.0593327 -0.178724
-0.146927 -0.0598768 -0.159036
-0.146792 -0.0604353 -0.138951
-0.146582 -0.0610091 -0.118452
-0.146411 -0.0614761 -0.10177
-0.145609 -0.0636687 -0.0234317
-0.14533 -0.0644348 0.00393748
-0.10855 -0.0689704 0.10051
-0.118414 -0.0689708 0.118912
-0.130251 -0.0689712 0.140995
0.0971367 -0.0609546 -0.431584
-0.148111 -0.051235 -0.351119
-0.147687 -0.0549034 -0.209727
-0.147223 -0.0589107 -0.0552792
-0.146848 -0.0607887 0.0168108
-0.146669 -0.0612824 0.0356113
-0.146209 -0.0625524 0.0839753
-0.146019 -0.0630753 0.103887
-0.145827 -0.0636069 0.124133
-0.145632 -0.0641476 0.144724
-0.108343 -0.068972 0.262197
-0.116744 -0.0689723 0.27787
-0.129345 -0.0689728 0.301379
-0.144046 -0.0689734 0.328807
-0.162204 -0.0684083 0.340755
0.153352 -0.0595392 -0.43209
0.120975 -0.0580776 -0.432291
-0.147931 -0.0544457 -0.0814841
-0.147534 -0.0579655 0.063607
-0.147196 -0.0604103 0.164267
-0.146527 -0.0622756 0.240298
-0.146328 -0.0628298 0.262891
-0.146126 -0.063394 0.285889
-0.145921 -0.0639684 0.309305
-0.112297 -0.0442661 -0.433807
-0.148453 -0.0516361 -0.0384444
-0.147906 -0.0566755 0.184788
-0.14788 -0.056917 0.195486
-0.147827 -0.0574063 0.217159
-0.14694 -0.061815 0.411695
-0.091751 -0.0417835 -0.433833
-0.129527 -0.0403277 -0.433382
-0.148732 -0.0404848 -0.390029
-0.148757 -0.0408829 -0.370848
-0.148804 -0.0416336 -0.334684
-0.148853 -0.0424123 -0.297168
-0.148213 -0.0562544 0.366887
-0.148173 -0.0566409 0.385386
0.0779434 -0.0444923 -0.43405
-0.0250269 -0.0408203 -0.433918
-0.147236 -0.0367079 -0.420929
-0.148881 -0.0394215 -0.276107
-0.148909 -0.0398321 -0.254607
-0.148947 -0.040393 -0.225234
-0.148997 -0.0411167 -0.187334
-0.149028 -0.0415636 -0.163935
-0.149054 -0.0419434 -0.144044
-0.14908 -0.0423303 -0.123786
-0.149214 -0.0442911 -0.0211034
-0.149244 -0.0447227 0.00149769
-0.149036 -0.0510169 0.329914
0.106647 -0.041558 -0.434087
0.0505022 -0.0397299 -0.434015
-0.0481675 -0.0365173 -0.433889
-0.0703912 -0.0357937 -0.433861
-0.149163 -0.0397492 -0.0607051
-0.149268 -0.0411546 0.0198982
-0.149311 -0.0417283 0.0528047
-0.14933 -0.0419792 0.06719
-0.149475 -0.0439149 0.17821
-0.149503 -0.0442862 0.199505
0.0242422 -0.0351725 -0.433981
-0.000911474 -0.0344315 -0.433949
-0.148783 -0.0313796 -0.351286
-0.149434 -0.039239 0.146929
-0.149531 -0.0404101 0.221163
-0.149553 -0.0406702 0.23765
-0.149642 -0.0417449 0.305778
-0.149752 -0.0430728 0.389956
0.136703 -0.0344344 -0.434125
-0.149186 -0.032424 -0.0432726
-0.149355 -0.0342577 0.0866417
-0.149381 -0.0345367 0.10641
-0.149408 -0.0348203 0.126503
-0.149582 -0.0367041 0.259966
-0.149612 -0.0370245 0.282672
-0.149777 -0.0388033 0.408696
-0.111824 -0.0246042 -0.433734
-0.148962 -0.0264831 -0.214005
-0.14972 -0.0336986 0.365364
0.0254098 -0.0240906 -0.433824
-0.0881896 -0.0218051 -0.433297
-0.127815 -0.0210078 -0.433113
-0.148073 -0.0210669 -0.389893
-0.148132 -0.0212733 -0.370706
-0.148244 -0.0216624 -0.334536
-0.14836 -0.022066 -0.297017
-0.148425 -0.0222925 -0.275958
-0.148986 -0.0242422 -0.0947193
-0.149051 -0.0244699 -0.0735554
-0.149681 -0.0288803 0.335239
0.110854 -0.0218451 -0.433559
0.0556998 -0.0209059 -0.433331
-0.0186862 -0.0196391 -0.433024
-0.0415181 -0.0192503 -0.43293
-0.147919 -0.0190702 -0.25426
-0.148108 -0.0196831 -0.186959
-0.148163 -0.0198604 -0.16749
-0.14823 -0.0200775 -0.143658
-0.14831 -0.0203368 -0.115188
-0.148653 -0.0214445 0.00644588
-0.148771 -0.0218266 0.0484067
-0.148826 -0.0220009 0.0675398
-0.149229 -0.0233031 0.210532
-0.149338 -0.0236531 0.248964
-0.149401 -0.0238579 0.271448
-0.149466 -0.0240662 0.294325
-0.149736 -0.0249373 0.389974
0.0875589 -0.0175535 -0.432815
-0.0596722 -0.0155016 -0.432281
-0.146922 -0.0143687 -0.420875
-0.147928 -0.0173215 -0.02481
-0.148367 -0.018608 0.14776
-0.148419 -0.0187629 0.16853
-0.148584 -0.0192433 0.232967
-0.148771 -0.0197922 0.306604
-0.149034 -0.0205592 0.409482
-0.146436 -0.0115898 -0.350705
-0.146838 -0.0123211 -0.224429
-0.147546 -0.0141333 0.0879338
-0.147591 -0.0142481 0.107727
-0.147636 -0.0143648 0.127843
-0.147778 -0.0147267 0.190221
0.130134 -0.0100892 -0.431142
-0.00116384 -0.00907311 -0.430553
-0.145968 -0.0095144 -0.0545745
-0.146212 -0.00985001 0.0265272
-0.14713 -0.0111131 0.331768
-0.165064 -0.0110243 0.343861
-0.143493 -0.00485367 -0.401603
-0.144022 -0.00678063 0.371125
-0.130129 -0.00161467 -0.430394
-0.145421 -0.00163308 -0.379766
-0.145458 -0.00167129 -0.333797
-0.145488 -0.00170258 -0.296141
-0.145505 -0.00172015 -0.275001
-0.145513 -0.00172907 -0.264267
-0.145536 -0.00175332 -0.235089
-0.145575 -0.00179421 -0.18589
-0.145585 -0.00180391 -0.174209
-0.145601 -0.00182033 -0.154456
-0.14562 -0.00183704 -0.134343
-0.145636 -0.00185407 -0.113855
-0.145673 -0.00189266 -0.0674171
-0.14573 -0.00195175 0.00368798
-0.145764 -0.00198664 0.0456706
-0.143135 -0.00207477 0.146654
-0.145863 -0.00208608 0.165327
-0.145905 -0.00213052 0.218796
-0.145972 -0.00220084 0.303411
-0.146057 -0.00228636 0.406321
-0.146073 -0.00230214 0.425317
-0.112635 0.00164153 -0.430731
-0.0945362 0.00500793 -0.431076
-0.146956 0.00529851 -0.216981
-0.147161 0.0056052 -0.093769
-0.14726 0.00575567 -0.0333231
-0.147436 0.0060212 0.0733505
-0.147469 0.0060699 0.0929154
-0.147501 0.00611939 0.112799
-0.14762 0.00629917 0.185022
-0.14771 0.00643419 0.239263
-0.147747 0.00648983 0.261616
-0.147785 0.00654644 0.284359
-0.147922 0.0067526 0.367182
-0.147953 0.00679848 0.385613
-0.147186 0.00823085 -0.36074
-0.147778 0.00953248 -0.0468556
-0.147897 0.00979372 0.0161418
-0.148117 0.0102765 0.132567
-0.148479 0.0110725 0.324523
-0.148502 0.0111218 0.336394
-0.147968 0.0143298 -0.42412
-0.148203 0.0150734 -0.32442
-0.148508 0.0160399 -0.194824
-0.149071 0.0178169 0.043462
-0.144913 0.0186377 0.14528
-0.149476 0.0191019 0.215755
-0.149675 0.0197296 0.299926
-0.149931 0.0205396 0.408533
-0.148473 0.0207142 0.429127
-0.11229 0.0180345 -0.433806
-0.130416 0.0177277 -0.433522
-0.148491 0.0177601 -0.396294
-0.14854 0.0179337 -0.377238
-0.148748 0.0186635 -0.297136
-0.148802 0.0188554 -0.276081
-0.148857 0.0190512 -0.254589
-0.149092 0.0198769 -0.163964
-0.145538 0.020135 -0.142398
-0.149208 0.0202797 -0.11975
-0.14935 0.0207774 -0.0651283
-0.149965 0.0229428 0.172542
-0.15002 0.0250612 -0.0171009
-0.150058 0.0252069 -0.00356454
-0.150283 0.0260655 0.0762151
-0.150338 0.0262761 0.0957831
-0.150394 0.0264902 0.11567
-0.150978 0.028712 0.322108
-0.151028 0.0289034 0.33989
-0.151166 0.0294265 0.38849
-0.164166 0.0245307 -0.342048
-0.150469 0.0285156 -0.0483916
-0.150689 0.0294096 0.023627
-0.15079 0.0298186 0.056575
-0.151459 0.0325332 0.275258
-0.151729 0.0336265 0.363333
-0.149964 0.0278563 -0.36465
-0.15042 0.0298089 -0.225797
-0.151745 0.0354642 0.176368
-0.151815 0.0357624 0.197576
-0.151941 0.0362965 0.235561
-0.152014 0.036609 0.257781
-0.152502 0.0386906 0.405814
-0.150954 0.0334741 -0.21479
-0.15136 0.0352752 -0.100137
-0.151434 0.0356056 -0.0791109
-0.150259 0.0392046 0.146287
-0.152484 0.040283 0.218631
-0.152761 0.0415145 0.29702
-0.147616 0.0333422 -0.43016
-0.151037 0.0350652 -0.325203
-0.151114 0.0354198 -0.304769
-0.151565 0.0375061 -0.184562
-0.151668 0.0379807 -0.15722
-0.146748 0.0383901 -0.142964
-0.151821 0.0386797 -0.116938
-0.153311 0.045556 0.279258
-0.153736 0.0475131 0.392024
-0.112288 0.0377085 -0.433806
-0.151673 0.0391694 -0.284072
-0.151786 0.0397101 -0.255616
-0.152934 0.0451652 0.0314903
-0.153105 0.0459772 0.0742299
-0.153182 0.0463476 0.0937226
-0.154106 0.0507416 0.324983
-0.154153 0.0509664 0.336811
-0.165064 0.050712 0.343861
-0.132048 0.0402216 -0.433778
-0.151663 0.0401624 -0.400058
-0.151743 0.0405531 -0.381135
-0.15335 0.0483991 -0.00106162
-0.153566 0.0494515 0.0499204
-0.153918 0.0511712 0.133224
-0.154877 0.0558557 0.360149
-0.153658 0.0510559 -0.0545608
-0.154381 0.0546721 0.107706
-0.154652 0.0560328 0.168764
-0.154746 0.0565015 0.189797
-0.155241 0.0589679 0.300472
-0.155724 0.0613793 0.40868
-0.154265 0.0619028 0.429255
-0.152762 0.0475346 -0.358809
-0.153346 0.0505135 -0.234303
-0.154333 0.055541 -0.0241706
-0.151267 0.0597743 0.145503
-0.155435 0.0611599 0.210681
-0.164304 0.0650202 0.387148
-0.153982 0.0547307 -0.204687
-0.154594 0.0578974 -0.0808126
-0.164342 0.0655939 0.235658
-0.164598 0.0661478 0.257606
-0.165394 0.0678673 0.325733
-0.153907 0.0552124 -0.315849
-0.154636 0.0590641 -0.174256
-0.154737 0.0595971 -0.154661
-0.154841 0.0601397 -0.134711
-0.16396 0.0652018 0.0665922
-0.164196 0.0657157 0.0857429
-0.164436 0.0662377 0.105198
-0.164742 0.0669021 0.129956
-0.160629 0.0751436 0.422353
-0.149853 0.0554382 -0.430525
-0.154268 0.0579481 -0.336134
-0.154488 0.059122 -0.295427
-0.154544 0.0594229 -0.284991
-0.154696 0.0602406 -0.256636
-0.162183 0.0639907 -0.113945
-0.163844 0.0653376 -0.0646141
-0.164123 0.0659466 -0.043187
-0.164637 0.067072 -0.00359464
-0.157626 0.075909 0.286694
-0.15794 0.0775907 0.345012
-0.132065 0.059527 -0.43378
-0.154336 0.0590794 -0.406797
-0.154459 0.0597468 -0.384896
-0.163534 0.065004 -0.197264
-0.164137 0.0725056 0.0474585
-0.157501 0.0762315 0.156077
-0.157617 0.0768646 0.176852
-0.158362 0.0808952 0.309127
-0.158696 0.0827022 0.368428
-0.103843 0.0641882 -0.441917
-0.164305 0.0670179 -0.242032
-0.157308 0.0760755 0.0239668
-0.15848 0.0825095 0.224366
-0.163848 0.0662982 -0.36469
-0.159532 0.0753155 -0.108485
-0.157159 0.0760763 -0.0906163
-0.15894 0.0859591 0.202318
-0.159726 0.0903111 0.331319
-0.160131 0.0925522 0.397748
-0.160493 0.0748535 -0.222257
-0.157119 0.0766189 -0.179221
-0.157242 0.0773072 -0.159759
-0.158637 0.0851055 0.060738
-0.158758 0.0857842 0.0799283
-0.159977 0.0926164 0.273105
-0.160492 0.0954941 0.354472
-0.160568 0.0959198 0.36651
-0.159504 0.0752202 -0.307268
-0.156923 0.0762063 -0.285752
-0.157061 0.0769881 -0.264621
-0.158591 0.0856256 -0.0311484
-0.160253 0.0950218 0.222826
-0.160396 0.0958307 0.24469
-0.160803 0.0981279 0.306783
-0.160013 0.102775 0.429382
-0.159313 0.0752545 -0.392212
-0.157238 0.0852764 -0.139883
-0.160005 0.0944037 0.0986012
-0.160138 0.0951678 0.118385
-0.159687 0.0960052 0.13895
-0.162019 0.105881 0.395751
-0.132064 0.0788331 -0.43378
-0.158298 0.0853488 -0.225109
-0.158376 0.0857969 -0.213978
-0.15981 0.0940231 -0.00959533
-0.16 0.0951175 0.017595
-0.160163 0.0960492 0.0407418
-0.161739 0.105109 0.265832
-0.161938 0.106248 0.294126
-0.162182 0.107647 0.328899
-0.157976 0.0841036 -0.337117
-0.159873 0.0950713 -0.0751956
-0.160027 0.0959652 -0.0538485
-0.161597 0.105053 0.163166
-0.161748 0.105925 0.183995
-0.163462 0.116045 0.425617
-0.152714 0.0836934 -0.430993
-0.157889 0.0841696 -0.410551
-0.161468 0.105 0.0683452
-0.161612 0.105838 0.0876153
-0.160255 0.0985615 -0.161131
-0.161381 0.105152 -0.0150495
-0.163068 0.115044 0.20418
-0.163233 0.116014 0.22568
-0.164383 0.122741 0.374779
-0.159151 0.0926389 -0.363576
-0.159598 0.0952694 -0.307296
-0.161071 0.103951 -0.12155
-0.161234 0.104907 -0.101097
-0.162958 0.115066 0.116253
-0.163117 0.116002 0.136281
-0.164765 0.125718 0.344162
-0.159475 0.0950708 -0.379642
-0.161003 0.104125 -0.192402
-0.162854 0.115086 0.0342571
-0.163007 0.115991 0.0529599
-0.164585 0.125349 0.246482
-0.164766 0.126423 0.268685
-0.165044 0.128068 0.302712
-0.165821 0.132673 0.397935
-0.132062 0.0981394 -0.43378
-0.160646 0.102537 -0.293879
-0.16088 0.103934 -0.26593
-0.161061 0.105006 -0.244464
-0.162756 0.115105 -0.0423878
-0.16446 0.125263 0.160859
-0.164635 0.1263 0.181604
-0.16624 0.135857 0.372851
-0.145749 0.100066 -0.432896
-0.16068 0.103245 -0.344426
-0.160619 0.113892 -0.141495
-0.1627 0.115334 -0.110107
-0.16317 0.118144 -0.0556427
-0.164346 0.125182 0.0807762
-0.164514 0.126184 0.100203
-0.166448 0.137766 0.324695
-0.167283 0.142758 0.421448
-0.160603 0.103259 -0.404904
-0.162247 0.113137 -0.219235
-0.162579 0.11514 -0.181593
-0.164158 0.124627 -0.0032934
-0.165923 0.135253 0.196411
-0.167636 0.145543 0.389812
-0.163248 0.119679 -0.162494
-0.163906 0.123652 -0.0900177
-0.16585 0.135388 0.124067
-0.166694 0.140495 0.217227
-0.162455 0.115363 -0.301319
-0.165779 0.135516 0.0557861
-0.167295 0.146165 0.244046
-0.166506 0.149538 0.301308
-0.162765 0.152515 0.34617
-0.154925 0.155206 0.378426
-0.150264 0.156694 0.395649
-0.162321 0.114999 -0.364328
-0.163841 0.12425 -0.204936
-0.165585 0.134864 -0.0220743
-0.167257 0.145052 0.153452
-0.16192 0.15294 0.276982
-0.153044 0.155773 0.308381
-0.163587 0.123162 -0.280925
-0.163793 0.124421 -0.259824
-0.165607 0.135499 -0.074109
-0.167242 0.145484 0.0932813
-0.153457 0.155609 0.234234
-0.13206 0.120663 -0.43378
-0.147106 0.118954 -0.433114
-0.163514 0.123152 -0.335284
-0.163714 0.124376 -0.315293
-0.165508 0.135369 -0.135845
-0.166861 0.143661 -0.000482559
-0.167042 0.14477 0.0176128
-0.146448 0.155707 0.154434
-0.149545 0.156827 0.178153
-0.16335 0.122554 -0.396157
-0.163542 0.123735 -0.377373
-0.164998 0.132684 -0.235017
-0.16511 0.133373 -0.224056
-0.165414 0.135246 -0.194264
-0.166854 0.144099 -0.0534419
-0.154236 0.155305 0.0978903
-0.166222 0.14066 -0.163849
-0.166677 0.143468 -0.120292
-0.16689 0.144782 -0.0999139
-0.154604 0.155163 0.0350701
-0.165241 0.135019 -0.302169
-0.15495 0.155029 -0.0245404
-0.16502 0.134043 -0.364968
-0.151413 0.156133 -0.0705612
-0.166473 0.143455 -0.274883
-0.122923 0.15932 -0.131809
-0.136965 0.157581 -0.130216
-0.129358 0.140365 -0.433355
-0.166285 0.142667 -0.332725
-0.152196 0.155839 -0.177081
-0.166217 0.142605 -0.377971
-0.16196 0.152523 -0.252012
-0.154353 0.15513 -0.230995
-0.158 0.142888 -0.431857
-0.166259 0.143218 -0.41211
-0.15291 0.155571 -0.273888
-0.153236 0.155447 -0.319053
-0.153549 0.155329 -0.362248
-0.120872 0.158387 -0.42579
-0.14235 0.155118 -0.426237
-0.152197 0.155741 -0.400163
