ply
format ascii 1.0
comment Created by Open3D
element vertex 1206
property double x
property double y
property double z
end_header
0.270332 -0.151984 0.212983
0.251136 -0.152602 0.213009
0.225439 -0.152392 0.213044
0.209026 -0.151833 0.213066
0.185864 -0.152507 0.213097
0.274956 -0.131655 0.212976
0.167454 -0.151918 0.213122
0.154646 -0.152271 0.21314
0.235957 -0.131657 0.213029
0.120588 -0.152014 0.213186
0.214584 -0.131659 0.213058
0.0832859 -0.151732 0.213236
0.0507834 -0.152529 0.21328
0.167454 -0.131662 0.213122
0.191798 -0.127308 0.213089
0.274956 -0.112435 0.212976
0.0986254 -0.141511 0.213216
0.154646 -0.131663 0.21314
0.00807118 -0.151692 0.243813
0.0246644 -0.151826 0.213316
0.127646 -0.131665 0.213176
0.241094 -0.112415 0.213022
0.262356 -0.152352 -0.23715
0.276536 -0.150523 -0.24314
0.276551 -0.151747 -0.25582
0.220055 -0.111805 0.213051
0.2297 -0.152203 -0.237106
0.0832859 -0.131668 0.213236
0.203377 -0.112392 0.213073
0.212465 -0.152125 -0.237083
0.190921 -0.152619 -0.237054
0.113402 -0.122003 0.213196
0.172205 -0.152546 -0.237029
0.0335458 -0.131672 0.213303
0.161105 -0.112367 0.213131
0.152752 -0.152469 -0.237003
-0.00237024 -0.131761 0.243832
0.00907087 -0.132338 0.216917
0.0507825 -0.126456 0.21328
0.132518 -0.152389 -0.236976
0.268614 -0.132209 -0.237158
-0.146948 -0.152564 0.213544
-0.134283 -0.150725 0.213527
0.270332 -0.0919648 0.212983
0.111454 -0.152306 -0.236948
0.249573 -0.132248 -0.237133
0.276551 -0.129874 -0.25582
0.127646 -0.110314 0.213176
0.0895084 -0.15222 -0.236918
0.2297 -0.132289 -0.237106
-0.186868 -0.151694 0.213598
-0.173228 -0.149796 0.21358
0.241094 -0.0921599 0.213022
-0.00103468 -0.152431 -0.121913
0.00954944 -0.152302 -0.138871
0.0666249 -0.152129 -0.236887
0.190921 -0.134839 -0.237054
0.208941 -0.132332 -0.237078
-0.21521 -0.152216 0.213636
0.083285 -0.111605 0.213236
0.00957847 -0.15058 -0.159881
0.00960815 -0.152242 -0.181354
0.042742 -0.152035 -0.236856
0.0591463 -0.112307 0.213268
0.209026 -0.0923738 0.213066
0.00963241 -0.150146 -0.198877
0.00966346 -0.151836 -0.221225
0.0177926 -0.151937 -0.236822
-0.260599 -0.151272 0.213697
0.0422487 -0.111921 0.213291
0.140708 -0.132473 -0.236987
0.160625 -0.129885 -0.237013
-0.134283 -0.131686 0.213527
0.00807118 -0.111419 0.243813
0.0246611 -0.111519 0.213315
0.0986243 -0.102135 0.213215
0.179831 -0.091831 0.213105
0.119982 -0.131985 -0.236959
0.274785 -0.112344 -0.237166
-0.159926 -0.131688 0.213562
0.161105 -0.0919369 0.213131
0.0939707 -0.132026 -0.236924
0.252802 -0.112359 -0.237137
0.276551 -0.110735 -0.25582
-0.186868 -0.13169 0.213598
-0.00103468 -0.13233 -0.121913
0.00954884 -0.132218 -0.138871
0.0666249 -0.132068 -0.236887
0.2297 -0.112374 -0.237106
-0.21521 -0.131692 0.213636
0.120587 -0.0921661 0.213185
0.00957847 -0.130277 -0.159881
0.00960815 -0.131715 -0.181354
0.00967586 -0.134992 -0.230305
0.0378397 -0.132113 -0.236849
0.205391 -0.112391 -0.237073
-0.245067 -0.131695 0.213676
0.141384 -0.0873878 0.213157
0.274956 -0.0720737 0.212976
0.00963241 -0.129436 -0.198877
0.179778 -0.112408 -0.237039
0.0753918 -0.0924218 0.213246
-0.201028 -0.151906 -0.236527
-0.172661 -0.148741 -0.236565
0.152752 -0.112427 -0.237003
0.0591444 -0.0916531 0.213268
0.235957 -0.0724626 0.213029
-0.245918 -0.152617 -0.236468
-0.230629 -0.150957 -0.236488
0.124195 -0.112446 -0.236964
-0.159926 -0.112179 0.213562
-0.134283 -0.109474 0.213527
0.0335419 -0.0917718 0.213302
0.220055 -0.0720987 0.213051
-0.269491 -0.150804 -0.236436
0.0939708 -0.112466 -0.236924
-0.186873 -0.111687 0.213597
-0.00237024 -0.0910102 0.243832
0.00907034 -0.0914091 0.216916
0.0986226 -0.0824461 0.213215
0.197635 -0.0723051 0.213081
-0.00103468 -0.112229 -0.121913
0.00954884 -0.112135 -0.138871
0.0619305 -0.112488 -0.236881
0.259194 -0.0922841 -0.237145
0.276536 -0.0908565 -0.24314
0.276551 -0.0915953 -0.25582
-0.215214 -0.111169 0.213635
0.17983 -0.0719159 0.213105
-0.172661 -0.13244 -0.236565
0.00957733 -0.109975 -0.159882
0.00960815 -0.111188 -0.181354
0.00963241 -0.112178 -0.198877
0.0328943 -0.112016 -0.236842
0.2297 -0.09246 -0.237106
-0.2606 -0.11212 0.213697
0.154644 -0.0721287 0.213139
-0.20831 -0.131799 -0.236518
-0.186695 -0.129717 -0.236547
0.00966346 -0.10995 -0.221225
0.201814 -0.0923007 -0.237069
0.127643 -0.0723568 0.213175
-0.253689 -0.131846 -0.236458
-0.230629 -0.129696 -0.236488
0.179778 -0.0914254 -0.237039
-0.146955 -0.0947511 0.213543
-0.269491 -0.128948 -0.236436
0.13663 -0.0923195 -0.236981
-0.134289 -0.0904356 0.213526
0.07539 -0.0721651 0.213245
0.102785 -0.0921391 -0.236936
0.115736 -0.0910106 -0.236953
0.164515 -0.0867602 -0.237018
-0.186873 -0.0916835 0.213597
-0.173234 -0.0905368 0.213578
0.042245 -0.0724198 0.21329
0.0591424 -0.0709991 0.213267
-0.172661 -0.112065 -0.236566
-0.00103468 -0.0921284 -0.121913
0.00954884 -0.0920507 -0.138871
0.0619306 -0.0923411 -0.236881
0.0804712 -0.0907822 -0.236906
-0.229944 -0.0918391 0.213655
-0.00237024 -0.0719931 0.243832
0.00907034 -0.0723087 0.216916
0.256043 -0.0524644 0.213002
0.275931 -0.0511249 0.207091
-0.245918 -0.113925 -0.236468
-0.223109 -0.112077 -0.236498
-0.201029 -0.110288 -0.236528
0.00957733 -0.0896716 -0.159882
0.0096072 -0.090661 -0.181355
0.00963241 -0.0914683 -0.198877
0.00966346 -0.092498 -0.221225
0.0228714 -0.0921478 -0.236829
0.0427423 -0.0905378 -0.236855
0.265496 -0.0724903 -0.237154
0.276551 -0.072456 -0.25582
-0.2606 -0.0907635 0.213697
0.106078 -0.0621763 0.213204
0.230738 -0.0524574 0.213036
-0.269491 -0.111464 -0.236436
0.233072 -0.0722826 -0.23711
0.252802 -0.0707444 -0.237137
0.203375 -0.0524499 0.213073
0.198211 -0.0720593 -0.237064
0.173692 -0.0524418 0.213113
0.152752 -0.0723842 -0.237003
0.179778 -0.0704425 -0.237039
-0.134291 -0.0713966 0.213526
0.14807 -0.0519728 0.213147
-0.179642 -0.0921697 -0.236556
0.107137 -0.072442 -0.236941
0.132518 -0.070696 -0.236976
-0.186873 -0.0716798 0.213597
-0.173234 -0.0707833 0.213578
0.127641 -0.0510057 0.213175
-0.230629 -0.0914249 -0.236488
-0.201029 -0.0894791 -0.236528
-0.00671583 -0.0724012 -0.121907
0.0095377 -0.0716575 -0.130594
0.00956601 -0.0724362 -0.151423
0.0619307 -0.0721939 -0.236881
0.0804713 -0.0709752 -0.236906
-0.245067 -0.0719932 0.213676
-0.229944 -0.0710454 0.213655
-0.146955 -0.065844 0.213543
0.0673434 -0.0524126 0.213256
0.294684 -0.0391085 0.186512
-0.269491 -0.0896083 -0.236436
0.00958902 -0.0696727 -0.168415
0.0096184 -0.070445 -0.190079
0.00964481 -0.071075 -0.207756
0.0177928 -0.0716024 -0.236822
0.0378401 -0.070346 -0.236849
0.00807118 -0.0523537 0.243813
0.0246553 -0.0524009 0.213313
-0.245918 -0.0838317 -0.236468
0.233072 -0.0524403 -0.23711
0.252802 -0.0513244 -0.237137
0.265496 -0.0506064 -0.237154
0.276551 -0.0505825 -0.25582
0.050775 -0.0456289 0.213278
0.113396 -0.0422785 0.213194
0.291721 -0.0323798 0.224679
-0.193824 -0.0724464 -0.236537
-0.172661 -0.0713141 -0.236566
0.19458 -0.0516652 -0.237059
0.205391 -0.0510868 -0.237073
-0.134291 -0.0523575 0.213526
0.253583 -0.0324534 0.22473
0.273234 -0.0314621 0.224704
-0.269491 -0.0721237 -0.236436
-0.230629 -0.0701633 -0.236488
0.119982 -0.0524761 -0.236959
0.140708 -0.0514305 -0.236987
-0.200862 -0.0523391 0.213616
-0.173234 -0.0510298 0.213578
0.0878914 -0.0383385 0.224953
0.21604 -0.0322657 0.224781
-0.00671583 -0.0521962 -0.121907
0.0095377 -0.05166 -0.130594
0.00956601 -0.0522214 -0.151423
0.00967586 -0.0543473 -0.230305
0.0524196 -0.0524975 -0.236868
0.0712799 -0.0516037 -0.236893
0.0895087 -0.0507399 -0.236918
0.160625 -0.0473697 -0.237013
-0.2606 -0.0516106 0.213697
-0.0135331 -0.0394133 0.262602
0.00927639 -0.0384021 0.262571
0.0276127 -0.0385373 0.225034
0.0457327 -0.037734 0.22501
0.167385 -0.032341 0.224846
0.186424 -0.0314969 0.224821
0.00958902 -0.0492807 -0.168415
0.0096184 -0.0498269 -0.190079
0.0096423 -0.0502727 -0.207758
0.0279052 -0.0501973 -0.236835
0.295238 -0.0380512 -0.225533
0.295267 -0.0385722 -0.246199
0.133278 -0.0315183 0.224892
0.147296 -0.0309397 0.224873
-0.245918 -0.0537383 -0.236468
-0.20831 -0.052301 -0.236518
-0.186696 -0.051475 -0.236547
-0.172661 -0.0509386 -0.236566
-0.238208 -0.0399104 0.225388
-0.222647 -0.0393632 0.225367
-0.192769 -0.0383127 0.225328
0.294669 -0.0217255 0.197182
-0.269491 -0.0502681 -0.236436
-0.230629 -0.0489017 -0.236488
0.0173845 -0.0376908 -0.112557
0.232397 -0.0323868 -0.225385
0.255429 -0.031577 -0.225416
0.283403 -0.0305934 -0.225453
-0.287602 -0.0380256 0.225454
-0.270667 -0.0374819 0.225431
0.143594 -0.0324214 -0.225266
0.155619 -0.0320353 -0.225283
0.175038 -0.0314119 -0.225308
0.204583 -0.0304634 -0.225348
-0.220738 -0.0399155 -0.22477
-0.191335 -0.0390615 -0.224811
-0.016665 -0.0321249 -0.112517
0.021235 -0.0312452 -0.125918
0.0212634 -0.0315854 -0.146517
0.0213041 -0.0320745 -0.176121
0.0358415 -0.0324633 -0.225123
0.0553691 -0.0318961 -0.225149
0.110061 -0.0303076 -0.225222
0.0202479 -0.0222265 0.262556
0.0367681 -0.0223529 0.225022
0.0631126 -0.0216683 0.224986
0.079797 -0.0212347 0.224964
0.103608 -0.0206159 0.224932
-0.291839 -0.0375616 -0.224673
-0.267335 -0.0369248 -0.224707
-0.251455 -0.0365121 -0.224728
0.0213463 -0.0291495 -0.206655
0.29525 -0.0224271 -0.233732
-0.0135331 -0.0203862 0.262602
0.0207486 -0.0199409 0.236489
0.0834137 -0.024538 -0.225186
0.295267 -0.0199512 -0.246199
-0.222647 -0.0222488 0.225367
-0.192769 -0.021655 0.225328
0.268435 -0.0124895 0.22471
0.291721 -0.0120268 0.224679
0.00626999 -0.0215244 -0.112544
-0.287602 -0.0199181 0.225454
-0.238208 -0.0190876 0.225388
0.154114 -0.0124904 0.224864
0.167385 -0.0122673 0.224846
0.186424 -0.0119471 0.224821
0.21604 -0.0114491 0.224781
0.243286 -0.010991 0.224744
-0.27541 -0.0240283 -0.224695
-0.251455 -0.0236255 -0.224728
-0.18418 -0.0224942 -0.22482
-0.270667 -0.0160637 0.225431
0.118726 -0.0107063 0.224912
-0.220738 -0.0189073 -0.22477
0.245701 -0.0124901 -0.225403
0.274274 -0.0120969 -0.225441
-0.016665 -0.0118355 -0.112517
0.021235 -0.0115114 -0.125918
0.0212634 -0.0116367 -0.146517
0.0213041 -0.0118169 -0.176121
0.0213463 -0.0120027 -0.206655
0.0308506 -0.0120136 -0.225116
0.0505515 -0.0118027 -0.225142
0.101327 -0.0112594 -0.22521
0.118652 -0.011074 -0.225233
0.139521 -0.0108507 -0.225261
0.159564 -0.0106362 -0.225288
0.178831 -0.01043 -0.225314
0.200988 -0.0101929 -0.225343
0.218697 -0.0100035 -0.225367
0.0788394 -0.0049286 -0.22518
-0.287602 -0.00181075 0.225454
-0.238208 -0.00173524 0.225388
-0.222647 -0.00171145 0.225367
-0.192769 -0.00166578 0.225328
-0.0135331 -0.00135909 0.262602
0.00927639 -0.00132422 0.262571
0.0207486 -0.0013294 0.236489
0.0457327 -0.00130118 0.22501
0.079797 -0.00124911 0.224964
0.103608 -0.00121271 0.224932
0.294669 -0.000944595 0.197182
-0.291839 -0.00220952 -0.224673
-0.220738 -0.00210083 -0.22477
-0.191335 -0.00205588 -0.224811
0.00626999 -0.00165573 -0.112544
0.289384 -0.00132101 -0.225461
0.295267 -0.00133009 -0.246199
-0.270667 0.00535454 0.225431
-0.267335 0.00651612 -0.224707
-0.251455 0.0064433 -0.224728
-0.016665 0.00845393 -0.112517
0.021235 0.00822242 -0.125918
0.0212634 0.00831196 -0.146517
0.0213041 0.00844065 -0.176121
0.0213463 0.00857338 -0.206655
0.0308506 0.00858112 -0.225116
0.0505515 0.00843054 -0.225142
0.101327 0.00804243 -0.22521
0.118652 0.00791002 -0.225233
0.139521 0.00775051 -0.225261
0.159564 0.0075973 -0.225288
0.118726 0.00832712 0.224912
0.147296 0.00802139 0.224873
0.167385 0.00780643 0.224846
0.186424 0.0076027 0.224821
0.178831 0.01043 -0.225314
0.200988 0.0101929 -0.225343
0.218697 0.0100034 -0.225367
0.239097 0.00978513 -0.225394
0.258626 0.00957616 -0.22542
-0.254209 0.0158372 0.225409
0.21604 0.00936745 0.224781
0.243286 0.0089926 0.224744
0.263561 0.00871365 0.224717
0.282616 0.00845148 0.224691
-0.291839 0.0198855 -0.224673
-0.220738 0.0189073 -0.22477
-0.191335 0.0185028 -0.224811
-0.287602 0.0199182 0.225454
-0.222647 0.0188259 0.225367
-0.192769 0.0183235 0.225328
0.00626999 0.018213 -0.112544
0.0695727 0.0182273 -0.225168
-0.0135331 0.017668 0.262602
0.295297 0.017531 -0.267438
0.00927639 0.0198632 0.262571
0.0207486 0.0199409 0.236489
0.0457327 0.0195176 0.22501
0.079797 0.0187365 0.224964
0.103608 0.0181905 0.224932
-0.267335 0.0325807 -0.224707
0.280381 0.0200215 -0.225449
0.29525 0.0197886 -0.233732
0.295267 0.0199512 -0.246199
-0.291839 0.0375616 -0.224673
-0.251455 0.0365121 -0.224728
-0.016665 0.0287433 -0.112517
0.021235 0.0279562 -0.125918
0.0212634 0.0282606 -0.146517
0.0213041 0.0286982 -0.176121
0.0213463 0.0291495 -0.206655
0.0308506 0.0291758 -0.225116
0.0505515 0.0286638 -0.225142
-0.270667 0.0339122 0.225431
0.294669 0.0179472 0.197182
-0.220738 0.0399155 -0.22477
-0.191335 0.0390615 -0.224811
0.101327 0.0305612 -0.22521
0.118652 0.0300581 -0.225233
0.139521 0.0294519 -0.225261
0.159564 0.0288697 -0.225288
0.178831 0.0283101 -0.225314
0.200988 0.0276666 -0.225343
-0.287602 0.0380255 0.225454
-0.267335 0.045613 -0.224707
0.218697 0.0300103 -0.225367
0.239097 0.0293554 -0.225394
0.258626 0.0287285 -0.22542
-0.238208 0.0399104 0.225388
-0.222647 0.0393632 0.225367
-0.192769 0.0383127 0.225328
0.00626999 0.0380816 -0.112544
0.0695727 0.0381117 -0.225168
0.118726 0.0297397 0.224912
0.147296 0.0286479 0.224873
0.167385 0.0278802 0.224846
0.186424 0.0293247 0.224821
0.21604 0.0281024 0.224781
-0.291839 0.0596566 -0.224673
-0.0135331 0.0394133 0.262602
0.00927639 0.0384022 0.262571
0.0207486 0.0385524 0.236489
0.0457327 0.0377341 0.22501
0.243286 0.0289762 0.224744
0.263561 0.0280773 0.224717
-0.220738 0.0609237 -0.22477
-0.191335 0.0596202 -0.224811
-0.016665 0.0490328 -0.112517
0.021235 0.04769 -0.125918
0.0212634 0.0482094 -0.146517
0.0213041 0.0489557 -0.176121
0.0213463 0.0497256 -0.206655
0.0308506 0.0497705 -0.225116
0.0505515 0.0488971 -0.225142
0.280381 0.0387083 -0.225449
0.29525 0.038258 -0.233732
0.295267 0.0385723 -0.246199
-0.270667 0.0553304 0.225431
0.079797 0.0387221 0.224964
0.103608 0.0375937 0.224932
0.282616 0.0291107 0.224691
-0.251455 0.0665809 -0.224728
0.101327 0.049863 -0.22521
0.118652 0.0490421 -0.225233
0.139521 0.0480531 -0.225261
-0.287602 0.0597545 0.225454
0.159564 0.0501422 -0.225288
0.178831 0.0491702 -0.225314
0.200988 0.0480525 -0.225343
-0.238208 0.0607331 0.225388
-0.222647 0.0599005 0.225367
-0.192769 0.0583019 0.225328
-0.27541 0.0764536 -0.224695
0.00626999 0.0579502 -0.112544
0.0695727 0.057996 -0.225168
0.218697 0.0500172 -0.225367
0.239097 0.0489257 -0.225394
0.258626 0.0478809 -0.22542
-0.220738 0.0777302 -0.22477
-0.191335 0.0801788 -0.224811
0.118726 0.0487732 0.224912
0.294669 0.0387281 0.197182
-0.016665 0.0693222 -0.112517
0.0212407 0.0675694 -0.130002
0.0212692 0.0683068 -0.150691
0.0212924 0.0689085 -0.167569
0.0213221 0.0696756 -0.18909
0.0213524 0.07046 -0.211096
0.0308506 0.0703651 -0.225116
0.0505515 0.0691304 -0.225142
-0.287602 0.0778618 0.225454
-0.254209 0.0756667 0.225409
-0.0135331 0.0584404 0.262602
0.0207632 0.0575649 0.225761
0.147296 0.0492743 0.224873
0.167385 0.0479539 0.224846
0.101327 0.0691648 -0.22521
0.118652 0.0680261 -0.225233
0.295279 0.0575083 -0.254624
0.00927639 0.0595895 0.262571
0.0457327 0.0585528 0.22501
0.186424 0.0488746 0.224821
-0.291839 0.0994277 -0.224673
-0.251455 0.0966497 -0.224728
0.139521 0.0697545 -0.225261
0.159564 0.0683757 -0.225288
0.280381 0.0600646 -0.225449
0.29525 0.0593658 -0.233732
-0.270667 0.0838881 0.225431
-0.222647 0.0804379 0.225367
-0.192769 0.0782912 0.225328
0.079797 0.0587077 0.224964
0.21604 0.0489189 0.224781
-0.220738 0.0987384 -0.22477
0.00626999 0.0778189 -0.112544
0.0695727 0.0778804 -0.225168
0.178831 0.0700303 -0.225314
0.200988 0.0684384 -0.225343
0.103608 0.0594223 0.224932
0.243286 0.0489597 0.224744
-0.334854 0.110373 -0.198521
-0.323716 0.110374 -0.218073
-0.267335 0.10643 -0.224707
-0.191335 0.100738 -0.224811
0.218697 0.0700241 -0.225367
0.239097 0.068496 -0.225394
0.263561 0.0493773 0.224717
0.282616 0.0478917 0.224691
-0.30851 0.110373 -0.1434
-0.295669 0.110373 -0.165942
-0.284969 0.110373 -0.184728
-0.278548 0.110373 -0.195999
0.0213524 0.0876453 -0.211096
0.0308506 0.0875274 -0.225116
0.258626 0.0697693 -0.22542
-0.26768 0.110373 -0.121361
-0.257383 0.110373 -0.139438
-0.247086 0.110373 -0.157514
-0.23473 0.110373 -0.179206
-0.222374 0.110373 -0.200897
-0.016665 0.0896116 -0.112517
0.0212464 0.0875348 -0.134104
0.0212634 0.0881067 -0.146517
0.0213041 0.0894708 -0.176121
0.0505515 0.0893636 -0.225142
-0.287602 0.0995908 0.225454
-0.229819 0.110373 -0.100926
-0.219897 0.110373 -0.118345
-0.20799 0.110373 -0.139247
-0.196083 0.110373 -0.16015
-0.186161 0.110373 -0.177569
-0.174254 0.110373 -0.198472
0.101327 0.0884667 -0.22521
-0.238208 0.0989082 0.225388
-0.222647 0.0975522 0.225367
0.118726 0.0678066 0.224912
-0.194615 0.110373 -0.081924
-0.185041 0.110373 -0.0987318
-0.173552 0.110373 -0.118901
-0.162063 0.110373 -0.13907
-0.150574 0.110373 -0.15924
-0.139085 0.110373 -0.179409
0.118652 0.0901741 -0.225233
0.139521 0.0883557 -0.225261
-0.335691 0.110372 0.241061
-0.324592 0.110372 0.221576
-0.270667 0.105306 0.225431
-0.192769 0.0982804 0.225328
-0.0135331 0.0801857 0.262602
0.00927639 0.0781285 0.262571
0.0207413 0.0781618 0.241797
0.147296 0.067609 0.224873
-0.161799 0.110372 -0.0642107
-0.150699 0.110373 -0.0836962
-0.139599 0.110373 -0.103182
-0.1285 0.110373 -0.122667
-0.1211 0.110373 -0.135658
-0.110001 0.110373 -0.155143
0.00626999 0.0976876 -0.112544
0.0695727 0.0977647 -0.225168
0.159564 0.0896481 -0.225288
0.178831 0.0879104 -0.225314
0.280381 0.0787513 -0.225449
0.29525 0.0778351 -0.233732
0.295267 0.0784746 -0.246199
-0.336899 0.110371 0.313566
-0.326164 0.110371 0.29472
-0.31006 0.110372 0.26645
0.0457327 0.0793716 0.22501
0.167385 0.0680276 0.224846
0.294667 0.057508 0.199291
-0.131134 0.110372 -0.0476589
-0.118609 0.110372 -0.0696467
-0.107873 0.110372 -0.0884933
-0.0971375 0.110372 -0.10734
-0.081034 0.110373 -0.13561
0.200988 0.0888242 -0.225343
-0.322845 0.111292 0.33804
-0.299917 0.110371 0.314558
-0.284325 0.110371 0.287185
-0.272197 0.110371 0.265896
0.079797 0.0786933 0.224964
0.186424 0.0684244 0.224821
-0.102416 0.110372 -0.032158
-0.0920212 0.110372 -0.0504064
-0.0816264 0.110372 -0.0686548
-0.069499 0.110372 -0.0899445
-0.0591042 0.110372 -0.108193
-0.0469767 0.110372 -0.129483
0.0213341 0.107541 -0.197834
0.0213646 0.108757 -0.220038
0.218697 0.090031 -0.225367
0.239097 0.0880663 -0.225394
-0.28978 0.11154 0.337996
-0.271928 0.110371 0.327279
-0.260174 0.110371 0.306645
-0.253457 0.110371 0.294854
-0.236666 0.110371 0.265376
0.103608 0.0788255 0.224932
0.21604 0.0676538 0.224781
-0.0754655 0.110372 -0.0176112
-0.0637113 0.110372 -0.0382459
-0.0519571 0.110372 -0.0588805
-0.040203 0.110372 -0.0795152
-0.0284488 0.110372 -0.10015
-0.00507742 0.10875 -0.112531
0.021252 0.107587 -0.138224
0.0212807 0.108766 -0.159093
0.0213102 0.109972 -0.180425
0.0387183 0.110373 -0.218063
0.258626 0.0889216 -0.22542
0.295297 0.0876553 -0.267438
-0.243982 0.110371 0.336381
-0.237465 0.110371 0.324942
-0.226062 0.110371 0.304924
-0.214659 0.110371 0.284905
-0.203255 0.110372 0.264887
-0.0501241 0.110372 -0.00393286
-0.0387208 0.110372 -0.0239515
-0.0273173 0.110372 -0.0439701
-0.0159141 0.110372 -0.0639889
-0.00451082 0.110372 -0.0840076
0.0378445 0.110372 -0.158363
0.0492479 0.110372 -0.178382
0.0606513 0.110372 -0.198401
0.101327 0.107769 -0.22521
-0.21291 0.110371 0.336625
-0.201837 0.110372 0.317187
-0.189182 0.110372 0.294972
-0.173363 0.110372 0.267203
-0.160709 0.110372 0.244988
0.243286 0.0689433 0.224744
-0.0262518 0.110372 0.00895256
-0.0167608 0.110372 -0.00770891
-0.00410616 0.110372 -0.0299242
0.00696653 0.110372 -0.0493627
0.0180395 0.110372 -0.068801
0.0291122 0.110372 -0.0882394
0.040185 0.110372 -0.107678
0.0528397 0.110372 -0.129893
0.0639125 0.110372 -0.149332
0.0749853 0.110372 -0.16877
0.0860582 0.110372 -0.188209
0.097131 0.110372 -0.207647
0.118652 0.109158 -0.225233
-0.183588 0.110371 0.336855
-0.17129 0.110372 0.315266
-0.160529 0.110372 0.296375
-0.149768 0.110372 0.277485
-0.137469 0.110372 0.255895
0.263561 0.068741 0.224717
-0.00372487 0.110372 0.0211118
0.00703621 0.110372 0.00222102
0.0193346 0.110372 -0.0193683
0.0300955 0.110372 -0.0382591
0.0423936 0.110372 -0.0598487
0.0531545 0.110372 -0.0787395
0.0639154 0.110372 -0.0976304
0.0762136 0.110372 -0.11922
0.0869746 0.110372 -0.138111
0.0992728 0.110372 -0.1597
0.110034 0.110372 -0.178591
0.122332 0.110372 -0.200181
0.139521 0.110057 -0.225261
0.159564 0.107882 -0.225288
-0.322845 0.128957 0.33804
-0.155873 0.110372 0.337073
-0.143912 0.110372 0.316075
-0.13195 0.110372 0.295077
-0.121484 0.110372 0.276704
-0.109523 0.110372 0.255706
-0.0135331 0.0992129 0.262602
0.0207595 0.0975554 0.228457
0.282616 0.0685509 0.224691
0.0175673 0.110372 0.0326044
0.032519 0.110372 0.0063571
0.0444806 0.110372 -0.0146407
0.0549467 0.110372 -0.0330139
0.0669082 0.110372 -0.0540119
0.0788696 0.110372 -0.0750098
0.0953165 0.110372 -0.103882
0.107278 0.110372 -0.12488
0.117744 0.110372 -0.143253
0.129705 0.110372 -0.164252
0.140171 0.110372 -0.182625
0.152133 0.110372 -0.203623
0.178831 0.10877 -0.225314
0.295279 0.0976304 -0.254624
-0.28978 0.128699 0.337996
-0.129636 0.110372 0.337279
-0.117994 0.110372 0.316841
-0.106351 0.110372 0.296403
-0.0947089 0.110372 0.275965
-0.0830665 0.110372 0.255527
0.00927639 0.0993159 0.262571
0.0457327 0.097588 0.22501
0.118726 0.0892193 0.224912
0.0377238 0.110372 0.0434842
0.0537322 0.110372 0.0153821
0.0639194 0.110372 -0.00250113
0.0755618 0.110372 -0.0229391
0.0872043 0.110372 -0.043377
0.0988468 0.110372 -0.0638149
0.110489 0.110372 -0.084253
0.122132 0.110372 -0.104691
0.132319 0.110372 -0.122574
0.143961 0.110372 -0.143012
0.155604 0.110372 -0.16345
0.167246 0.110372 -0.183888
0.178889 0.110372 -0.204327
0.200988 0.10921 -0.225343
0.280381 0.100108 -0.225449
0.29525 0.0989429 -0.233732
0.253109 0.110372 -0.334621
-0.258555 0.128456 0.337953
-0.104762 0.110372 0.337474
-0.0920047 0.110372 0.315078
-0.0806647 0.110372 0.295171
-0.0693247 0.110372 0.275264
-0.0579846 0.110372 0.255357
0.147296 0.0882354 0.224873
0.0568333 0.110372 0.0537988
0.0724259 0.110372 0.0264266
0.083766 0.110372 0.0065195
0.0951061 0.110372 -0.0133876
0.106446 0.110372 -0.0332947
0.117786 0.110372 -0.0532018
0.129126 0.110372 -0.0731089
0.140466 0.110372 -0.093016
0.151806 0.110372 -0.112923
0.163147 0.110372 -0.13283
0.180157 0.110372 -0.162691
0.191497 0.110372 -0.182598
0.202837 0.110372 -0.202505
0.218697 0.110038 -0.225367
0.239097 0.107637 -0.225394
0.266624 0.110372 -0.314484
0.277964 0.110372 -0.334392
-0.229019 0.128226 0.337914
-0.0811477 0.110372 0.337659
-0.0714765 0.110372 0.320682
-0.0604236 0.110372 0.301279
-0.0493706 0.110372 0.281875
-0.0383177 0.110372 0.262472
0.079797 0.0986789 0.224964
0.167385 0.0881013 0.224846
0.07912 0.110372 0.0563149
0.0901731 0.110372 0.0369119
0.102608 0.110372 0.0150833
0.119187 0.110372 -0.0140213
0.13024 0.110372 -0.0334244
0.141293 0.110372 -0.0528275
0.153728 0.110372 -0.074656
0.164781 0.110372 -0.0940591
0.175834 0.110372 -0.113462
0.186887 0.110372 -0.132865
0.19794 0.110372 -0.152269
0.207611 0.110372 -0.169246
0.218664 0.110372 -0.188649
0.229717 0.110372 -0.208053
0.258626 0.108074 -0.22542
0.290509 0.110372 -0.314771
0.301562 0.110372 -0.334174
-0.201041 0.128007 0.337876
-0.0599071 0.110532 0.337686
-0.0492669 0.110372 0.321277
-0.0384868 0.110372 0.302353
-0.0263593 0.110372 0.281064
0.103608 0.0982287 0.224932
0.186424 0.0879742 0.224821
0.0962638 0.110372 0.0658034
0.107044 0.110372 0.0468794
0.117824 0.110372 0.0279554
0.127257 0.110372 0.0113969
0.138037 0.110372 -0.00752717
0.150164 0.110372 -0.0288167
0.160944 0.110372 -0.0477407
0.173072 0.110372 -0.0690303
0.183852 0.110372 -0.0879543
0.19598 0.110372 -0.109244
0.20676 0.110372 -0.128168
0.21754 0.110372 -0.147092
0.232362 0.110372 -0.173113
0.24449 0.110372 -0.194402
0.25527 0.110372 -0.213326
0.291653 0.110372 -0.277195
0.306476 0.110372 -0.303216
-0.174499 0.127801 0.33784
-0.0400479 0.110741 0.337659
-0.0281277 0.110372 0.321844
-0.0162923 0.110372 0.301067
-0.00445706 0.110372 0.280291
0.294664 0.0780971 0.201392
0.115211 0.110372 0.0702175
0.125732 0.110372 0.0517496
0.137567 0.110372 0.030973
0.149402 0.110372 0.0101965
0.159923 0.110372 -0.00827152
0.171758 0.110372 -0.0290481
0.182278 0.110372 -0.0475161
0.196744 0.110372 -0.0729097
0.208579 0.110372 -0.0936862
0.220415 0.110372 -0.114463
0.230935 0.110372 -0.132931
0.24277 0.110372 -0.153707
0.254606 0.110372 -0.174484
0.265126 0.110372 -0.192952
0.276962 0.110372 -0.213729
0.308523 0.110372 -0.269133
0.325618 0.110372 -0.299144
-0.322845 0.150156 0.33804
-0.149286 0.127604 0.337806
-0.0210532 0.110942 0.337634
-0.00798315 0.110372 0.322384
0.00357372 0.110372 0.302096
0.0151305 0.110372 0.281808
0.0279714 0.110372 0.259267
0.21604 0.0884704 0.224781
0.124279 0.110372 0.0902032
0.146108 0.110372 0.0518821
0.157665 0.110372 0.0315945
0.169222 0.110372 0.0113068
0.180779 0.110372 -0.0089809
0.192336 0.110372 -0.0292686
0.202609 0.110372 -0.047302
0.218018 0.110372 -0.0743524
0.229575 0.110372 -0.09464
0.239848 0.110372 -0.112674
0.251405 0.110372 -0.132961
0.262961 0.110372 -0.153249
0.274518 0.110372 -0.173537
0.286075 0.110372 -0.193824
0.297632 0.110372 -0.214112
0.320746 0.110372 -0.254688
0.331019 0.110372 -0.272721
-0.28978 0.149291 0.337996
-0.00286758 0.111133 0.337609
0.0149988 0.110372 0.316292
0.02629 0.110372 0.296471
0.0375811 0.110372 0.276649
0.0488723 0.110372 0.256828
0.139202 0.110372 0.0982582
0.149238 0.110372 0.0806393
0.165548 0.110372 0.0520086
0.176839 0.110372 0.0321873
0.18813 0.110372 0.0123661
0.200676 0.110372 -0.00965759
0.211967 0.110372 -0.0294789
0.223259 0.110372 -0.0493002
0.245841 0.110372 -0.0889428
0.257132 0.110372 -0.108764
0.268424 0.110372 -0.128585
0.279715 0.110372 -0.148407
0.291006 0.110372 -0.168228
0.319862 0.110372 -0.218883
0.336171 0.110372 -0.247514
-0.258555 0.148475 0.337953
-0.125304 0.130346 0.337774
0.0283632 0.110372 0.325544
0.0455326 0.110372 0.295404
0.05657 0.110372 0.276028
0.0676075 0.110372 0.256652
0.0786449 0.110372 0.237276
0.243286 0.0889268 0.224744
0.15836 0.110372 0.0973398
0.170624 0.110372 0.075811
0.187793 0.110372 0.0456708
0.198831 0.110372 0.026295
0.209868 0.110372 0.00691906
0.222132 0.110372 -0.0146097
0.23317 0.110372 -0.0339856
0.244207 0.110372 -0.0533614
0.255245 0.110372 -0.0727373
0.267508 0.110372 -0.0942661
0.278546 0.110372 -0.113642
0.289583 0.110372 -0.133018
0.301847 0.110372 -0.154547
0.312885 0.110372 -0.173923
0.323922 0.110372 -0.193299
0.337371 0.111007 -0.225094
-0.229019 0.147703 0.337914
-0.102466 0.130098 0.337743
0.045938 0.110372 0.325967
0.085519 0.110372 0.256484
0.0975134 0.110372 0.235428
0.118726 0.108253 0.224912
0.263561 0.0881047 0.224717
0.176676 0.110372 0.0964616
0.18867 0.110372 0.0754061
0.205462 0.110372 0.0459283
0.216257 0.110372 0.0269783
0.228252 0.110372 0.00592268
0.239047 0.110372 -0.0130273
0.251041 0.110372 -0.0340829
0.261836 0.110372 -0.053033
0.296619 0.110372 -0.114094
0.307414 0.110372 -0.133044
0.319409 0.110372 -0.1541
0.330204 0.110372 -0.17305
0.337329 0.111001 -0.193487
-0.080691 0.129862 0.337714
0.0686249 0.110372 0.31607
0.0803613 0.110372 0.295468
0.090924 0.110372 0.276925
0.18012 0.110372 0.120345
0.208288 0.110372 0.070898
0.276359 0.110372 -0.0485982
0.288095 0.110372 -0.069201
0.298658 0.110372 -0.0877435
-0.201041 0.150132 0.337876
-0.0599071 0.129636 0.337686
0.0731228 0.110372 0.336844
0.0961013 0.110372 0.296506
0.107591 0.110372 0.276337
0.11908 0.110372 0.256168
0.130569 0.110372 0.235999
0.147296 0.108862 0.224873
0.282616 0.0892101 0.224691
0.198356 0.110372 0.117002
0.209845 0.110372 0.0968332
0.227079 0.110372 0.0665797
0.238569 0.110372 0.0464106
0.250058 0.110372 0.0262416
0.261547 0.110372 0.00607255
0.273037 0.110372 -0.0140964
0.284526 0.110372 -0.0342655
0.296015 0.110372 -0.0544346
0.306356 0.110372 -0.0725867
0.317845 0.110372 -0.0927557
0.329335 0.110372 -0.112925
-0.174499 0.149357 0.33784
-0.0400479 0.12942 0.337659
0.0886875 0.110372 0.337008
0.0999399 0.110372 0.317255
0.146075 0.110372 0.236267
0.167385 0.108175 0.224846
0.225967 0.110372 0.0960198
0.26535 0.110372 0.0268837
0.276603 0.110372 0.00713056
0.287855 0.110372 -0.0126227
0.300233 0.110372 -0.0343512
0.337344 0.119305 -0.205175
-0.149286 0.148621 0.337806
-0.0210532 0.129214 0.337634
0.115751 0.110372 0.315876
0.126776 0.110372 0.296522
0.137801 0.110372 0.277168
0.149929 0.110372 0.255878
0.186424 0.107524 0.224821
0.216079 0.110372 0.139754
0.226002 0.110372 0.122335
0.249155 0.110372 0.0816915
0.26018 0.110372 0.0623373
0.31751 0.110372 -0.038304
0.328536 0.110372 -0.0576581
0.337439 0.127799 -0.275268
-0.125304 0.147921 0.337774
-0.00286758 0.129017 0.337609
0.117968 0.110372 0.337316
0.16984 0.110372 0.246256
0.24981 0.110372 0.105872
0.26602 0.110372 0.077416
0.277908 0.110372 0.056548
0.289795 0.110372 0.0356801
0.300602 0.110372 0.0167092
0.31249 0.110372 -0.00415871
0.323297 0.110372 -0.0231295
0.335184 0.110372 -0.0439974
0.337244 0.117689 -0.130739
0.337399 0.127774 -0.245582
0.138113 0.110372 0.3263
0.14977 0.110372 0.305837
0.160367 0.110372 0.287235
0.172023 0.110372 0.266772
0.186859 0.110372 0.240729
0.294675 0.0976726 0.192939
0.237724 0.110372 0.151437
0.249381 0.110372 0.130974
0.266336 0.110372 0.10121
0.325679 0.110372 -0.00296354
0.3371 0.110432 -0.0236771
0.337371 0.128469 -0.225094
-0.102466 0.150113 0.337743
0.0312745 0.128646 0.337563
0.185558 0.110372 0.266434
0.21604 0.109287 0.224781
0.2656 0.110372 0.125923
0.288469 0.110372 0.085777
0.299904 0.110372 0.065704
0.310299 0.110372 0.0474559
0.321734 0.110372 0.027383
0.337176 0.117705 -0.0798573
0.337323 0.127726 -0.189633
-0.080691 0.149411 0.337714
0.0473203 0.128472 0.337542
0.15575 0.110736 0.337396
0.166964 0.110372 0.321619
0.178185 0.110372 0.301922
0.206747 0.110372 0.251782
0.257751 0.110372 0.162247
0.286313 0.110372 0.112107
0.337288 0.127704 -0.163242
-0.0599071 0.14874 0.337686
0.199121 0.110372 0.286888
0.225156 0.110372 0.241184
0.243286 0.10891 0.224744
0.27923 0.110372 0.14626
0.290245 0.110372 0.126924
0.308269 0.110372 0.0952823
0.319285 0.110372 0.075946
0.3303 0.110372 0.0566098
-0.0400479 0.1481 0.337659
0.0775586 0.128144 0.337501
0.182919 0.110372 0.336264
0.193736 0.110372 0.317276
0.217335 0.110372 0.275848
0.228152 0.110372 0.25686
0.278301 0.110372 0.168825
0.337221 0.127662 -0.113338
0.205928 0.110372 0.316067
0.216553 0.110372 0.297416
0.24553 0.110372 0.246547
0.263561 0.109405 0.224717
0.299622 0.110372 0.151592
0.311213 0.110372 0.131245
0.327634 0.110372 0.102419
0.337344 0.138985 -0.205175
-0.0210532 0.150097 0.337634
0.105555 0.12784 0.337464
0.205357 0.110372 0.336561
0.239525 0.110372 0.27658
0.282616 0.107991 0.224691
0.29932 0.110372 0.171613
0.327794 0.110372 0.12163
0.337024 0.117604 0.0332685
0.337427 0.147593 -0.266663
-0.00286758 0.149455 0.337609
0.227196 0.110372 0.31705
0.23839 0.110372 0.297398
0.256115 0.110372 0.266282
0.26731 0.110372 0.246631
0.31862 0.110372 0.15656
0.329814 0.110372 0.136908
0.337129 0.127604 -0.0449332
0.337264 0.137783 -0.144993
0.337393 0.147593 -0.241437
0.13155 0.127558 0.337429
0.226287 0.110372 0.336837
0.312505 0.110372 0.185485
0.3371 0.127586 -0.0236771
0.0312745 0.14825 0.337563
0.247959 0.110372 0.316383
0.258784 0.110372 0.297381
0.275923 0.110372 0.267294
0.28765 0.110372 0.246709
0.302985 0.110372 0.219789
0.328243 0.110372 0.175451
0.337073 0.127569 -0.00312948
0.337329 0.147595 -0.193487
0.0473203 0.147683 0.337542
0.245855 0.110372 0.337096
0.316847 0.110372 0.212475
0.337171 0.137535 -0.0766023
0.337298 0.147595 -0.17068
0.15575 0.129365 0.337396
0.277873 0.110372 0.297365
0.295337 0.110372 0.266709
0.307561 0.110372 0.245249
0.337146 0.137685 -0.0574118
0.0689775 0.152681 0.297756
0.0784886 0.152681 0.28106
0.0891885 0.152681 0.262276
0.101077 0.152681 0.241406
0.112966 0.152681 0.220535
0.123666 0.152681 0.201752
0.135555 0.152681 0.180881
0.146255 0.152681 0.162098
0.158144 0.152682 0.141228
0.168844 0.152682 0.122444
0.336995 0.12752 0.0546007
0.0775586 0.148924 0.337501
0.178336 0.129051 0.337366
0.136081 0.152682 0.201345
0.336851 0.117537 0.161512
0.336971 0.127505 0.0726417
0.337212 0.147597 -0.106503
0.0904871 0.152681 0.302117
0.102013 0.152681 0.281884
0.113539 0.152682 0.261651
0.125064 0.152682 0.241418
0.13659 0.152682 0.221185
0.159642 0.152682 0.180718
0.171168 0.152682 0.160485
0.181541 0.152682 0.142275
0.193067 0.152682 0.122042
0.33695 0.127771 0.0876626
0.105555 0.14785 0.337464
0.199463 0.128757 0.337337
0.105298 0.152682 0.296228
0.128003 0.152682 0.25637
0.157519 0.152682 0.204555
0.196118 0.152682 0.136796
0.337042 0.1376 0.0195308
0.150986 0.152682 0.235539
0.16217 0.152682 0.215905
0.178946 0.152682 0.186455
0.190131 0.152682 0.166821
0.336905 0.127734 0.121214
0.219269 0.128481 0.337311
0.130315 0.152682 0.29077
0.150153 0.152682 0.255945
0.177706 0.152682 0.207577
0.215178 0.152682 0.141797
0.336884 0.127717 0.137248
0.337108 0.1476 -0.0296765
0.13155 0.148996 0.337429
0.129792 0.152682 0.310087
0.148259 0.152682 0.27767
0.168897 0.152682 0.24144
0.198226 0.152682 0.189954
0.209089 0.152682 0.170885
0.337084 0.1476 -0.0118511
0.237874 0.128222 0.337285
0.145347 0.152682 0.300659
0.167834 0.152682 0.261183
0.195676 0.152682 0.212307
0.15575 0.147993 0.337396
0.167857 0.152682 0.27852
0.188975 0.152682 0.24145
0.218539 0.152682 0.189551
0.229098 0.152682 0.171015
0.239656 0.152682 0.15248
0.336823 0.127667 0.182636
0.255383 0.127979 0.337262
0.167879 0.152682 0.29538
0.187664 0.152682 0.260648
0.215779 0.152682 0.211293
0.336803 0.127651 0.196923
0.337016 0.147602 0.038675
0.16482 0.152682 0.317189
0.207959 0.152682 0.241459
0.237746 0.152682 0.189169
0.248018 0.152682 0.171138
0.178336 0.149059 0.337366
0.188189 0.152682 0.292162
0.336974 0.147602 0.070099
0.182941 0.152682 0.316948
0.208939 0.152682 0.271309
0.227938 0.152682 0.237957
0.237937 0.152682 0.220404
0.267935 0.152683 0.167744
0.336851 0.137583 0.161512
0.336954 0.147603 0.0851868
0.199463 0.148119 0.337337
0.197568 0.152682 0.306437
0.257766 0.152683 0.200761
0.233248 0.152683 0.258577
0.336915 0.147604 0.114195
0.21801 0.152683 0.299726
0.228589 0.152683 0.281155
0.252632 0.152683 0.238948
0.262249 0.152683 0.222066
0.288215 0.152683 0.176483
0.336896 0.147604 0.128144
0.219269 0.149113 0.337311
0.247787 0.152683 0.261489
0.278175 0.152683 0.208144
0.266508 0.152683 0.242312
0.237874 0.148229 0.337285
0.243086 0.152683 0.29678
0.254202 0.152683 0.277267
0.296813 0.152683 0.202466
0.307929 0.152683 0.182952
0.239448 0.152683 0.316194
0.267816 0.152683 0.266396
0.287948 0.152683 0.231055
0.336825 0.147606 0.180562
0.257597 0.152683 0.297051
0.255383 0.149161 0.337262
0.293185 0.152683 0.246993
0.308374 0.152683 0.22033
0.258184 0.152683 0.320559
0.288206 0.152683 0.267858
0.278106 0.152683 0.297433
0.306907 0.152683 0.246873
