ply
format ascii 1.0
comment Created by Open3D
element vertex 1621
property double x
property double y
property double z
end_header
0.0220206 0.0439417 -0.125776
-0.083569 0.104977 0.15984
-0.0861295 -0.0378806 0.266992
-0.0759521 -0.0378806 -0.196818
-0.148492 0.180358 0.438491
0.14925 0.0232789 -0.0152297
0.0876144 -0.0378806 -0.163629
-0.123799 0.187889 -0.153491
0.122627 -0.0378806 0.258305
-0.134677 0.114039 0.438659
0.0520514 -0.0378806 -0.360037
-0.0506809 0.0427316 0.127388
-0.0852652 -0.0378806 0.436641
0.0250709 -0.0378806 -0.0248897
0.0132491 0.046972 0.30781
-0.00625937 0.046972 -0.0724407
-0.0961674 0.132012 -0.438659
0.0331696 0.046972 -0.0926864
-0.144882 0.144495 -0.0933467
0.14925 -0.0124353 -0.237372
0.0633347 -0.0378806 -0.413888
-0.083569 0.113878 -0.309182
-0.109384 0.187889 -0.220027
0.1035 0.0612762 -0.438659
-0.0536773 -0.000207821 0.438659
0.0668693 -0.0378806 0.177568
-0.130414 0.00077915 -0.294432
-0.127451 -0.0286501 -0.281319
-0.0641654 0.0439417 -0.24179
0.112285 0.0434419 -0.438659
0.12144 0.0439417 0.356356
-0.140698 0.102939 -0.0222551
0.0663962 0.046972 0.159395
-0.128747 -0.0157791 0.199583
0.0262768 0.0616949 -0.438659
-0.102672 0.187889 0.217715
0.126213 0.0833088 -0.404798
0.0972824 0.046972 0.0849685
-0.083569 0.140841 -0.198682
-0.0465728 -0.0378806 0.115396
0.142086 0.0438983 0.404798
0.14925 0.056374 0.433622
-0.083569 0.13641 0.15863
-0.083569 0.141914 0.115145
0.12571 0.0439417 0.0242802
-0.135529 0.187889 0.238485
0.108459 -0.0378806 0.322175
-0.0371566 -0.0378806 0.126327
-0.138123 0.0773605 0.0975509
-0.0479671 0.0376248 0.438659
-0.0270844 0.102914 -0.438659
-0.138267 0.0787845 0.430487
-0.083569 0.0369712 -0.32768
0.12082 0.104098 -0.438659
-0.0222845 0.046972 0.326298
-0.0967756 -0.0378806 0.327643
-0.0738959 -0.128767 -0.372458
-0.0612418 0.039819 0.395506
-0.083569 0.153695 0.149523
0.067506 0.046972 0.168891
-0.0977711 0.187889 0.382536
0.14925 0.00896826 0.423676
-0.083569 0.133935 -0.416588
-0.148675 0.182173 -0.0201573
-0.00140485 0.0862822 0.404798
0.133354 0.0977892 -0.404798
-0.132694 0.0234319 0.248918
0.13147 0.0439417 -0.041917
-0.083569 0.154203 -0.38689
-0.139669 0.0927176 0.425358
-0.037845 0.046972 0.327855
-0.0664165 0.0363654 -0.395515
-0.129968 -0.00365189 -0.178392
0.074544 -0.0378806 0.0584636
0.0443976 0.115083 0.438659
-0.083569 0.162404 -0.20738
0.0364969 -0.0378806 -0.356404
-0.083569 0.180794 0.0366865
-0.0753895 -0.0378806 0.169655
-0.142437 0.120213 -0.0907329
-0.11755 0.00881091 -0.438659
-0.0566199 0.0439417 0.370773
0.0344017 0.0464387 0.376269
-0.145371 0.149352 0.227923
-0.123593 -0.0378806 -0.351305
-0.131215 0.00873719 0.0496292
-0.0259407 -0.0378806 -0.135796
0.114045 -0.0364881 -0.438659
-0.083569 0.0544093 -0.0375998
0.0102448 0.0439417 -0.1256
0.0220528 0.0914758 0.438659
0.0221948 -0.0378806 0.0621716
-0.083569 0.143383 -0.286407
-0.0519803 0.0430903 0.404798
0.048437 0.0900358 -0.438659
-0.142215 0.118004 -0.236515
0.14925 0.0162729 0.291837
-0.0672229 0.0439417 0.332609
-0.0512291 -0.0765519 0.395129
-0.083569 0.0841682 0.0809206
-0.124919 -0.0378806 -0.406932
-0.083569 0.130505 -0.28762
-0.140845 0.104402 -0.391717
-0.103572 0.187889 -0.391911
-0.131508 0.0116523 0.183767
-0.0121839 -0.0378806 0.227643
-0.0512291 -0.15439 -0.401727
-0.118028 -0.0378806 -0.318067
0.102578 0.0997575 0.404798
-0.083569 0.12871 0.374622
0.118851 -0.0378806 0.38444
-0.083569 0.181543 0.0879758
-0.135054 0.0468766 0.319463
0.0897304 0.119703 -0.436897
-0.145767 0.153288 0.430333
0.00844284 0.119703 0.408365
-0.0528949 0.0453153 0.0650697
0.000367329 0.0675075 -0.438659
0.139958 0.037319 -0.0343646
-0.140344 0.0994214 0.384658
0.000486989 -0.0378806 -0.0624821
0.141421 -0.0378806 -0.223718
-0.147093 0.166467 -0.267043
0.0306465 0.0439417 0.381112
-0.120035 0.187889 0.16285
-0.0147353 0.103543 0.404798
0.134406 0.0552319 -0.404798
0.146667 -0.0378806 0.284696
0.106977 -0.0396525 0.372458
-0.127212 -0.0310264 -0.0960554
-0.143533 0.131101 0.107817
0.0611759 -0.0378806 0.419581
0.128089 0.0439417 0.269639
0.0544069 0.046972 -0.351537
0.139958 0.0397162 -0.297556
-0.083569 0.0882308 -0.277463
0.120722 0.0465013 0.325403
0.0312664 -0.0378806 0.239903
-0.122303 0.187889 0.176746
-0.0456027 -0.0378806 0.243249
0.00323247 0.0694082 -0.438659
-0.0913385 0.187889 -0.318205
-0.0557221 -0.144986 -0.372458
0.147989 -0.0378806 0.184139
-0.137763 0.0737807 0.169024
-0.114018 0.187889 -0.277545
0.0787503 0.046972 0.209213
0.14925 -0.0252684 -0.32157
-0.083569 0.136817 -0.197737
0.139958 0.0427499 -0.312118
-0.100527 0.187889 0.288962
0.14925 0.0312358 -0.32651
-0.12092 0.0216456 0.438659
-0.083569 0.168998 -0.402365
0.14925 0.0770208 -0.419123
0.0531228 0.046972 0.205868
-0.147556 0.171066 0.0620363
0.131964 0.00310322 0.438659
-0.083569 0.160624 0.101816
0.135492 0.0439417 -0.0445942
-0.138775 0.0838378 -0.394354
0.00679431 0.0363654 0.134096
0.0140782 0.046479 0.404798
0.0117865 -0.0378806 0.219135
-0.139022 0.0862856 0.320839
0.0447901 -0.0378806 -0.425555
-0.139215 0.0882088 0.0363676
-0.00791184 0.0406081 -0.404798
-0.083569 0.10358 -0.200765
-0.115454 -0.0045527 0.438659
0.14925 0.0329034 -0.172021
0.0108794 -0.0378806 0.0112065
-0.120712 0.187889 -0.335995
-0.0342239 0.0439417 0.388928
-0.0891246 0.187889 0.240202
-0.00134523 -0.0378806 -0.0631328
-0.132049 0.0170224 -0.0587685
0.0412565 -0.0378806 0.14401
0.051695 0.0795632 0.404798
0.0171042 -0.0378806 -0.139951
-0.0775148 -0.0378806 -0.145551
-0.136265 0.0589029 -0.24186
-0.127853 -0.0246618 0.169221
0.128968 0.0439417 -0.382798
-0.083569 0.158949 -0.204117
0.105545 0.046972 -0.0453425
0.130668 -0.0378806 0.0880383
0.0642067 0.046972 0.34831
-0.0512291 -0.181399 -0.393497
-0.142411 0.187889 -0.101157
0.116846 0.0448983 -0.230518
-0.083569 0.185119 0.424042
-0.118477 -0.0378806 0.433943
-0.0742768 0.0370415 0.117715
0.0208647 0.046972 -0.302099
0.14925 -0.0179128 -0.382504
0.0688394 0.060878 -0.404798
0.129245 0.0568032 -0.438659
-0.0903848 0.187889 -0.1812
-0.138225 0.0783716 -0.422075
-0.0733203 0.0439417 -0.282916
0.0682115 0.046972 -0.365701
0.140278 0.0363654 0.251891
-0.0118372 0.046972 0.364601
-0.0735384 -0.144882 0.403882
-0.0680696 -0.0378806 -0.223763
0.14925 -0.0278768 0.406392
0.14925 0.000450476 0.0632624
-0.083569 0.137195 -0.218019
0.0335008 0.046972 0.0447714
0.104452 0.046972 0.376189
0.113278 -0.0378806 -0.272994
0.14925 -0.0300847 0.206566
-0.0780728 -0.0378806 0.0216113
0.127757 0.105996 0.404798
0.0968896 0.114824 -0.404798
-0.0921834 0.0635596 0.438659
0.0394663 -0.0378806 -0.3436
0.0435696 -0.0378806 0.436311
-0.0265338 -0.0378806 -0.264927
0.0830488 -0.128184 0.383166
0.0946368 -0.0378806 0.0632607
-0.0394647 0.046972 0.0334608
0.076392 -0.0378806 -0.0408431
-0.124756 0.187889 0.234266
-0.133491 0.0313412 -0.167688
-0.0512291 -0.180847 -0.375199
-0.120797 0.187889 0.0880084
0.064785 0.0439417 -0.158536
0.14925 0.00200072 0.141013
-0.01361 0.0519803 0.438659
-0.0725122 -0.0534655 0.403882
-0.117028 -0.0378806 -0.294956
-0.0327116 -0.0378806 -0.0171418
-0.14702 0.165742 -0.33801
-0.083569 0.164235 0.188624
0.0538839 -0.0378806 0.196474
-0.043359 0.0439417 0.152944
0.0933114 0.046972 -0.277845
-0.148341 0.178858 0.158589
-0.0742768 0.0394951 0.340923
-0.0121777 -0.0378806 -0.205472
0.0242545 0.046972 0.0573318
0.135626 0.0416484 0.395506
-0.0578045 -0.0378806 -0.363475
-0.083569 0.0883875 -0.159959
-0.083569 0.0704845 -0.236956
-0.0807469 0.0363654 0.183835
-0.134262 0.0390099 0.416843
-0.148243 0.177882 0.294819
-0.139035 0.0864153 -0.0782915
-0.0512291 -0.171416 0.395624
-0.0198943 -0.0378806 0.398963
0.114473 -0.0871222 -0.392585
0.138937 -0.0378806 -0.136561
0.14925 0.00471654 0.014521
-0.083569 0.153935 -0.0966871
-0.0866604 -0.0378806 0.210317
-0.0826537 -0.0600985 -0.382265
0.0087293 0.046972 -0.0550996
0.14925 -0.011364 0.0345461
0.131408 0.0723939 0.438659
0.107661 -0.187889 0.392843
0.112753 -0.0861571 0.372458
-0.0739322 0.0439417 0.152439
-0.14747 0.170207 -0.231153
-0.149118 0.186583 -0.432652
0.14925 0.026684 0.256345
-0.10105 -0.0378806 0.107196
0.00764021 -0.0378806 0.215097
0.0431966 0.046972 -0.0568135
0.00852687 -0.00157069 -0.438659
-0.0834942 0.0363654 0.0585289
0.0313348 -0.0378806 0.358322
-0.132917 0.0256488 0.232359
-0.0427777 -0.0241538 -0.438659
0.0867232 -0.111918 -0.372458
-0.0212271 -0.0378806 -0.390185
-0.0132178 0.046972 -0.251982
-0.0639055 0.0439417 0.272208
-0.109239 0.118942 0.438659
0.14925 0.0173534 0.334276
0.124751 0.0439417 -0.0831228
0.125184 0.0439417 -0.29618
-0.126862 -0.0345048 -0.276123
-0.141828 0.114163 0.417885
0.122347 -0.0378806 -0.306576
-0.147964 0.175118 0.00581604
0.128779 0.0439417 0.344603
-0.083569 0.0488151 0.200315
-0.0742768 0.0392676 -0.0899221
-0.0591062 -0.0378806 0.0612158
-0.129815 -0.00516521 0.384388
0.0203752 -0.0378806 -0.0244238
-0.145016 0.14583 -0.310046
-0.0654425 -0.119545 0.403882
-0.139522 0.0912545 -0.259634
0.110077 -0.0378806 0.0764846
-0.00266891 -0.0378806 0.269871
-0.0523589 -0.0378806 0.364227
-0.133916 0.0355672 -0.174014
-0.0318692 -0.0337343 -0.438659
0.104482 0.0896535 -0.404798
-0.126672 -0.0363877 0.107146
-0.130773 0.00434641 -0.0213264
-0.134931 0.0456469 0.430725
-0.083569 0.171859 0.138779
-0.10678 -0.0378806 0.141995
-0.144084 0.136567 0.431574
0.14925 -0.0273091 -0.407523
0.00504918 0.0137021 -0.438659
-0.114196 -0.0378806 -0.111091
0.0788583 0.046972 0.310165
0.0533468 -0.0378806 0.106944
-0.0350648 -0.0378806 0.376426
-0.0550405 0.0458822 0.314514
0.0348545 0.046972 -0.101777
-0.00901029 -0.0165191 -0.438659
-0.0413751 0.0985726 0.404798
-0.133823 0.0346453 -0.0212445
0.0352661 -0.0330241 -0.438659
0.0922196 -0.121556 0.403882
0.0573491 0.00921395 -0.438659
0.0206769 0.119703 0.433605
0.0775122 0.046972 0.233135
-0.147836 0.173843 -0.386922
-0.10224 -0.0378806 0.248871
-0.0600139 -0.187889 0.395126
0.14925 -0.0028212 0.419642
-0.140861 0.104558 -0.370886
-0.145746 0.153077 -0.24975
-0.128231 -0.0209051 0.311936
-0.0688671 0.0439417 0.270735
0.00989287 -0.0378806 -0.401681
0.0619261 -0.0378806 -0.362957
-0.083569 0.121562 0.0345259
0.0830488 -0.0844157 -0.381464
0.0157472 0.119634 -0.438659
-0.083569 0.135086 -0.411029
0.0313444 -0.0378806 0.100429
0.127877 -0.0378806 -0.0606592
-0.117274 0.187889 0.10451
-0.141677 0.112664 -0.106638
0.14925 -0.00768473 0.305643
0.0456857 -0.0378806 -0.20174
-0.0558824 -0.0378806 0.11268
0.147881 -0.0378806 -0.177402
-0.0637512 -0.15347 0.372458
-0.0653462 -0.070744 0.372458
0.0854655 -0.149737 0.403882
-0.083569 0.18455 0.370037
0.114473 -0.114353 -0.394789
-0.0742768 0.0407153 0.359883
-0.138144 0.0775625 -0.287547
-0.0826537 -0.0908727 0.37799
0.0753273 -0.0378806 -0.33478
0.0329843 0.119703 0.406849
0.14925 0.0224631 -0.378098
-0.134344 0.0398219 -0.367808
-0.0100672 0.0439417 -0.382702
-0.083569 0.143535 0.150628
-0.0272361 0.0439417 0.379795
0.14925 0.0118151 0.213583
-0.083569 0.128486 0.118535
-0.0558887 0.0998361 -0.404798
0.0574166 -0.0378806 -0.171284
-0.136163 0.187889 -0.230936
-0.0826537 -0.124847 0.401883
-0.083569 0.0395478 -0.115002
0.0584299 0.080207 -0.404798
-0.083569 0.131247 -0.264251
-0.115271 -0.0227828 -0.438659
-0.134518 0.0415478 -0.0165662
-0.0515966 -0.164093 -0.372458
0.0988172 0.0439417 -0.127284
-0.083569 0.164141 0.00335714
-0.127004 -0.0330948 0.121518
-0.145004 0.145711 0.33745
-0.03113 -0.0378806 -0.349211
-0.121308 0.187889 0.266101
-0.123822 0.187889 -0.372876
-0.0396933 -0.0378806 0.0119834
0.0279645 0.0440835 -0.372394
-0.0445076 -0.0378806 -0.368976
-0.0708897 -0.0300755 0.438659
-0.106173 0.187889 -0.0346582
0.128736 0.124064 0.430771
0.0897099 0.046972 0.0974701
0.148516 0.0363654 0.0677313
-0.0741655 0.000769386 0.438659
0.114473 -0.0821429 0.379103
-0.124773 0.187889 -0.13991
-0.086 -0.0378806 0.334487
-0.148865 0.18406 0.268746
0.0726679 -0.0378806 -0.0513221
0.100863 -0.187889 0.388554
-0.083569 0.125685 -0.149582
0.00516011 -0.0198537 0.438659
-0.148062 0.176091 -0.137129
-0.0650741 0.123828 -0.412406
0.14925 0.00679843 0.360743
-0.083569 0.125994 -0.410989
-0.083569 0.0760425 -0.37337
0.0799185 -0.0378806 -0.342159
-0.0283272 -0.00194936 0.438659
-0.0617412 -0.139116 0.372458
0.0964238 0.046972 0.187522
-0.141314 0.109053 0.390266
-0.132229 0.0188053 0.217089
-0.083569 0.115233 0.39747
0.14925 0.000410521 0.334704
-0.0464408 0.046972 0.175654
-0.133523 0.0316661 -0.294867
0.0302262 0.050109 -0.404798
0.0811481 0.046972 -0.0812204
0.0949428 0.0345582 -0.438659
-0.0826537 -0.0648854 -0.372681
0.143372 0.0646032 -0.404798
-0.147935 0.17483 0.263257
0.129086 0.0363654 -0.40394
0.124229 0.0363654 0.132636
-0.0807752 -0.0378806 0.411228
-0.141531 0.111216 -0.0296937
-0.0315451 0.0697007 -0.404798
0.0530855 -0.0378806 -0.130891
-0.147858 0.17406 -0.250088
0.0970383 -0.0378806 0.356417
-0.0556402 0.0439417 -0.185642
0.123141 -0.0378806 -0.345505
-0.083569 0.172237 0.302007
-0.058276 -0.0378806 -0.366718
-0.083569 0.106261 -0.185961
-0.0351108 0.127279 -0.429275
-0.144014 0.135877 0.0347581
0.133984 0.127279 -0.430753
-0.0746172 -0.0378806 -0.0417737
-0.145449 0.150128 0.116577
-0.132226 0.0187791 -0.0297661
-0.104368 0.187889 0.276611
-0.0574797 0.0439417 0.0895992
-0.0773055 -0.117973 0.403882
-0.132848 0.187889 0.183224
0.14925 0.0166491 0.0949652
-0.116078 0.187889 -0.251034
0.14925 0.02645 -0.260516
0.041299 0.0422982 -0.404798
0.00530747 0.0363654 0.401666
0.0768376 0.100021 -0.438659
-0.147771 0.173195 0.266208
-0.0479841 -0.010045 -0.438659
-0.00794631 -0.0378806 0.0387512
0.103721 0.046972 0.24702
-0.0109504 0.046972 -0.184975
-0.11205 0.187889 -0.410661
0.14925 0.0146364 -0.403709
-0.083569 0.0779015 0.197847
-0.00834455 -0.0378806 -0.422258
-0.121901 -0.0378806 -0.411285
-0.083569 0.0411691 0.140995
-0.083569 0.142488 -0.012539
-0.132297 0.0194816 -0.117879
0.14925 -0.00389319 -0.123212
-0.083569 0.0818438 -0.0743658
-0.0491532 0.0389094 0.404798
-0.0527859 -0.0612654 -0.403883
0.119451 0.0985639 -0.404798
0.148653 0.0363654 0.14382
-0.127706 -0.0261207 -0.222432
-0.062653 -0.0378806 -0.0647045
-0.147162 0.167144 -0.0862514
-0.142351 0.119358 -0.326332
-0.149071 0.186113 0.15388
-0.131909 0.0156331 0.129722
-0.133183 0.0282873 -0.34529
-0.0387734 0.0439417 -0.146847
-0.083569 0.0764324 0.0877684
-0.083569 0.0940748 -0.404335
0.059859 -0.0378806 0.221982
-0.126433 0.187889 0.422082
-0.00281099 -0.0378806 0.325061
-0.124474 -0.0378806 -0.259956
0.081374 -0.0378806 0.424305
-0.137925 0.187889 -0.250088
-0.0468663 0.0384549 0.127388
-0.142253 0.118385 0.0207544
-0.0107453 0.046972 0.0158348
0.0229398 0.0439417 -0.119321
0.13925 0.0439417 0.155633
-0.0826537 -0.127406 -0.385762
0.0523907 0.046972 -0.050784
-0.131795 0.0145025 -0.147135
0.136735 0.0439417 -0.337783
0.029164 -0.0197056 0.438659
-0.095194 0.187889 0.114464
-0.128218 -0.0210286 0.00523415
-0.0921032 0.166613 0.438659
-0.102761 -0.0378806 -0.430719
-0.123147 -0.0378806 0.433465
-0.132638 0.0228778 0.420048
-0.128149 0.154895 0.438659
-0.083569 0.129469 0.392376
0.0804234 0.0439417 -0.109786
0.0117106 -0.0378806 0.00450783
0.14925 -0.0312342 -0.0605345
-0.0742197 -0.114672 -0.372458
0.126139 -0.0378806 -0.354521
-0.132698 0.0234707 0.403054
-0.0448882 0.119703 -0.434935
0.00490895 -0.0378806 0.291656
-0.143622 0.131979 -0.376512
0.0464046 0.0650232 0.438659
0.14925 0.0287977 -0.33521
-0.127158 -0.0315612 0.238852
-0.130453 0.00117087 0.387512
0.128295 -0.0378806 0.300008
0.00225938 -0.0378806 0.282989
-0.0678593 0.0439417 -0.351369
-0.139398 0.0900221 0.368589
0.092687 -0.0378806 0.155071
-0.144451 0.140213 -0.0526822
-0.0592011 -0.0580427 0.403882
-0.0504696 -0.0378806 0.158232
-0.141152 0.107444 0.428264
0.0938114 0.046972 0.192578
-0.133537 0.0317983 -0.0859997
0.106607 -0.17106 -0.403883
-0.119699 -0.0378806 0.124487
0.0181475 0.0719377 -0.438659
-0.0997267 0.187889 -0.364456
0.0108812 -0.0378806 0.252828
0.0408196 0.046972 -0.00444689
-0.118312 -0.0051979 -0.438659
-0.137939 0.0755265 0.22096
0.12875 -0.0372649 0.438659
-0.05977 0.0439417 -0.0290989
0.0830488 -0.126312 -0.390825
-0.14821 0.177557 0.0881778
-0.0578183 0.0439417 -0.0501406
-0.147239 0.167916 0.157925
0.131093 -0.0378806 0.0541717
-0.0826537 -0.059859 0.390566
0.14925 0.0168926 0.150562
-0.0512291 -0.112177 -0.381767
0.14925 0.0194486 0.137654
-0.083569 0.0478021 0.182403
-0.0612696 0.0439417 0.0418968
-0.083569 0.133582 -0.425526
-0.132496 0.021464 0.216106
-0.083569 0.0663828 -0.165427
-0.135004 0.0463724 0.402269
-0.0912565 -0.0378806 0.310581
0.14925 -0.0116792 -0.194226
-0.130634 0.00296256 0.2069
0.115708 -0.0378806 -0.38548
-0.135576 0.0520607 -0.176022
-0.067068 0.040878 0.139432
-0.0968812 -0.0378806 0.0520855
-0.0540804 0.0778257 -0.438659
-0.137177 0.0679596 0.268373
-0.0586793 -0.0378806 0.301797
-0.083569 0.0674005 -0.349524
-0.0812106 -0.0378806 -0.15179
-0.13335 0.0299443 -0.14155
0.14925 0.0257219 0.0476055
-0.115801 0.187889 -0.0640291
0.14925 0.0936036 -0.431594
-0.141269 0.108605 0.381603
-0.139278 0.187889 0.350563
0.14925 0.013183 -0.0325423
-0.147886 0.174344 0.382125
-0.083569 0.166745 -0.0918851
-0.148797 0.183393 -0.398331
0.148643 -0.0378806 0.178873
0.123372 -0.0378806 0.28414
0.114473 -0.101663 -0.372525
0.0538644 -0.00532253 0.438659
0.0668923 -0.0378806 -0.033955
-0.00386582 0.125172 0.430771
-0.083569 0.173075 0.272031
0.115727 0.0430698 0.438659
-0.083569 0.147422 -0.428069
-0.083569 0.0826312 -0.130109
0.127267 0.0439417 -0.0227059
0.0916364 -0.187889 -0.376264
-0.088078 -0.0378806 -0.170835
-0.0400155 0.046972 0.00354197
-0.116396 -0.0378806 0.0245239
-0.083569 0.1225 0.0882189
-0.0364756 -0.0378806 -0.151426
0.0241711 0.046972 0.162453
0.0144248 -0.0378806 0.400275
0.14925 0.114936 0.421942
-0.083569 0.0553672 0.217679
-0.0592532 0.0439417 0.310787
-0.083569 0.186257 -0.145376
0.0622577 -0.0378806 0.424457
-0.0311585 -0.0378806 0.42118
0.14925 0.0263088 -0.0408461
-0.0746969 0.0363654 -0.198919
-0.137214 0.0683257 0.274599
0.0367781 0.016528 -0.438659
-0.0957059 -0.0378806 0.096163
-0.117359 0.130063 -0.438659
-0.0806534 -0.129385 -0.403883
0.112959 -0.0378806 -0.352078
0.137268 -0.0378806 0.208592
-0.13331 0.0295508 0.34509
0.0636748 0.046972 -0.300591
0.0161966 -0.0378806 -0.0349119
-0.115395 0.187889 0.0808782
0.0160897 0.0439417 -0.150355
0.111205 0.0421489 -0.438659
0.0386314 -0.0378806 0.202351
-0.0872648 -0.0378806 -0.0388324
-0.083569 0.0419697 -0.207652
-0.083569 0.0975777 0.125368
-0.083216 0.0363654 0.118768
0.101278 -0.187889 -0.383862
-0.124104 -0.0378806 0.302132
-0.135648 0.0527719 -0.0819285
0.0595586 -0.0263804 -0.438659
0.114473 -0.10488 -0.381048
-0.147736 0.172849 0.11221
-0.0893835 0.187889 0.309228
-0.0528949 0.045189 0.00195484
-0.0569126 0.0018483 0.438659
0.0587294 0.046972 -0.0270917
0.136298 0.0439417 -0.266245
-0.083569 0.173716 0.385462
-0.0550405 0.0450534 0.235305
0.0647852 0.046972 -0.1658
-0.083569 0.0857988 -0.241226
0.140844 0.0193414 -0.438659
-0.0835523 -0.0378806 0.149357
-0.135498 0.0512803 0.20518
-0.083569 0.172894 -0.103432
-0.083569 0.16757 0.379287
0.0428832 -0.0378806 0.1698
0.031517 0.046972 0.0491085
0.07169 -0.0378806 -0.18497
-0.103197 0.187889 -0.0389349
-0.0672545 0.0472983 0.438659
0.14925 -0.00626439 -0.196317
-0.0789993 0.0363654 -0.216173
0.14925 0.0273705 -0.264825
0.0210532 0.0803968 0.404798
-0.0294055 -0.0378806 -0.136348
0.0840659 -0.0378806 0.225651
0.0736354 0.046972 0.236576
0.0819632 0.046972 -0.220833
-0.083569 0.0897367 -0.254237
-0.0426091 -0.0378806 0.380654
0.0973465 0.0593214 -0.404798
-0.0887701 0.187889 0.175457
-0.0759987 -0.180584 0.372458
-0.083569 0.0500352 0.039634
-0.0833544 0.0363654 -0.196733
-0.128604 -0.0171962 -0.417917
0.0381468 -0.0378806 -0.182943
0.0176912 0.119703 -0.438339
0.14925 -0.0246208 0.256521
-0.0626059 0.0439417 -0.363014
0.100509 0.046972 -0.261428
0.093234 -0.0841918 -0.403883
-0.127637 -0.0268031 -0.152992
0.114473 -0.13234 -0.377578
-0.147265 0.168175 -0.194386
-0.14633 0.15888 -0.177405
0.0928765 0.095074 -0.404798
-0.083569 0.122933 0.144667
-0.0311944 -0.0378806 -0.007616
-0.0435395 0.046972 -0.320421
-0.127214 -0.0310059 0.230195
-0.0874827 -0.0378806 -0.263319
-0.127944 -0.0237517 -0.212713
0.114558 0.046972 0.0824191
-0.083569 0.175041 0.198583
-0.0772346 -0.168116 -0.403883
-0.10464 -0.0378806 -0.196468
0.0725047 -0.0378806 0.0164061
-0.083569 0.119843 0.311554
0.107012 -0.0452893 0.372458
-0.130867 0.00528318 -0.429029
0.0230127 0.0439417 0.108415
-0.083569 0.183693 -0.377824
-0.128118 -0.022027 -0.12918
-0.11014 0.187889 0.236256
0.0273429 0.046972 -0.252049
-0.083569 0.0773235 0.025544
0.00748768 -0.0378806 -0.172666
-0.139068 0.0867487 -0.138142
0.0535999 0.0794236 0.438659
0.116846 0.0459931 -0.178888
-0.0915507 0.187889 -0.232548
-0.127916 -0.0240334 0.251615
-0.0608307 -0.135131 0.372458
0.102525 -0.0617361 0.372458
0.14925 0.00624726 0.0280355
0.114473 -0.106747 -0.39512
0.138829 0.0439417 0.0088046
-0.083569 0.169412 -0.0922872
-0.103484 0.187889 -0.153388
-0.00255102 0.046972 -0.0214358
0.0689219 -0.0378806 -0.324905
0.116203 0.046972 0.191029
-0.0849379 0.187889 -0.389497
0.135015 -0.0378806 0.366778
-0.0356762 -0.0224975 -0.438659
0.0764842 0.118803 0.438659
-0.139103 0.0870911 0.0059489
0.0162257 0.046972 0.222694
-0.136516 0.113782 -0.438659
-0.0826537 -0.109452 -0.385211
0.0413953 0.046972 0.277542
-0.137939 0.0755317 -0.413496
-0.0982051 0.187889 -0.0900718
0.0557537 0.100743 0.404798
-0.0969362 -0.0378806 0.117145
0.135639 -0.0378806 0.262859
-0.142822 0.124035 -0.0231231
-0.11873 0.187889 0.127679
0.129536 0.0439417 0.176228
-0.137096 0.0671542 0.338722
-0.0806848 -0.0378806 -0.424956
-0.101477 -0.0378806 -0.107017
-0.0757326 -0.155164 -0.403883
0.0706454 0.046972 0.0530066
0.112935 0.125802 -0.431052
-0.083569 0.094753 0.362662
-0.078791 0.0363654 0.399159
-0.0578699 -0.0378806 -0.123247
-0.083569 0.0387181 -0.156425
0.0583999 -0.0378806 0.312361
-0.0724523 0.0439417 0.0602388
-0.134599 0.0423501 0.327421
-0.0287325 -0.0378806 -0.189065
0.101016 0.046972 -0.165119
-0.127332 -0.0298307 0.325366
-0.147947 0.174948 -0.0812833
-0.0742768 0.0437544 0.183748
-0.0134857 0.0383433 -0.395506
-0.126516 -0.0378806 -0.121254
0.0972469 -0.128025 0.403882
0.0869546 -0.0378806 0.14732
-0.146563 0.161201 0.0754999
-0.083569 0.179746 0.376718
-0.136137 0.0576351 -0.145662
-0.0203425 0.046972 -0.330326
0.108485 -0.172326 -0.372458
0.14925 -0.0184696 0.152211
-0.145042 0.146092 0.094647
-0.129093 -0.0123441 -0.0843485
-0.137478 0.0709498 -0.0717154
0.13497 -0.0124345 0.438659
-0.083569 0.0904606 0.326824
0.0912586 0.0712493 0.438659
-0.128624 -0.0170028 -0.182189
0.103326 0.0363654 -0.138486
-0.130602 0.00264997 -0.404372
-0.018674 0.046972 -0.284203
-0.0767681 -0.143258 0.372458
-0.0796338 0.080499 0.404798
-0.083569 0.146871 -0.0810227
-0.00422713 0.046972 -0.0456399
0.136519 0.0439417 0.0718573
-0.0497576 -0.0378806 0.267707
0.0830488 -0.0864979 0.381046
-0.083569 0.150105 0.0983476
-0.0981822 -0.0378806 -0.134616
-0.083569 0.124165 -0.179471
-0.14803 0.175766 -0.231371
-0.0630802 -0.0378806 -0.156972
0.0762764 0.016785 0.438659
-0.0458712 0.0447989 -0.404798
-0.0804936 0.0790617 0.404798
0.14925 0.0359677 -0.385248
0.0110427 -0.0378806 -0.00888406
-0.083569 0.131043 -0.359062
0.0187234 0.046972 -0.318627
0.0316149 0.10503 0.404798
-0.0960047 0.187889 0.426465
-0.139297 0.0890187 -0.026067
-0.083569 0.0944042 -0.15442
0.00569391 0.046972 0.252328
-0.0911094 -0.0378806 0.116567
-0.0118745 0.10144 -0.404798
0.0535634 0.0437184 -0.404798
-0.132541 0.0219088 -0.36356
0.074064 0.046972 0.251803
-0.083569 0.0370592 0.354648
-0.148477 0.180206 -0.0773657
-0.106938 -0.0378806 -0.360147
-0.00014241 -0.0378806 0.425565
-0.138549 0.0815886 0.214709
-0.0746818 -0.150308 -0.403883
-0.0826537 -0.120491 -0.3789
0.0401418 -0.0378806 -0.335903
0.14925 0.0180535 -0.355054
-0.0429165 0.0578015 0.404798
0.0113719 0.046972 0.345113
0.14779 -0.0378806 -0.134315
0.00776232 -0.0378806 0.284931
-0.0822017 0.0363654 -0.09948
0.0734216 0.0439417 -0.375638
0.0779514 -0.0378806 0.135605
-0.037057 0.0439417 0.148303
-0.148404 0.187889 -0.389758
-0.083569 0.170041 0.434028
-0.132536 0.021861 0.0941314
0.14925 0.0037828 0.387479
-0.0962528 -0.0378806 0.0902083
-0.0826537 -0.0674949 0.376892
-0.0861699 0.0137908 0.438659
0.140707 0.127279 -0.42791
-0.083569 0.08129 -0.392353
-0.038026 -0.0378806 -0.186653
-0.0290949 -0.0378806 -0.035296
0.14925 -0.0133627 0.208362
0.092392 0.0439417 -0.391015
-0.141444 0.110344 0.243592
-0.118574 0.183826 0.438659
-0.0236026 -0.0378806 -0.109792
-0.083569 0.139676 -0.268559
0.0304473 0.046972 0.198738
0.14925 0.033891 0.295504
-0.0826537 -0.164338 0.372927
0.0267034 0.0631207 -0.404798
-0.139202 0.110914 0.438659
0.0495262 0.0296866 -0.438659
-0.083569 0.115429 0.116794
-0.100235 0.187889 -0.223929
0.115424 -0.0378806 0.438461
0.14925 -0.0285407 -0.219285
-0.0831677 0.0435422 0.404798
-0.0262912 -0.0378806 0.141767
-0.131044 0.187889 0.324158
0.14925 -0.0372941 -0.0294732
-0.0825073 -0.132247 -0.403883
-0.135863 0.0549129 0.201702
-0.136187 0.0581245 0.300992
0.00897569 0.0439417 0.380016
-0.140005 0.0960498 0.0033222
-0.142798 0.123795 0.0416535
-0.127534 -0.0278315 0.335295
-0.132904 0.0255156 0.0257122
-0.083569 0.0402338 -0.0646252
-0.0826537 -0.177025 -0.380831
-0.0680313 -0.0378806 0.0054394
0.0865453 -0.0378806 -0.408479
-0.102367 -0.0378806 0.149176
0.00843004 -0.0378806 0.0687469
-0.0536655 0.105338 0.404798
-0.108541 -0.0378806 -0.176614
-0.0693265 -0.0842984 0.403882
0.14925 -0.0200425 0.00168004
-0.0850581 0.187889 0.100616
-0.147577 0.171269 0.298103
-0.126845 -0.0346751 -0.0207271
-0.146836 0.163906 -0.0327993
0.138336 -0.0378806 -0.221454
-0.115233 0.187889 -0.1794
0.0655226 -0.0378806 -0.177624
-0.142096 0.116822 0.434925
0.0830488 -0.130018 -0.399484
-0.051134 0.046972 -0.345327
-0.135131 0.0476354 -0.275745
-0.0357938 -0.0378806 0.431487
0.14925 0.0254325 0.173025
-0.083569 0.159548 0.0298725
-0.133703 0.0334557 0.335536
0.0961306 -0.0378806 -0.269802
-0.125419 -0.0378806 0.310004
-0.0711992 0.101038 -0.404798
0.0258687 -0.0378806 -0.430609
-0.149035 0.185755 0.421764
0.0621789 -0.0378806 -0.215417
0.0619959 -0.0378806 0.224407
-0.083569 0.089208 0.142462
-0.11785 0.187889 -0.181987
0.0612214 0.0439417 0.155977
-0.129492 -0.00838139 0.15883
-0.083569 0.0998158 -0.165729
-0.12326 0.176646 -0.438659
-0.145768 0.153304 -0.116052
0.0715726 -0.0378806 0.117429
-0.0714433 0.0439417 0.111246
0.0331398 -0.0378806 0.402719
0.13182 0.119703 0.405528
-0.135654 0.187889 0.150101
-0.083569 0.097217 -0.303704
-0.0480216 -0.0378806 -0.405724
-0.0103634 -0.0378806 -0.10015
-0.083569 0.178638 -0.335428
-0.131394 0.0105157 0.0425509
-0.0406336 -0.0378806 0.337117
-0.145613 0.151765 0.306853
-0.0527411 -0.0408038 0.372458
0.0852827 -0.170958 -0.403883
0.0545605 0.0439417 -0.119451
-0.11766 -0.0378806 0.325924
0.138583 -0.0378806 -0.108581
-0.00884612 -0.0378806 0.373314
-0.083569 0.124054 0.270922
0.0945944 -0.0378806 -0.226872
-0.139704 0.0930674 0.112674
-0.113208 -0.0378806 0.31621
0.14925 -0.0169247 -0.305492
0.14925 -0.0256474 -0.255661
0.0775894 0.119703 -0.438016
0.14925 -0.0238248 -0.188011
-0.083569 0.0891763 -0.142852
0.101786 0.118965 -0.404798
-0.129082 -0.0124555 0.0207698
-0.134493 0.0832548 -0.438659
0.0542702 -0.0378806 -0.164056
0.04501 -0.0378806 0.0617135
0.132575 0.0439417 0.343856
-0.128147 -0.0217345 -0.387953
-0.0221476 0.127279 0.414813
-0.067624 0.0439417 0.359319
-0.14374 0.133153 -0.43151
-0.0500571 -0.0378806 -0.412111
-0.142704 0.122868 -0.228365
0.114473 -0.146167 0.39963
0.0644064 0.127279 0.422387
-0.083569 0.132102 -0.264424
-0.083569 0.176366 0.409659
-0.13346 0.0310406 -0.432227
0.120722 0.0448065 0.226486
-0.030677 0.046972 0.187441
-0.140259 0.098572 0.150964
-0.140984 0.105774 0.107601
-0.0107601 -0.0378806 0.349933
-0.083569 0.142376 -0.0151932
-0.124769 0.0714646 0.438659
0.146158 -0.0378806 -0.0388329
-0.083569 0.140386 -0.327459
-0.0541182 0.0439417 0.0910607
0.0576711 0.046972 0.292695
-0.139783 0.0938505 -0.424571
-0.0742768 0.0406795 0.116463
0.114473 -0.0938458 -0.374634
0.10955 -0.0378806 0.174764
-0.0486409 0.046972 0.165554
0.0382525 -0.0378806 0.231491
-0.0742768 0.0429137 0.302404
-0.0773804 -0.0378806 0.0787558
-0.0937226 -0.0378806 0.341652
-0.0512291 -0.15072 0.396024
-0.0144951 0.0942385 0.404798
-0.127386 -0.0292977 -0.17624
-0.141675 0.112646 0.217727
0.0453872 -0.0378806 -0.274571
0.143044 0.0363654 0.384405
-0.131534 0.0119033 0.179567
-0.0867582 0.025981 -0.438659
0.0859273 -0.10401 0.372458
-0.00389212 0.117044 -0.438659
0.0659345 0.0439417 0.382099
-0.132106 0.0175862 -0.145097
-0.135381 0.0501159 0.171114
-0.129827 -0.00504655 0.200461
0.0859263 0.0485285 0.404798
-0.0826537 -0.0760971 -0.376177
-0.083569 0.12919 0.128288
-0.137966 0.075801 -0.132074
-0.0339287 -0.0378806 -0.206917
-0.0613333 0.0584334 -0.438659
-0.128898 -0.0142763 -0.205687
-0.135184 0.0481677 0.0404757
-0.0248207 -0.0378806 -0.0444746
0.147699 0.0363654 -0.0711535
-0.083569 0.155794 0.040219
0.0612723 0.046972 0.213377
-0.083569 0.127734 -0.145056
0.0927822 0.046972 0.375002
-0.083569 0.0581115 0.109994
0.0680944 0.115771 0.438659
0.0635322 0.0931249 0.404798
-0.0392708 0.0769385 0.438659
-0.083569 0.0373749 -0.0246682
0.102694 0.127279 -0.414669
0.0192733 -0.0378806 0.0443872
0.14925 0.0684927 0.426396
-0.083569 0.0959409 -0.276779
-0.134158 0.037974 -0.146157
-0.128533 -0.0179063 -0.339808
-0.0564034 -0.0378806 -0.263514
0.0969651 -0.136022 -0.403883
0.0822395 0.046972 0.183482
-0.128722 -0.0160265 0.417483
-0.0609119 0.0984791 -0.438659
-0.0176197 0.046972 -0.260714
-0.13203 0.0168344 0.306959
-0.129776 0.115844 -0.438659
-0.0342302 0.046972 -0.316469
-0.0295232 0.046972 -0.179049
0.146389 -0.0378806 -0.0543466
-0.124581 0.187889 0.0550098
-0.0660337 -0.0378806 -0.409783
0.119141 -0.0378806 0.243359
0.0858543 0.046972 -0.16998
-0.134993 0.0462634 -0.181272
0.0732798 0.046972 0.0491986
-0.148355 0.178995 -0.118316
0.14925 0.0296771 -0.303398
0.00336594 0.0439417 0.147928
-0.083569 0.109475 -0.233384
0.059121 -0.0378806 -0.372337
-0.0822813 -0.134704 0.372458
-0.0328841 0.0363654 0.128141
-0.083569 0.186827 -0.0783298
-0.0580493 -0.0378806 0.421503
0.0830488 -0.117193 -0.397275
0.14925 -0.0267882 0.0331914
0.00764927 -0.0378806 -0.40111
0.14925 -0.0358592 0.113049
-0.0221903 -0.024627 -0.438659
-0.083569 0.0563344 -0.160093
0.0830488 -0.0715077 -0.401516
-0.0826537 -0.177125 0.376829
0.127657 0.0439417 0.228683
0.0830488 -0.181367 0.377165
-0.077601 -0.0378806 0.300437
-0.083569 0.124104 -0.422963
-0.0181784 -0.0378806 -0.0785005
0.135688 -0.0378806 -0.10355
-0.083569 0.0681652 0.317324
0.14925 0.0940194 0.430024
0.139958 0.0438508 0.328174
-0.14787 0.174185 0.317004
0.100285 0.104781 -0.404798
-0.133445 0.03089 0.264393
-0.083569 0.114396 -0.248504
0.14925 -0.00432501 0.298573
0.0854691 -0.0378806 0.336936
0.09409 0.0441308 0.404798
-0.10418 -0.0378806 0.221633
0.0475276 -0.0378806 -0.0298415
0.145618 0.0363654 -0.221719
-0.083569 0.134284 -0.263136
0.0526408 0.0677867 -0.404798
-0.0166184 0.101186 0.438659
0.1068 -0.187889 -0.38727
-0.13896 0.0856778 -0.00832881
-0.0147833 0.118787 0.438659
-0.107903 0.107364 -0.438659
0.0614788 -0.0378806 -0.213124
-0.1358 0.0542797 -0.330191
-0.0978019 -0.0378806 -0.206473
0.114473 -0.0997569 -0.390929
-0.128043 -0.0227706 0.29073
0.0830488 -0.0977647 0.382726
-0.0648292 -0.0378806 0.211737
0.123731 0.0518573 0.438659
-0.0493729 -0.0378806 0.159179
0.0295975 -0.0378806 0.260213
0.0130119 0.046972 0.0495605
0.14925 0.0041883 -0.239044
0.146567 -0.0378806 -0.333726
-0.0431223 0.046972 -0.0423964
-0.083569 0.1476 0.0997224
-0.011033 -0.0378806 -0.106302
-0.0344448 -0.0378806 0.281231
0.126562 0.0439417 0.0821513
0.14925 -0.0363158 0.123171
0.0534711 -0.0378806 -0.371224
0.14925 -0.0270322 -0.13944
0.14925 0.0259648 -0.366773
-0.0733612 0.0648204 0.438659
-0.142834 0.12416 -0.0261367
0.135432 -0.0378806 -0.105046
-0.0580781 0.0439417 0.310242
0.105214 0.046972 -0.200001
-0.066371 -0.0378806 0.137585
-0.138483 0.0809315 0.215076
0.114986 0.046972 -0.193335
-0.0512291 -0.12748 -0.394108
-0.0709108 0.0439417 -0.386555
0.0170098 -0.0378806 0.279497
-0.0731958 0.127279 0.428946
-0.0740201 -0.0378806 0.0900214
0.0146518 -0.0378806 0.271252
-0.106318 0.187889 0.212854
-0.083569 0.167731 0.141549
0.0716963 -0.0378806 -0.378872
-0.118428 -0.0378806 0.219609
-0.141448 0.110387 -0.356822
-0.113338 0.187889 0.0616095
-0.105642 0.187889 -0.129253
0.0607604 0.046972 -0.0294287
0.122329 -0.0378806 -0.331882
-0.108819 -0.0136214 0.438659
-0.122804 -0.0378806 0.382908
-0.083569 0.15426 -0.204206
0.134596 -0.0378806 -0.378939
-0.0151761 0.125401 0.412686
0.0710245 -0.0378806 -0.391714
0.101833 0.046972 0.217804
0.0513888 0.127279 0.415606
0.0884403 0.107665 -0.404798
-0.0366767 0.046972 -0.215508
-0.140734 0.187889 -0.284831
-0.129332 -0.00996877 0.34118
-0.0656039 0.00659094 0.438659
-0.138459 0.187889 -0.246972
-0.0937722 -0.0378806 -0.434312
-0.083569 0.146744 0.36712
0.102565 -0.0378806 0.0170846
-0.0374101 0.0634904 0.438659
0.0854357 -0.0378806 0.0716751
-0.137077 0.0669662 -0.0770515
0.106465 -0.07084 0.403882
-0.083569 0.0528108 0.401897
0.114473 -0.124913 -0.373883
-0.149083 0.186229 0.368774
-0.083569 0.172447 -0.190149
0.0223566 0.0439417 -0.154897
-0.113335 -0.0378806 -0.180613
0.0812613 -0.0378806 -0.0822017
-0.083569 0.138428 -0.308641
-0.0667072 0.0974931 0.438659
-0.139235 0.0883998 0.366481
-0.083569 0.0665816 0.262637
0.105951 -0.0378806 0.25116
-0.0185978 0.046972 0.0415635
0.113774 0.046972 0.263833
-0.0248805 -0.0378806 -0.104703
-0.0399553 0.0439417 0.12515
0.0361529 0.121832 0.430771
0.0783556 0.046972 0.0775576
0.14925 0.03184 0.0880187
0.106709 -0.0378806 0.233112
0.0419446 0.0408259 -0.139111
0.0362384 0.046972 -0.103822
-0.0056583 -0.0378806 -0.000234131
-0.083569 0.0530876 0.225378
0.117869 -0.0378806 0.0111713
0.0830488 -0.140508 -0.400375
-0.0980716 0.110406 0.438659
-0.125348 -0.0378806 -0.307194
-0.010843 0.0363654 -0.401005
0.0814749 -0.0378806 -0.334058
0.111695 -0.059182 0.372458
0.0469062 0.046972 0.30016
0.0546286 0.0439417 -0.147731
0.114473 -0.12074 0.387645
-0.135798 0.0542637 -0.133918
-0.0794992 0.0363654 -0.253337
-0.0433764 0.0491584 -0.404798
-0.112864 0.187889 0.339721
-0.136687 0.0630915 0.202053
-0.131203 0.00861908 0.361903
-0.0869012 -0.0150858 -0.438659
0.0235756 0.046972 -0.0136909
-0.0655644 -0.084451 -0.403883
-0.132773 0.0242136 -0.0124528
-0.143715 0.132909 0.382114
-0.0894703 -0.0378806 -0.0092694
-0.083569 0.16419 0.138756
0.14925 0.0179118 -0.241978
-0.141963 0.115504 -0.323666
-0.0835488 0.119703 -0.423544
0.108671 0.0439417 -0.157272
0.0806354 -0.0378806 -0.0150131
0.0264806 -0.0378806 -0.0192031
0.14925 0.0612058 0.420239
-0.083569 0.120796 0.209682
-0.126874 -0.034383 -0.409561
0.14925 -0.00330882 0.357925
-0.083569 0.175321 0.229729
0.0847353 0.046972 -0.0247547
-0.0575417 -0.0378806 -0.245407
-0.0826537 -0.159558 -0.391615
0.0752616 0.046972 -0.366361
-0.0541793 0.0439417 -0.213815
0.0897683 0.046972 0.000578843
-0.141854 0.114417 -0.317107
0.14925 0.00812805 -0.00247987
0.0940716 -0.144148 -0.403883
-0.138933 0.0854068 0.00194396
0.0572311 0.0363654 -0.131485
0.135973 0.0439417 -0.0233934
0.080154 -0.0378806 -0.391189
0.0107023 0.0439417 0.388373
0.100031 -0.0899681 -0.372458
0.065596 -0.0378806 0.283802
0.0372071 0.046972 0.0276723
0.122017 -0.0378806 0.428073
0.136101 0.0439417 -0.102864
0.13644 0.0439417 0.287312
0.108444 -0.148562 0.372458
-0.059588 -0.125777 -0.372458
0.0874148 0.046972 -0.302711
-0.0122263 0.046972 0.212222
-0.0518559 0.0653208 0.404798
-0.0704822 0.0439417 0.0750017
0.14925 0.0138621 0.332419
-0.0771368 0.0363654 -0.0154686
-0.108946 0.187889 -0.0649787
0.0908922 -0.149966 0.372458
-0.144766 0.143347 -0.0406275
0.111148 -0.0378806 0.0515286
-0.0252623 0.046972 0.0840143
-0.131128 0.00787146 0.115613
-0.127618 -0.0269937 0.0989165
0.11424 -0.0378806 -0.177228
0.0862191 -0.0378806 0.229115
0.0172271 -0.0378806 -0.244464
-0.0985683 0.0487508 -0.438659
-0.14395 0.135245 0.148938
0.0581916 -0.0378806 -0.300007
0.0102054 0.046972 0.000340558
0.0425569 0.049568 0.438659
-0.0987993 -0.0378806 0.308776
-0.112298 -0.0378806 -0.0373661
-0.083569 0.0372961 -0.0843557
0.0917941 -0.0378806 -0.254285
0.0906165 0.103812 0.404798
-0.083569 0.0472467 0.0865228
0.114473 -0.165108 0.374406
-0.0163933 0.046972 0.16039
-0.148882 0.184229 0.40441
-0.0748322 0.0869017 0.404798
0.0213816 -0.0378806 -0.41437
-0.0199871 0.046972 -0.253831
-0.083569 0.0405727 0.337693
-0.083569 0.0878886 0.0244949
-0.135394 0.0502494 0.165388
-0.00900732 0.105226 -0.404798
-0.083569 0.141885 -0.0816077
-0.083569 0.0787956 0.0102094
-0.0633872 -0.0941221 0.372458
-0.132708 0.0235697 -0.000878334
0.0979157 0.0439417 0.155977
-0.144784 0.143531 0.269948
0.0137502 -0.0378806 -0.438288
0.14925 -0.0124098 0.435512
0.143907 -0.0378806 0.0807731
-0.141331 0.109226 0.0937638
-0.0622056 -0.0378806 0.364607
-0.0762051 0.116421 0.438659
-0.083569 0.15188 -0.425273
-0.116538 0.187889 0.0594337
-0.083569 0.103889 -0.325192
0.0211382 0.117514 0.438659
-0.104838 0.0429805 -0.438659
0.14925 -0.0140319 0.431847
-0.0477886 0.073242 -0.438659
-0.083569 0.126631 -0.0539219
0.0475252 -0.0378806 0.1936
-0.00553313 -0.0378806 -0.273761
0.00182981 0.0846035 0.438659
-0.100113 0.167748 0.438659
-0.083569 0.106462 -0.0418312
-0.0445635 -0.0378806 -0.340023
0.0688771 -0.0378806 0.182518
0.0367026 -0.0378806 -0.0359614
-0.100603 -0.0378806 0.282082
0.0723386 0.0860813 0.438659
-0.0239117 -0.0378806 -0.0617883
-0.083569 0.116336 -0.349966
0.0548738 0.046972 0.335934
-0.083569 0.125137 0.090939
0.139958 0.0429886 0.214508
0.0995696 0.0222089 0.438659
-0.0911752 0.142105 -0.438659
-0.083569 0.0639321 0.348327
-0.0826537 -0.0410066 0.402231
0.14925 0.0160838 0.271019
0.127398 0.0363654 -0.396674
0.144795 0.0938153 -0.404798
0.125025 0.0426357 0.395506
0.0628287 0.0311005 0.438659
-0.118889 -0.0378806 0.0448761
0.0390214 0.0567918 0.438659
0.058985 0.0410521 0.127388
-0.0602314 -0.0378806 0.14685
0.0690467 0.0439417 -0.382565
0.106801 -0.0378806 0.0675222
-0.0747537 -0.0433974 -0.403883
0.073986 0.0363654 0.135294
0.0830488 -0.0918996 0.397815
0.0619538 0.046972 -0.325012
0.114473 -0.0562888 0.398933
-0.115389 -0.0378806 0.156895
-0.092667 -0.0378806 -0.410326
-0.140947 0.105407 0.314191
-0.148365 0.179093 0.168194
0.102663 -0.0836591 -0.403883
0.00389591 0.046972 0.287597
-0.0769527 -0.0378806 -0.0812858
0.10986 -0.129473 -0.403883
-0.083569 0.114895 0.160494
0.0673701 0.127279 -0.418868
0.114473 -0.0613185 0.400346
-0.136581 0.0620424 0.113456
-0.083569 0.0696583 -0.319439
0.0689804 0.0439417 -0.162027
-0.0334275 -0.0378806 0.29333
0.0732599 -0.0378806 -0.10243
-0.143702 0.187889 0.180962
0.0982949 0.046972 0.204947
-0.148444 0.179887 -0.110582
-0.000204476 0.0806592 0.438659
-0.0777149 -0.0378806 -0.0923367
0.14925 0.0222526 -0.0674322
-0.058615 0.0439417 -0.196891
-0.0687552 -0.156012 -0.372458
0.0282941 -0.0378806 0.0913218
-0.135185 0.187889 0.317623
-0.126889 -0.0342373 0.0033316
-0.083569 0.160508 0.393063
-0.0683802 -0.0378806 -0.0611777
0.064691 0.114218 -0.438659
0.0830488 -0.0658212 -0.396285
-0.083569 0.163524 -0.0587744
-0.0512291 -0.0999242 -0.37733
-0.137323 0.108875 0.438659
0.0512518 0.046972 0.313921
-0.083569 0.153971 -0.372879
-0.137288 0.0690601 0.364202
-0.136954 0.065742 0.204105
0.0317427 0.111717 0.438659
-0.146214 0.187889 0.0175835
-0.139707 0.0930917 0.389599
0.123239 -0.0378806 -0.271935
0.114382 0.046972 0.2307
0.14925 -0.00368936 0.163821
0.0798216 -0.0143102 0.438659
-0.00234412 0.046972 0.227099
-0.083569 0.110304 -0.264652
-0.0186746 0.046972 -0.05708
0.137344 -0.0378806 0.0160751
0.12863 0.0439417 -0.299006
0.00554378 0.0383007 0.395506
-0.00108417 0.046972 0.237506
0.13205 -0.0378806 0.0522384
0.0665437 0.046972 -0.177906
-0.0512291 -0.0765752 -0.387869
-0.13527 0.187889 -0.413058
0.0759075 -0.0378806 -0.396595
0.00838262 -0.00504031 -0.438659
-0.148918 0.184592 -0.0174148
0.0638504 -0.0378806 -0.433867
-0.083569 0.186459 0.172335
0.0424602 0.046972 -0.180918
0.0485955 -0.0378806 -0.0805908
-0.0512291 -0.175797 -0.381988
0.00301718 0.046972 0.228353
0.0137786 0.046972 -0.316323
-0.0561594 0.0439417 -0.309993
-0.038948 0.046972 0.235896
0.00342156 0.00795017 0.438659
-0.144425 0.139964 0.27693
0.13836 0.0402538 -0.404798
-0.0691738 -0.173532 -0.372458
-0.083569 0.0533665 0.386067
-0.141252 0.10844 -0.249921
-0.083569 0.106703 -0.178648
-0.083569 0.0600898 -0.138922
-0.135691 0.0531994 -0.434458
0.14925 -0.0281086 0.397935
0.101633 -0.0378806 -0.26851
-0.0496718 -0.0378806 -0.124334
-0.0454376 -0.0378806 0.113532
-0.135603 0.187889 0.357907
0.106764 -0.181965 -0.372458
-0.141422 0.11013 0.153541
-0.083569 0.0599521 0.309631
0.0726515 -0.0378806 -0.110069
-0.083569 0.044291 0.135642
-0.0474233 0.046972 0.31311
-0.133892 0.0353333 0.260688
0.125061 0.0439417 -0.291608
-0.083569 0.0722678 0.25278
-0.0195429 -0.0378806 -0.15661
-0.0080985 0.046972 -0.220103
-0.121554 0.187889 -0.404958
0.0825643 -0.0146789 0.438659
-0.083569 0.0446544 -0.0470335
0.0102934 -0.0352941 0.438659
0.0989643 0.0439417 0.392406
-0.0163383 -0.0378806 0.433538
-0.083569 0.0724145 -0.209828
-0.083569 0.144358 -0.417058
0.0784003 0.0937364 -0.438659
0.0796789 -0.0378806 -0.108117
0.0543698 0.102421 0.438659
-0.128062 -0.0225789 0.412418
-0.083569 0.0749882 0.0701729
-0.0297849 -0.0378806 -0.0938749
0.0174994 -0.0378806 0.307621
-0.12753 0.187889 -0.209989
-0.0165545 0.040686 0.139432
-0.0067456 0.0535971 -0.438659
0.120197 0.046972 0.247166
-0.144069 0.136419 0.291688
-0.106788 -0.0378806 0.00254765
0.133188 -0.0378806 -0.0667159
0.14648 0.0363654 0.34875
0.100709 -0.0378806 0.165732
-0.142616 0.12199 0.276297
-0.113571 -0.0378806 0.235752
-0.083569 0.167937 0.00780386
-0.139683 0.0928552 0.0829699
-0.141019 0.106123 -0.214428
-0.148801 0.183432 0.389748
0.119361 -0.0378806 -0.349976
0.117168 -0.0378806 -0.0604943
-0.083569 0.102454 -0.195533
-0.077521 -0.0378806 -0.427877
-0.0779446 -0.0537314 0.403882
-0.0700587 -0.0378806 -0.414899
-0.083569 0.161019 -0.0402376
0.0733795 -0.0378806 0.396944
0.104859 0.0942658 0.404798
-0.083569 0.136203 -0.178054
-0.083569 0.167964 0.1354
-0.145112 0.14678 0.310674
0.101153 -0.079062 -0.403883
-0.0932975 0.0153229 0.438659
-0.083569 0.0379237 0.0676545
0.0243652 -0.0378806 0.382396
-0.147853 0.174011 -0.123662
-0.148162 0.177083 -0.0372557
-0.133111 0.0275742 0.0296763
0.14925 0.0338533 0.145609
0.0157294 0.043076 -0.129393
-0.0424867 0.046972 0.184137
0.0327176 -0.0378806 0.355232
-0.135239 0.0487149 0.199771
-0.109161 -0.0378806 -0.244248
0.114473 -0.0896736 -0.396961
-0.135077 0.0471014 0.0908313
0.0965363 0.046972 0.243922
-0.0770702 0.0363654 -0.0621714
-0.0507299 -0.0378806 -0.13201
0.080907 -0.0378806 0.414071
-0.131214 0.0087246 -0.0466719
-0.131609 0.136791 -0.438659
-0.11514 0.187889 -0.0271135
-0.083569 0.0606904 0.031768
0.0137578 -0.0378806 -0.0290242
0.0255514 -0.0378806 0.304121
0.14925 0.0178706 -0.0103298
-0.148089 0.176352 0.212082
-0.12727 -0.030446 -0.0554138
-0.109346 -0.0378806 -0.153608
-0.083569 0.0450017 -0.393733
-0.0926885 -0.0378806 -0.216931
-0.1412 0.107926 -0.346271
-0.0178923 -0.0378806 -0.402769
-0.0214431 -0.0378806 -0.406416
0.14925 0.0762984 -0.413373
0.13192 0.0439417 -0.0240077
0.130432 0.0439417 0.270921
0.0574569 -0.0378806 -0.241535
0.139812 -0.0378806 0.436612
-0.0826537 -0.130579 -0.381159
0.0241001 -0.0378806 -0.42177
-0.0898425 -0.0378806 0.066176
0.14925 0.0293889 0.0742937
0.117384 -0.0378806 -0.230316
-0.0470393 0.0985943 0.438659
-0.083569 0.107942 0.130862
0.0585473 -0.0378806 -0.236469
0.0123708 -0.0378806 -0.348613
0.0568019 0.0923418 -0.404798
0.148375 -0.0378806 0.232035
-0.140216 0.187889 -0.0923809
-0.128849 -0.0147635 -0.343026
0.0819906 -0.0378806 -0.319301
-0.140917 0.105111 -0.0924937
0.118072 -0.0378806 -0.0645718
0.0300366 0.0213874 0.438659
-0.0111653 -0.0378806 0.153185
0.122064 0.0439417 0.057465
0.0131276 0.0559557 -0.404798
-0.134256 0.0389498 0.391804
0.124976 0.0962523 0.404798
-0.134386 0.187889 -0.418725
0.062077 -0.0378806 0.0392692
0.0718971 -0.0378806 0.116165
0.14925 0.00796911 -0.338152
-0.146295 0.158539 -0.250453
-0.140382 0.0997977 -0.252616
-0.145945 0.155056 -0.0683411
-0.083569 0.0735389 0.181506
-0.136283 0.0590794 0.243908
-0.039539 0.0411735 -0.129393
-0.083569 0.129145 0.412559
0.0566462 0.102575 0.438659
0.141918 0.0363654 -0.0941084
0.0815834 -0.0378806 0.369836
-0.0146546 0.046972 0.314664
-0.083569 0.132961 0.0756117
-0.128866 -0.0146008 -0.124405
0.131038 -0.0378806 0.222666
0.0794169 -0.0378806 -0.0960612
0.0855133 -0.0648561 -0.403883
0.14925 -0.00344613 -0.144641
-0.110064 0.187889 0.396224
0.14925 -0.0185825 -0.317253
0.115338 -0.0378806 -0.370549
-0.145574 0.151369 0.138853
-0.083569 0.143091 -0.00535809
-0.0397478 0.0788545 0.404798
0.127919 -0.0378806 0.194008
-0.14147 0.110607 0.00454295
-0.112806 -0.0378806 -0.276974
-0.147182 0.167351 0.426827
-0.071265 -0.157392 0.372458
0.0482932 0.0439417 -0.112351
-0.139864 0.0946556 -0.31752
-0.0201452 -0.0378806 0.143805
0.0961743 -0.0683175 0.403882
-0.0329085 0.0363654 -0.131618
0.0992403 -0.0880129 0.372458
-0.106316 0.169643 -0.438659
-0.130566 0.00228633 0.0609554
0.105237 -0.0378806 0.308114
0.0967423 0.122342 -0.431052
-0.127161 -0.0315377 -0.330208
0.114166 0.0363654 -0.396998
-0.119773 0.187889 0.163323
-0.0453067 0.046972 -0.265913
0.122147 0.0439417 -0.279121
-0.133844 0.0348538 0.269626
0.0675398 0.0439417 -0.389148
0.0223529 0.0439417 0.124312
-0.0942759 0.187889 -0.224179
0.0121463 0.046972 -0.0691556
0.0449101 0.127279 -0.424115
-0.112929 0.187889 -0.205659
-0.0436738 -0.0378806 0.19254
-0.0826537 -0.0976721 -0.398854
0.065554 -0.0378806 0.390812
0.073478 0.046972 0.348156
-0.12417 0.0728517 -0.438659
-0.083569 0.147436 -0.255273
0.113887 -0.034268 -0.438659
0.00564689 0.046972 0.163083
0.102815 0.0905656 0.404798
0.111792 0.118111 -0.404798
-0.0801463 -0.0896509 0.403882
-0.136664 0.0628657 0.125415
0.14925 0.00129322 -0.205758
0.0287447 0.0523973 0.438659
-0.133127 0.187889 0.359688
-0.142682 0.12265 -0.249498
-0.125289 0.187889 0.0207382
0.109015 -0.0993577 0.372458
-0.0826537 -0.0534774 -0.400819
0.127912 0.115313 -0.438659
-0.083569 0.148447 0.138705
-0.149166 0.187059 0.284927
0.0377588 0.046972 0.251942
-0.00587147 -0.0378806 0.120869
-0.083569 0.137803 0.229533
-0.127011 0.187889 0.415903
0.0887848 -0.0378806 -0.0992633
-0.145297 0.148619 0.0391389
0.146851 0.0363654 -0.00676112
0.114473 -0.132612 -0.394534
0.143365 -0.0378806 0.240207
0.0613578 0.046972 -0.0918231
0.0807052 0.046972 -0.345431
0.0593112 0.046972 0.0202207
0.0683943 0.046972 -0.0822343
-0.0506539 0.110615 -0.404798
0.0988092 0.046972 0.0398135
-0.083569 0.154678 0.086924
0.0376296 0.046972 0.0578308
0.0541298 0.046972 0.217581
0.14925 0.0107723 -0.357969
-0.144241 0.13813 0.338672
0.109104 -0.0378806 -0.303571
0.112036 -0.0849757 0.372458
-0.090297 0.057553 -0.438659
0.14588 -0.0378806 0.130224
-0.12932 0.187889 0.173544
0.14925 -0.00780906 -0.258741
-0.0329617 -0.0378806 0.0963748
-0.0437797 0.046972 -0.197107
-0.102116 -0.0378806 -0.333376
-0.0730472 -0.0828384 -0.372458
0.114473 -0.126723 0.39939
0.095028 0.046972 0.159615
0.132981 -0.0378806 -0.134598
0.137209 0.0439417 0.0384306
0.0322543 -0.0378806 0.327424
-0.083569 0.177044 0.431198
0.0894988 0.0818313 -0.404798
-0.083569 0.0513228 0.271031
-0.138919 0.0852661 -0.23821
0.0319901 0.046972 -0.336977
-0.0190325 0.046972 -0.224027
0.0890096 0.046972 0.0473059
0.0951347 0.046972 0.37408
0.0776757 0.0363654 -0.398655
-0.0239077 -0.0378806 -0.239337
0.0382298 0.127279 0.415629
0.0788736 -0.0378806 0.113225
0.0246042 0.0430952 0.438659
-0.126444 0.187889 0.285541
-0.0544868 0.0439417 -0.0735377
-0.134146 0.0378503 0.338989
-0.0815391 -0.0693386 0.372458
-0.146927 0.164814 0.167458
-0.100797 -0.0378806 0.296453
-0.147612 0.171621 -0.372412
0.14925 -0.00965789 -0.370385
-0.130958 0.00618341 -0.23127
0.145409 0.0483222 -0.404798
-0.136758 0.0638038 -0.0902819
-0.0671095 -0.0378806 0.350269
-0.0826537 -0.124954 -0.387776
-0.0709201 -0.105986 0.372458
-0.144706 0.187889 -0.35341
-0.100083 -0.0378806 -0.406778
