ply
format ascii 1.0
comment Created by Open3D
element vertex 1600
property double x
property double y
property double z
end_header
-0.14334 -0.0756683 0.314874
-0.296237 0.00207662 0.0977485
-0.277125 -0.0181678 -0.0431938
-0.296237 -0.0491043 -0.00165276
-0.296237 0.0628408 0.126283
0.296237 -0.0235155 -0.285746
-0.14334 -0.0446009 0.0628331
-0.194298 -0.021501 -0.0704497
-0.145487 -0.0169935 -0.391724
-0.0577191 0.049329 -0.372611
0.178984 -0.021501 -0.357509
-0.170051 -0.0584137 0.334535
0.0556775 -0.0437811 -0.24042
-0.132935 -0.0230464 0.334535
-0.14334 -0.0613745 0.246922
-0.0509684 -0.073784 -0.24042
0.00936088 0.0309984 -0.372611
-0.211153 0.0551167 -0.305606
0.0598616 -0.021501 -0.37254
-0.290101 0.0813673 -0.2077
-0.296237 0.027447 0.303122
0.133351 -0.0132846 -0.391724
0.238901 -0.0254265 -0.337289
-0.0898067 0.07287 -0.372611
-0.292952 -0.021501 -0.0180675
-0.0593308 0.0812732 -0.391724
-0.27734 -0.021501 -0.074224
-0.296237 0.032018 0.153591
0.194611 -0.021501 -0.345609
0.141569 -0.021501 -0.373276
-0.186677 0.0703441 -0.32979
0.117703 -0.000961239 -0.372611
-0.296237 0.0317459 0.199798
-0.0713868 -0.021501 -0.346184
0.17264 -0.021501 -0.296917
0.000857217 0.000596128 -0.372611
0.249188 -0.0559905 -0.372611
-0.124229 -0.0363482 0.362047
-0.247617 0.0128822 -0.269577
-0.23674 -0.021501 0.310581
-0.277125 0.0132946 0.162994
-0.202971 -0.021501 -0.114099
-0.296237 -0.0772846 0.20835
-0.265212 -0.021501 0.253011
-0.231131 -0.021501 -0.0575064
-0.296237 -0.0758112 -0.236765
0.26829 -0.0101839 -0.219715
0.172856 -0.0694591 -0.24042
0.201423 0.0592575 -0.372611
-0.0592556 -0.021501 -0.279341
-0.293021 -0.021501 -0.00123143
-0.14334 -0.0867453 0.142389
-0.291813 -0.021501 -0.0683629
-0.296237 -0.0740835 -0.225175
-0.0407558 -0.021501 -0.299593
0.193829 -0.021501 -0.249214
-0.223826 0.0844462 -0.293084
-0.277125 0.0502543 0.0564621
-0.207053 0.0814267 -0.309658
-0.0535566 -0.0613819 -0.24042
-0.185833 -0.0299869 0.334535
-0.277125 0.0813944 -0.203546
-0.110637 0.0459663 -0.372611
-0.234578 -0.021501 -0.277161
-0.164707 -0.021501 0.376116
-0.101024 -0.0433396 -0.24042
-0.0580993 0.0689758 -0.372611
-0.123005 0.052526 -0.391724
-0.14334 -0.0660948 -0.236791
-0.296237 0.040432 0.2525
-0.296237 0.0847482 -0.0491178
0.197087 -0.021501 -0.246828
0.175841 -0.0237486 -0.24042
-0.0962694 -0.0129389 -0.372611
-0.14334 -0.0788118 0.238315
-0.275026 -0.021501 0.325635
-0.296237 0.0592396 0.274665
-0.225119 -0.021501 0.238078
0.086393 -0.0404991 -0.391724
0.14622 -0.021501 -0.34273
-0.296237 -0.00491674 0.114859
-0.176655 -0.021501 -0.0539626
0.210825 0.0691517 -0.374608
-0.157014 -0.0357849 0.334535
-0.14334 -0.0808238 0.0857819
-0.14334 -0.0770039 -0.16247
0.0547868 0.00166406 -0.391724
-0.0493659 -0.021501 -0.305629
-0.143921 -0.00144011 0.34902
-0.0163293 0.05454 -0.372611
-0.0978667 -0.0876259 -0.391724
-0.296237 0.0640636 -0.2018
0.22593 -0.021501 -0.380413
-0.282389 -0.021501 0.102125
-0.296237 0.0619693 0.0627562
-0.0260432 0.07606 -0.391724
-0.14334 -0.047767 -0.132164
-0.238323 -0.021501 -0.0356032
-0.266968 -0.021501 0.00989412
-0.296237 -0.0511836 0.292812
0.294885 -0.0170873 -0.222224
-0.261186 -0.0194064 -0.256169
-0.277125 0.0736307 0.0210562
-0.296237 -0.0717547 0.297771
0.290816 -0.00919119 -0.371061
-0.277125 0.0316107 0.227644
-0.14334 -0.0795683 0.309966
-0.246121 -0.0931713 0.363424
0.231647 -0.0272141 -0.391724
-0.235116 0.0134549 -0.319948
-0.14334 -0.0254078 -0.204478
0.0631197 -0.00491613 -0.391724
-0.260541 -0.021501 0.200084
-0.296237 0.0790274 0.0859455
-0.159008 -0.021501 0.260791
-0.14334 -0.0648602 0.292131
0.000826443 -0.021501 -0.37563
-0.14334 -0.0533294 0.0457157
-0.296237 0.00971996 -0.0961533
0.0489733 0.0376565 -0.376328
0.0985995 0.0268171 -0.391724
-0.296237 -0.0680639 0.0815207
0.155395 -0.021501 -0.32694
-0.14334 -0.0320557 0.271339
-0.266988 0.0358354 -0.262142
0.0863885 -0.0760363 -0.24042
-0.212419 -0.021501 -0.0364008
-0.181276 -0.0589521 0.334535
-0.230005 0.049788 -0.325042
-0.14334 -0.0751221 0.301108
-0.296237 -0.037669 -0.0512254
0.240087 -0.021501 -0.328547
-0.14334 -0.0521031 0.212104
-0.277125 -0.0137822 -0.0728514
0.238901 -0.0528565 -0.245382
-0.131497 -0.0607075 -0.391724
0.0480267 0.00410581 -0.372611
-0.296237 -0.0226972 0.126663
0.0184026 -0.0568247 -0.391724
-0.235123 -0.021501 0.0795447
0.100654 -0.00592895 -0.372611
0.0784679 0.025146 -0.372611
0.236575 -0.0420396 -0.391724
-0.271596 -0.021501 0.260618
-0.220897 0.093063 -0.315625
-0.236544 0.0553314 -0.318581
0.296237 -0.0715472 -0.248837
0.296237 -0.057053 -0.354946
0.209889 -0.0265032 -0.24042
-0.274909 -0.0931713 0.369975
-0.277125 -0.0193885 0.240155
-0.277125 0.0729511 -0.0412123
-0.291023 -0.021501 0.27509
-0.277415 -0.021501 0.101965
-0.213476 -0.00919578 -0.341257
-0.296237 0.0308242 0.234518
-0.296237 -0.0322346 0.086751
-0.100879 -0.0745726 -0.391724
0.25596 -0.000169824 -0.320525
-0.0560337 -0.021501 -0.309882
-0.0359554 -0.080973 -0.24042
-0.178334 -0.021501 -0.252783
-0.296237 0.0199619 0.10164
-0.0163647 0.0880917 -0.383885
-0.229688 -0.0931713 0.382272
0.140609 0.0651254 -0.391724
-0.289276 0.0586259 0.180824
-0.296237 -0.071208 -0.227748
-0.281191 0.0873642 0.00290315
-0.276156 -0.021501 -0.0138384
-0.277125 0.0382867 0.0832595
-0.202179 -0.021501 0.374739
-0.145302 0.00201693 -0.374596
-0.112941 0.0574931 -0.391724
-0.0468472 0.0613645 -0.372611
-0.0244023 -0.0809723 -0.24042
0.264649 -0.0101713 -0.372611
0.207641 0.0655722 -0.372611
-0.165547 -0.0490798 -0.388453
-0.277125 0.0371486 0.290688
-0.0119162 0.0867293 -0.372611
0.112853 -0.021501 -0.324061
-0.15845 -0.021501 0.0851302
-0.164523 -0.021501 -0.16623
-0.277125 0.049573 0.293066
-0.200488 -0.021501 0.132545
-0.223825 -0.021501 0.229707
0.0164145 0.0123218 -0.391724
-0.14334 -0.0910884 0.29807
-0.220251 -0.021501 0.324169
-0.0431759 -0.021501 -0.326489
-0.126218 -0.0147992 -0.391724
-0.00715799 -0.0113909 -0.372611
-0.277522 0.0566762 0.0383101
-0.296237 -0.0533645 -0.175689
-0.196682 -0.021501 0.327282
-0.14334 -0.0774488 -0.0473146
0.0580696 0.0299095 -0.391724
-0.264688 -0.0427381 0.391871
-0.160799 -0.021501 -0.344443
-0.144799 -0.00365476 0.345632
-0.296237 0.067105 0.214087
-0.296237 0.0271645 0.0579972
-0.201808 -0.0931713 0.352719
-0.200892 -0.0392218 0.391871
-0.293785 -0.021501 -0.0964209
-0.285509 -0.021501 0.168519
-0.124229 -0.0276295 0.363108
-0.277125 -0.00654182 -0.15095
-0.132338 -0.021501 0.387705
-0.270317 0.00213265 0.361
-0.296237 -0.0026247 0.192598
-0.0670863 -0.0810366 -0.24042
0.238901 -0.0313061 -0.244461
-0.296237 -0.0722767 0.178585
0.238901 -0.0757778 -0.288205
-0.177464 -0.021501 0.19425
-0.296237 0.0318823 0.172868
-0.270274 -0.021501 0.140616
0.138207 -0.0658929 -0.391724
0.103928 0.0459153 -0.372611
0.0173155 -0.021501 -0.318441
0.0993494 -0.021501 -0.374341
-0.296237 -0.0333986 -0.214719
-0.170132 0.038504 -0.346138
-0.14334 -0.0791048 0.0545791
-0.296237 0.0344214 -0.204252
0.170227 -0.0363951 -0.24042
0.065481 -0.021501 -0.386256
0.256675 8.89159e-05 -0.24638
-0.296237 -0.0462234 -0.0601187
0.18762 0.0183916 -0.372611
-0.247832 -0.021501 0.221055
-0.181414 -0.00199738 0.348168
-0.212577 0.0452036 -0.342263
0.113944 0.00204991 -0.391724
-0.178864 -0.021501 0.26351
-0.122155 -0.021501 -0.312509
-0.296237 -0.0647467 -0.236942
0.21526 -0.0568002 -0.24042
-0.277125 0.0131505 0.169745
-0.296237 0.0069511 0.130347
-0.296237 0.040407 0.24267
0.0649714 -4.05414e-05 -0.391724
0.215659 -0.021501 -0.249895
-0.277125 0.0880316 0.0954361
0.252577 -0.021501 -0.274614
-0.277125 0.0876028 0.136211
-0.296237 0.0331369 -0.238591
0.124682 0.0865483 -0.391724
-0.248868 -0.0531614 0.334535
0.194962 -0.021501 -0.38133
-0.207747 0.0358354 -0.313943
0.0888409 -0.0315135 -0.24042
-0.14334 -0.0822539 0.0314275
0.118204 -0.045842 -0.391724
-0.225888 -0.021501 0.323506
-0.227152 0.0912705 -0.327861
-0.264486 -0.021501 0.2534
-0.0793762 -0.0161395 -0.372611
-0.296237 -0.0346715 0.258429
-0.0767084 -0.0134826 -0.372611
-0.261822 -0.021501 -0.0409078
-0.201817 0.0801537 -0.314831
-0.180998 0.0358354 -0.360391
-0.208541 -0.021501 -0.238971
-0.220853 -0.021501 -0.0360851
-0.296237 -0.0761681 0.194747
-0.14334 -0.0412272 -0.105321
0.26963 -0.0931713 -0.275887
-0.216527 -0.021501 0.220241
-0.211121 0.00146579 -0.305637
-0.296237 -0.0403505 -0.227536
0.054521 -0.021501 -0.24751
-0.217894 -0.021501 0.0469296
-0.296237 0.0193047 0.12124
-0.14334 -0.0833685 0.192767
-0.175924 -0.021501 0.181639
-0.296237 0.0058926 0.283475
-0.132278 0.00861623 -0.372611
0.218403 -0.0434853 -0.391724
0.293325 -0.0134517 -0.311738
0.116085 -0.021501 -0.368324
0.250712 -0.0931713 -0.352548
-0.14334 -0.0261005 0.17682
-0.296237 -0.0323685 0.281055
-0.010438 -0.021501 -0.257806
-0.0748124 -0.0280883 -0.24042
-0.277125 0.0357688 -0.0866676
-0.0312399 -0.021501 -0.339372
-0.14334 -0.0516478 -0.0207256
-0.287939 0.0373021 0.334022
0.295506 -0.019115 -0.221096
-0.0226591 -0.033248 -0.24042
-0.159625 -0.0359331 -0.391724
0.218653 -0.021501 -0.376322
-0.199912 -0.00378926 0.345427
0.107599 -0.00201469 -0.391724
-0.296237 -0.0104639 0.166731
-0.296237 0.0434423 0.170693
-0.23825 0.0178289 -0.278832
-0.183914 -0.021501 -0.299984
0.294986 -0.0931713 -0.362633
-0.175166 -0.00356621 0.345768
-0.126681 0.0438531 -0.372611
-0.275388 -0.0931713 0.356508
-0.00686 -0.079505 -0.391724
-0.212431 0.0914174 -0.33601
0.153693 -0.021501 -0.360725
0.135524 -0.0283796 -0.391724
-0.277125 0.0503533 -0.198273
-0.296237 0.0409029 0.165001
-0.209675 -0.021501 -0.0487777
-0.1497 -0.0102681 0.339306
-0.0576934 -0.021501 -0.345341
0.296237 -0.0704346 -0.262649
0.281967 -0.0931713 -0.368615
-0.249028 0.0181839 -0.268183
-0.19506 -0.021501 -0.11996
-0.296237 0.0106991 -0.0446915
-0.229087 0.0366579 -0.287885
0.00659395 -0.0144993 -0.391724
-0.293474 0.0725323 -0.0753279
-0.197493 -0.0227993 0.391871
-0.296237 0.0792827 0.128
-0.202931 -0.021501 0.016658
-0.175191 0.0700864 -0.364002
0.117913 -0.021501 -0.371537
-0.243039 -0.021501 -0.144369
-0.169382 -0.021501 -0.0734452
0.234588 0.0230588 -0.372611
-0.139753 0.041311 -0.386931
-0.285497 0.0416773 -0.0946391
-0.296237 0.0231572 -0.256902
-0.14334 -0.0752971 0.131682
0.110329 0.0372369 -0.372611
-0.296237 0.0665328 0.0137861
-0.179522 -0.021501 0.198814
-0.180496 -0.021501 0.234155
0.0269563 -0.0279107 -0.391724
-0.00521403 -0.00292946 -0.391724
-0.0269301 0.0854552 -0.391724
-0.081926 -0.021501 -0.328188
-0.127628 0.0104505 -0.391724
-0.270774 -0.021501 0.342007
-0.100813 0.0238994 -0.372611
-0.14334 -0.0410995 0.111925
-0.296237 0.0487975 0.12899
-0.14334 -0.0708283 -0.172668
-0.277125 0.0170487 -0.200118
-0.296237 0.0853437 0.138809
0.0419571 -0.00176836 -0.391724
-0.0553797 -0.021501 -0.286554
0.156603 -0.00728735 -0.372611
-0.277125 -0.0197844 -0.191844
-0.277125 0.0482779 0.06868
-0.277125 0.0714499 -0.219261
-0.28493 -0.021501 -0.0450862
-0.296237 0.0740262 -0.0602861
-0.296237 0.0299496 -0.196324
-0.277125 0.0733481 0.00193529
0.278358 -0.0931713 -0.221622
-0.29297 0.0372992 -0.0971926
-0.296237 0.0248377 0.0989206
0.247192 -0.0931713 -0.342767
-0.14334 -0.0700241 -0.233163
-0.124229 -0.0621729 0.388504
0.264467 -0.0931713 -0.333259
0.0193299 -0.0384996 -0.24042
-0.0989417 -0.0231436 -0.391724
-0.296237 -0.0566061 0.014389
0.0952439 0.0745699 -0.391724
-0.14334 -0.0251786 0.161197
-0.20679 -0.021501 -0.165644
0.151523 -0.021501 -0.249418
-0.296237 -0.0524727 0.0980349
-0.277373 -0.021501 -0.00277732
-0.0521781 0.0259775 -0.391724
-0.253754 -0.0931713 0.358637
-0.263642 -0.021501 0.278318
0.0928437 -0.021501 -0.315498
0.158365 -0.0801547 -0.24042
-0.148181 -0.021501 -0.245836
-0.277125 0.0490701 0.224792
-0.143912 -0.00064994 0.350268
-0.189704 -0.021501 -0.242917
-0.196823 -0.021501 0.0125639
-0.196679 0.0358354 -0.325455
-0.296237 -0.00426781 0.21987
-0.20675 -0.021501 -0.308298
-0.277443 -0.021501 0.304583
0.277763 -0.0729472 -0.219715
0.0651948 0.0160115 -0.391724
-0.00168244 -0.0823352 -0.24042
-0.0411635 0.0658765 -0.372611
-0.277125 -0.0128541 0.183469
-0.277125 0.0307895 -0.0285741
-0.0965996 0.0249142 -0.372611
-0.29413 0.0925823 -0.0195848
-0.277125 0.000377305 -0.086439
0.196939 0.0546572 -0.372611
-0.17012 0.0131398 -0.34615
-0.296237 -0.0593748 0.281903
-0.219442 -0.076603 0.391871
-0.14334 -0.0563159 0.0482782
-0.296237 -0.0210804 0.14647
-0.0226956 -0.021501 -0.329837
-0.296237 -0.041995 -0.242868
0.21688 -0.0353285 -0.24042
-0.296237 -0.00123936 0.289876
-0.14334 -0.0594585 -0.158297
-0.282185 0.0926354 -0.163795
0.0710677 -0.021501 -0.241318
-0.277125 0.0165237 0.264803
-0.296237 0.079666 0.263547
-0.171976 -0.0750439 0.391871
0.286455 -0.00460522 -0.351644
-0.277125 0.00215372 0.170138
-0.14334 -0.0637772 0.0609116
0.0554508 -0.0678544 -0.391724
0.0298336 -0.0572539 -0.391724
0.152841 0.0537456 -0.391724
-0.189349 -0.021501 0.383146
-0.125034 -0.0931713 0.366334
-0.203628 -0.021501 0.19525
-0.277125 0.0901701 -0.163727
-0.149903 0.0348976 -0.379253
-0.296237 0.0308088 0.237203
0.08915 -0.0373458 -0.391724
-0.127861 -0.0445171 0.334535
-0.0594529 0.0365525 -0.391724
-0.165895 -0.021501 -0.133305
-0.107976 -0.042312 -0.24042
-0.296237 -0.0498763 0.228202
-0.14334 -0.0366707 0.0626629
-0.150504 -0.021501 -0.196959
0.293947 -0.0145171 -0.357736
-0.173896 -0.021501 0.168029
-0.154272 -0.0494145 0.391871
-0.264657 -0.0343133 0.391871
-0.14334 -0.0742349 -0.0451865
-0.296237 0.0279458 -0.0585463
-0.22499 -0.049647 0.334535
0.196197 -0.021501 -0.311927
-0.0595621 -0.021501 -0.299435
-0.0253559 -0.021501 -0.314973
-0.281099 0.0764619 -0.0714
-0.17568 -0.0739091 0.334535
-0.23885 -0.021501 -0.240839
-0.218066 -0.0322291 0.391871
0.116596 -0.021501 -0.313121
-0.136631 -0.0674287 -0.24042
-0.296237 0.0232895 -0.179954
-0.115728 -0.021501 -0.381036
-0.0695956 -0.00703523 -0.391724
-0.279982 -0.021501 -0.100644
-0.296237 -0.0649527 0.151031
-0.296237 -0.0309002 0.237779
-0.296237 0.0662469 -0.0516199
-0.277125 0.0632051 -0.0383339
-0.214798 0.0118634 -0.302004
0.129069 -0.021501 -0.35306
0.271751 -0.00580375 -0.372611
-0.0491902 -0.021501 -0.301063
-0.296237 -0.0489118 0.0972518
-0.277125 0.0819533 -0.035777
-0.247854 0.0587085 -0.269342
0.0152757 0.0121171 -0.391724
-0.260406 -0.0931713 0.384683
-0.20016 -0.021501 -0.11957
-0.200395 0.0658642 -0.354299
0.233367 0.0178574 -0.372611
0.160381 0.0847056 -0.372611
-0.237885 -0.021501 -0.0318805
-0.296237 0.0228928 -0.177271
-0.240401 -0.021501 -0.172935
0.257622 0.000431695 -0.281663
-0.296237 -0.0914941 -0.153938
0.152092 -0.0150332 -0.391724
-0.195438 0.00164095 0.369634
-0.124229 -0.0666601 0.390059
-0.159995 -0.021501 -0.112175
-0.278163 -0.0808803 -0.27756
-0.14334 -0.0474166 0.268811
-0.188664 -0.021501 0.23542
-0.296237 0.00794028 -0.192744
-0.198519 0.0604492 -0.356153
-0.0953743 -0.021501 -0.30733
-0.108392 -0.0138554 -0.391724
0.275309 0.00123037 -0.320043
-0.229013 -0.021501 0.3863
-0.201525 -0.021501 0.309015
-0.14334 -0.0366892 0.24595
0.20493 -0.0230999 -0.24042
-0.183601 -0.021501 0.389676
0.295266 -0.0183309 -0.299857
0.00293591 -0.028748 -0.391724
0.133178 -0.0844622 -0.24042
-0.18416 0.0144573 -0.332277
0.158282 -0.021501 -0.329232
-0.296237 0.0363467 -0.000441824
0.0855554 -0.0494703 -0.391724
-0.296237 0.0536476 0.120412
0.0477801 -0.0104347 -0.379607
0.238901 -0.029287 -0.286609
-0.0117128 0.0592883 -0.391724
-0.169525 -0.021501 0.267837
-0.141721 -0.0437596 -0.391724
-0.17605 -0.0762817 0.334535
-0.148154 -0.021501 0.322027
0.29335 -0.021501 -0.287118
-0.296237 -0.075249 -0.0716942
0.262468 -0.021501 -0.358547
-0.296237 -0.0338204 0.24944
-0.0211078 0.0158383 -0.372611
0.286328 -0.00447154 -0.309933
-0.277125 -0.067454 0.361006
-0.136763 0.0420087 -0.391724
-0.14334 -0.0841262 0.0227073
-0.147546 -0.021501 -0.109682
0.0119426 0.0214892 -0.372611
0.141179 -0.0540146 -0.24042
-0.296237 -0.0596435 0.293488
-0.279958 -0.021501 0.0977591
-0.261074 -0.021501 -0.0316421
-0.277125 0.0526658 -0.162953
-0.296237 -0.0843968 0.318578
-0.239198 -0.0608854 -0.315928
0.0842997 -0.0747065 -0.391724
-0.277125 -0.0177789 -0.0632607
0.170845 0.0852366 -0.391724
-0.22996 -0.075398 0.334535
-0.277125 0.0720552 0.259261
-0.296237 -0.0143291 0.12423
-0.230318 -0.021501 -0.181298
-0.290087 0.0757589 0.215374
0.0214406 -0.0774594 -0.391724
0.100641 0.00285829 -0.391724
-0.160974 0.00192636 0.359226
-0.197975 -0.021501 0.33276
0.161723 -0.0261274 -0.391724
-0.0764486 -0.050099 -0.391724
-0.220524 -0.0697393 0.334535
0.263601 -0.0444914 -0.372611
-0.178006 -0.021501 -0.0775049
-0.296237 -0.0309247 -0.0597723
0.223913 -0.0248476 -0.391724
-0.173564 -0.0862817 -0.380558
-0.277125 -0.0142098 -0.0453539
-0.183719 -0.021501 0.375292
0.100928 -0.0577331 -0.24042
-0.256208 -0.021501 -0.0995731
-0.21183 -0.021501 0.354574
-0.0749426 0.0296074 -0.372611
-0.290191 -0.021501 -0.0450916
-0.14334 -0.0314247 0.284812
0.238901 -0.0272361 -0.274669
-0.277125 0.0627294 0.3155
-0.14334 -0.0750727 0.311003
0.166981 -0.021501 -0.298846
-0.213732 -0.0897501 -0.341004
-0.0499074 -0.0396613 -0.24042
-0.105815 -0.0908905 -0.24042
-0.156215 0.0358354 -0.36757
0.0586282 -0.021501 -0.36401
-0.0172269 -0.0324388 -0.24042
-0.296237 0.0177456 0.228668
0.198843 -0.052893 -0.391724
-0.296237 0.00923871 -0.175483
-0.120729 -0.021501 -0.302323
-0.296237 0.0600381 0.169894
-0.296237 7.85524e-05 0.175671
0.290674 -0.021501 -0.296029
-0.188602 -0.021501 0.306697
-0.254647 -0.00756167 0.3849
0.238711 0.0361255 -0.380976
-0.296237 -0.0387099 -0.116619
-0.149507 -0.021501 0.272206
0.201819 -0.021501 -0.267062
0.10089 -0.0328255 -0.391724
-0.187218 -0.021501 0.260822
-0.0590895 -0.0682171 -0.24042
-0.26597 -0.021501 0.216329
-0.193251 -0.0683193 -0.361173
-0.23627 0.0237367 -0.318811
-0.14334 -0.0694542 0.316122
-0.131182 -0.0860687 0.334535
-0.277125 0.0588503 -0.21963
-0.296237 -0.0385525 0.223099
-0.0328324 -0.021501 -0.316524
0.218368 0.0041717 -0.391724
0.225912 -0.0845194 -0.391724
-0.149897 -0.021501 -0.351888
0.154365 -0.0763559 -0.24042
0.185985 0.017963 -0.372611
-0.296237 0.0307539 0.269871
-0.231036 -0.03393 0.391871
-0.296237 -0.0895483 0.105995
-0.277125 0.0655569 0.288136
-0.296237 0.0352422 -0.126783
-0.296237 0.0336612 0.20197
-0.270635 -0.021501 -0.201963
-0.0955946 -0.0834237 -0.391724
-0.288402 0.00888789 -0.24042
0.242152 -0.0128697 -0.257727
-0.154447 0.00909053 -0.383852
-0.141366 -0.021501 -0.357983
-0.15228 -0.0710099 0.334535
0.296237 -0.0795888 -0.337244
0.117388 -0.021501 -0.242089
0.175839 -0.021501 -0.363726
-0.296237 0.0803939 -0.200391
-0.203121 -0.0641105 0.334535
-0.296237 -0.0427548 0.154258
-0.292866 -0.0431677 -0.263081
0.0592453 -0.0923537 -0.391724
-0.172236 -0.021501 0.0894616
-0.296237 0.00752474 -0.0893938
-0.184634 0.0817583 -0.347215
-0.0675316 0.051748 -0.372611
0.223582 -0.0148543 -0.372611
-0.277125 0.039965 0.0496334
-0.144611 -0.021501 -0.235628
-0.255709 -0.021501 -0.0426226
-0.279608 0.0369172 0.0474355
-0.284219 -0.017829 -0.24042
-0.17346 -0.021501 -0.172567
0.286214 -0.00435721 -0.225278
0.205995 0.0586378 -0.372611
-0.277125 -0.0133356 0.248437
-0.288431 0.0419207 0.0449305
-0.296237 0.00389682 0.183157
-0.157239 -0.021501 0.0648611
0.169102 -0.021501 -0.374158
-0.296237 -0.0316744 0.137382
-0.277125 0.0570562 0.179351
-0.296237 -0.0499625 -0.254388
-0.295619 0.0924993 0.112964
-0.269825 -0.000968919 0.349741
-0.296237 0.0166983 -0.012743
-0.014713 -0.0687039 -0.391724
-0.124229 -0.0677873 0.377439
-0.296237 -0.00498936 0.171318
-0.14334 -0.0605486 0.0560568
-0.277125 0.0742614 -0.13047
-0.198097 -0.021501 -0.279814
0.195211 -0.0690243 -0.391724
0.24947 -0.0294229 -0.219715
-0.279311 0.0497897 0.329657
-0.296237 0.0209441 0.124357
-0.124229 -0.0689992 0.378933
0.284884 -0.00348801 -0.327792
-0.223293 -0.021501 -0.269505
-0.296237 -0.0199537 -0.0965425
-0.291318 -0.0647716 -0.264606
-0.161382 -0.021501 0.0908732
-0.277125 0.0110899 0.294378
0.0431415 0.038737 -0.391724
0.232163 -0.021501 -0.30044
-0.243595 -0.0687728 0.391871
-0.292268 -0.021501 0.00091329
0.286591 -0.086259 -0.372611
0.296237 -0.0838423 -0.280069
-0.296237 -0.0278598 -0.103912
-0.296237 -0.0503578 -0.138123
-0.296237 -0.0672004 0.264992
-0.149671 -0.021501 0.308404
-0.282109 -0.021501 -0.213938
-0.20545 -0.021501 0.251037
-0.159577 -0.021501 0.0534824
-0.296237 0.0468588 -0.0438102
-0.0801689 0.0751716 -0.391724
-0.274686 -0.021501 0.214661
-0.263635 0.0297793 -0.253749
-0.296237 0.057947 -0.049599
0.00206022 -0.021501 -0.31419
-0.205592 -0.021501 0.153123
-0.296237 0.0299754 -0.140041
0.261723 -0.0931713 -0.303618
-0.277125 0.0615974 0.144125
-0.296237 0.0693228 -0.0100213
0.0922157 0.0252267 -0.391724
-0.277125 0.0191276 0.183416
-0.296237 -0.0842912 0.294383
-0.194359 -0.0671116 0.391871
-0.277125 0.01074 0.203492
0.0971614 -0.021501 -0.380673
-0.154937 -0.021501 0.38088
-0.198072 -0.021501 -0.239351
-0.296237 -0.0683606 0.314721
-0.277125 0.0143859 0.131019
-0.277125 -0.075153 0.352471
-0.0188749 -0.00878909 -0.372611
-0.00868743 -0.021501 -0.269538
0.238901 -0.0722759 -0.262336
-0.277125 0.021641 -0.235168
0.190143 -0.021501 -0.357689
-0.267378 0.0707245 -0.288115
0.022205 -0.021501 -0.36744
0.159826 -0.021501 -0.301123
0.271818 -0.0931713 -0.320561
-0.169979 0.0500957 -0.34629
-0.204812 -0.021501 0.382005
-0.14334 -0.0490425 -0.20153
0.244686 -0.0276947 -0.372611
-0.155784 -0.021501 -0.111539
-0.0134525 -0.00334528 -0.391724
-0.296237 -0.0475548 -0.0262555
-0.239195 -0.021501 0.218405
-0.263585 -0.061266 0.391871
0.296237 -0.0506965 -0.240128
-0.135806 -0.021501 0.344223
-0.221498 -0.0931713 0.33548
-0.0110623 0.0692151 -0.372611
0.128265 -0.021501 -0.364233
-0.251409 -0.0847578 0.391871
0.238901 -0.0580933 -0.353241
-0.296237 -0.0357235 0.0546035
-0.14334 -0.0906952 0.116583
-0.14334 -0.0584948 -0.117139
-0.14334 -0.0252191 0.10064
0.232386 -0.00859789 -0.372611
-0.296237 0.00143073 -0.0909578
-0.277125 0.0106596 -0.03607
0.0707164 -0.033233 -0.24042
0.213306 0.00790535 -0.372611
-0.192923 -0.021501 -0.139672
0.0320665 0.0449837 -0.372611
-0.14334 -0.0681325 -0.106176
-0.00644185 0.0098731 -0.372611
-0.296237 0.0633634 -0.223337
-0.29119 0.0373146 0.0465404
-0.242894 0.0299804 -0.312289
-0.14334 -0.0513162 -0.0232342
-0.296237 0.0660991 -0.0139104
0.131776 -0.0130885 -0.372611
-0.191879 -0.021501 0.0701184
-0.145238 -0.021501 -0.0631825
-0.237281 -0.0536035 -0.317816
-0.0242543 -0.0533675 -0.391724
-0.162187 -0.0931713 0.386127
-0.296237 -0.0384752 0.00417195
0.238901 -0.0303602 -0.354483
-0.14334 -0.0262972 -0.101579
0.0424311 -0.0424638 -0.391724
0.295313 -0.0698702 -0.372611
-0.296237 0.0340694 -0.205881
0.255612 -0.021501 -0.300833
0.296237 -0.0287706 -0.307239
0.239336 -0.0200792 -0.333047
-0.257597 -0.021501 -0.142515
-0.277125 0.0513628 0.279619
-0.279963 -0.021501 -0.00225429
0.132578 -0.0653737 -0.391724
-0.296237 -0.0575668 -0.0485991
-0.296237 -0.00980693 0.00330225
-0.165417 -0.021501 0.178547
0.176138 0.0273512 -0.372611
-0.277125 0.0654187 0.103615
0.145788 0.00174373 -0.391724
0.0313258 0.0304347 -0.391724
-0.22674 0.00955411 -0.328195
-0.296237 0.021733 -0.190859
0.10455 -0.021501 -0.263019
-0.00165836 0.0589442 -0.391724
-0.0848683 -0.021501 -0.358435
0.289565 -0.021501 -0.311498
-0.14334 -0.0606624 0.204362
-0.124229 -0.0207857 0.336656
-0.22456 -0.0753078 0.391871
-0.296017 0.0842624 0.228121
-0.277125 0.0246697 -0.168844
-0.154286 -0.021501 0.12515
-0.296237 0.0436118 0.322033
0.286973 -0.0558232 -0.219715
-0.296237 0.0397181 0.216926
0.0548576 0.0343812 -0.372611
0.00782873 0.0412255 -0.391724
0.148194 0.016148 -0.391724
0.0921676 -0.00497674 -0.391724
-0.106381 0.05217 -0.372611
0.185469 0.0775709 -0.391724
0.240134 -0.0174717 -0.223815
-0.296237 0.00945266 0.0610243
-0.277125 0.0567646 -0.0104664
-0.151305 -0.021501 0.323454
-0.161502 -0.021501 -0.0981921
-0.165147 -0.021501 -0.339038
-0.296237 0.0875456 0.127446
0.238901 -0.0762888 -0.258576
-0.296237 0.0725325 0.29107
-0.250445 0.00618099 -0.266782
-0.296237 0.0175052 -0.0843525
-0.277125 0.020474 -0.00187622
-0.0215165 -0.0684076 -0.391724
-0.196455 -0.021501 -0.125114
0.0140249 -0.021501 -0.38682
0.281747 -0.0931713 -0.242543
0.164393 0.0207421 -0.391724
0.0114724 -0.021501 -0.259295
-0.0814413 0.0731958 -0.391724
0.238901 0.0344798 -0.37604
0.296237 -0.0612868 -0.221391
-0.225193 -0.021501 0.075377
-0.277125 0.0275407 0.329339
-0.027961 0.0900724 -0.391724
-0.226382 0.0223329 -0.290558
0.229267 -0.04555 -0.24042
0.0477801 0.0116048 -0.389977
-0.22184 -0.021501 0.0505313
0.0624327 -0.021501 -0.299949
-0.14334 -0.0869951 0.0755575
0.061221 -0.033436 -0.24042
0.296237 -0.0339848 -0.251502
-0.0325189 -0.0468448 -0.24042
0.264966 -0.021501 -0.300762
-0.296237 -0.0511229 0.176714
-0.258057 -0.021501 -0.0789131
-0.296237 -0.019983 0.074757
-0.24608 -0.021501 -0.114554
-0.296237 -0.0355919 -0.0179665
-0.000179822 -0.0257668 -0.391724
-0.14334 -0.0321112 0.215157
0.248028 -0.0931713 -0.297467
-0.245007 -0.0522326 -0.310208
-0.296237 -0.0356523 0.0113267
-0.296237 -0.0850447 -0.177396
0.253717 -0.00122432 -0.3304
-0.296237 0.0416547 -0.165749
0.146385 0.0928963 -0.38859
-0.14334 -0.0662477 -0.229218
-0.290725 0.0612512 0.322914
-0.0135357 -0.0812016 -0.391724
-0.191556 -0.021501 -0.322154
-0.296237 0.0128698 0.300848
-0.14949 -0.021501 -0.38087
-0.191436 0.0701076 -0.363152
-0.230527 0.0839137 -0.324525
-0.189926 0.0358354 -0.356947
0.290522 -0.0537456 -0.219715
0.296237 -0.0656458 -0.281982
-0.277125 0.0420233 0.292854
-0.238755 -0.0240543 0.334535
-0.237536 0.00877452 -0.279537
0.150701 0.0414368 -0.391724
0.208149 -0.0198764 -0.391724
-0.22406 -0.021501 0.36172
-0.128735 -0.0370559 -0.24042
-0.293175 -0.021501 -0.128425
-0.296237 -0.00307852 -0.240212
-0.252742 -0.0581384 0.334535
-0.124229 -0.0756704 0.33908
0.238901 -0.0347784 -0.297997
-0.22985 0.0929386 -0.322751
-0.14334 -0.0556564 0.117254
-0.277125 -0.0115283 0.103045
-0.296237 -0.0437291 0.232521
-0.0227758 -0.021501 -0.251503
-0.207119 -0.021501 -0.217463
-0.277125 0.0587218 0.0969922
-0.127803 -0.021501 0.383126
-0.296237 -0.0549852 0.088847
0.207807 -0.021501 -0.305992
-0.277125 0.0237694 0.0871862
-0.264691 -0.0540333 -0.290825
-0.189412 -0.021501 -0.0945945
-0.268665 -0.0554247 0.334535
-0.23652 0.041881 -0.318604
0.207994 -0.021501 -0.377038
-0.296237 0.0349576 -0.255294
-0.14334 -0.0734988 -0.218393
-0.149153 -0.0500616 -0.391724
-0.296237 -0.0234629 0.167386
-0.218256 -0.0529427 0.334535
-0.188523 -0.021501 0.230455
-0.296237 -0.0548665 -0.0187753
-0.0236373 0.0543121 -0.372611
-0.179247 -0.021501 0.323839
-0.20331 0.0372537 -0.313356
-0.284194 0.0527593 0.328247
-0.0610222 -0.0401917 -0.24042
-0.292034 -0.021501 0.291706
-0.246074 -0.021501 0.271483
-0.102818 -0.0822151 -0.391724
0.045169 0.0348292 -0.372611
-0.0355251 0.0428293 -0.391724
-0.296237 -0.0385738 -0.249576
-0.121779 -0.0288181 -0.24042
-0.277125 0.0207453 0.13521
-0.0591815 -0.0862371 -0.24042
-0.132295 -0.0931713 0.38665
-0.296237 0.0107473 0.201904
-0.14334 -0.0822874 -0.178508
-0.0396058 0.0648172 -0.372611
-0.296237 -0.0745636 0.137115
-0.233244 0.0696392 -0.283779
0.238901 -0.00794083 -0.38293
0.18977 -0.021501 -0.315003
-0.146161 -0.021501 -0.253262
-0.280881 0.0596915 0.180155
-0.296237 0.0139841 -0.128895
-0.269902 -0.021501 0.162238
-0.19327 -0.021501 -0.301303
-0.14334 -0.0358904 -0.102551
-0.266003 0.0454207 -0.25141
-0.257561 0.027037 -0.297846
0.126175 -0.0109523 -0.391724
-0.296237 0.0777538 0.220857
-0.277125 -0.0782179 0.390249
-0.0524307 -0.0713564 -0.24042
0.0780423 -0.021501 -0.325866
0.27393 -0.0859594 -0.372611
-0.211486 -0.021501 -0.0911392
0.183862 0.0434782 -0.372611
0.238901 -0.0878225 -0.307788
-0.00469121 0.0565792 -0.372611
0.150063 -0.0385836 -0.24042
-0.287632 -0.021501 0.111499
-0.296237 -0.0292114 0.187021
-0.157593 -0.00289985 -0.387036
-0.219401 -0.021501 0.143365
0.188083 0.00221844 -0.372611
-0.279843 0.0181557 0.190796
-0.14334 -0.0483101 0.282059
-0.166776 -0.0597476 0.334535
-0.14334 -0.0286498 0.261537
0.166642 -0.0115984 -0.372611
-0.0668859 -0.021501 -0.352857
0.199344 -0.0878145 -0.391724
-0.203826 -0.021501 0.038518
0.287503 -0.0931713 -0.342351
-0.107556 0.0400836 -0.391724
-0.263543 -0.0133313 0.388888
-0.277125 -0.0135664 0.178693
-0.14334 -0.0914886 0.145105
-0.294359 0.0921903 -0.159846
-0.231289 -0.00699572 0.342043
-0.145642 -0.021501 -0.186684
-0.14334 -0.0586045 0.0443114
-0.296237 0.057293 0.305867
-0.0963836 -0.0579631 -0.24042
-0.267143 0.0231316 -0.250283
-0.16003 0.012776 -0.356119
-0.157838 -0.0738105 0.334535
0.264213 -0.0315925 -0.219715
-0.107515 -0.021501 -0.26394
-0.21931 0.0912127 -0.33561
-0.14334 -0.0695637 -0.119337
0.0228683 -0.021501 -0.360142
0.174662 -0.00854343 -0.372611
-0.277125 -0.00650923 -0.0676881
-0.0497211 -0.0198555 -0.391724
-0.277125 0.0182499 -0.173023
-0.284757 0.0931056 -0.0242285
-0.14334 -0.0910458 0.0481044
0.0965203 -0.0881316 -0.24042
-0.272674 -0.0255633 -0.282965
-0.277125 -0.00926861 0.29585
-0.215219 -0.0659361 -0.339541
-0.277125 0.00416274 0.0654204
-0.260934 -0.021501 0.347117
-0.221035 -0.021501 -0.143174
-0.0426004 -0.0805567 -0.391724
-0.285951 -0.00964991 0.334535
-0.277125 -0.00453305 0.00189896
-0.046756 -0.0397946 -0.24042
-0.277125 0.0152951 0.153789
0.03907 -0.021501 -0.26007
0.250909 -0.021501 -0.229279
-0.159139 -0.021501 0.276211
-0.230867 -0.0489294 -0.324132
0.107923 -0.00274783 -0.372611
-0.181326 -0.021501 0.0345079
-0.277125 0.0306992 0.206634
-0.201542 -0.0909093 0.334535
-0.229325 0.00189607 0.358965
-0.14334 -0.0585494 -0.189528
-0.296237 0.0336798 0.177209
-0.296237 0.00596737 -0.250043
-0.0715021 -0.0826587 -0.24042
-0.226145 -0.021501 0.250788
0.286259 -0.00439866 -0.352512
-0.250472 0.0871918 -0.29853
-0.158441 -0.0194109 -0.387894
-0.0364348 -0.0708116 -0.391724
0.226149 -0.0494752 -0.391724
0.0251742 -0.0234552 -0.391724
-0.224133 -0.021501 0.330238
-0.140431 -0.021501 0.334579
0.243043 -0.0113444 -0.337281
-0.160871 -0.0125969 -0.355289
-0.158922 0.0271605 -0.388381
-0.14334 -0.0713959 0.0265582
-0.174377 -0.021501 0.0861218
-0.294307 0.0560854 -0.0883046
0.238901 -0.0611264 -0.343253
-0.181226 0.0616593 -0.37324
0.0585624 -0.021501 -0.265592
0.148776 0.0265035 -0.372611
-0.0614809 -0.021501 -0.37232
-0.277125 0.0898306 -0.00697947
-0.280844 0.0746245 0.167351
-0.27937 0.00598706 0.0470574
-0.15894 -0.021501 -0.344808
-0.132465 -0.0807319 0.334535
0.226907 -0.021501 -0.311055
0.296237 -0.0594121 -0.308904
0.16259 -0.0202007 -0.372611
0.238901 -0.0430488 -0.297231
-0.14334 -0.0368193 -0.167886
-0.0177864 0.00731513 -0.391724
-0.254088 -0.0542946 0.334535
-0.296237 0.0670321 -0.209002
0.0706951 -0.0417432 -0.391724
0.150721 0.0491867 -0.391724
-0.296237 0.0379706 0.252554
-0.277125 0.00622489 -0.046123
0.289466 -0.0244296 -0.372611
-0.267995 -0.0122822 0.33813
-0.175975 -0.021501 -0.334066
-0.149298 -0.0188555 0.335345
-0.277125 -0.00718526 0.0609256
-0.152759 -0.021501 -0.0587463
0.0714282 -0.00884434 -0.372611
-0.24478 -0.021501 0.0464349
0.225247 0.0531954 -0.372611
0.238901 -0.0325504 -0.28057
-0.117619 -0.0331799 -0.24042
0.225271 -0.021501 -0.259135
0.238901 -0.0248227 -0.308136
0.17627 -0.011972 -0.372611
-0.296237 -0.0392495 -0.0937153
-0.142387 -0.000144526 -0.391724
0.221294 -0.0739213 -0.391724
-0.154038 -0.021501 -0.180567
-0.296237 0.0597938 -0.0747487
-0.14334 -0.0532841 0.221864
0.257729 -0.021501 -0.269992
-0.0749217 -0.0215727 -0.24042
0.292716 -0.0931713 -0.321656
-0.277125 0.0684879 0.14281
-0.14334 -0.0632244 -0.000493229
-0.1564 -0.021501 -0.22313
-0.296237 -0.0450684 0.308482
0.209835 0.0372602 -0.391724
0.136151 -0.021501 -0.355307
-0.14334 -0.0554908 0.228928
-0.238898 0.0387131 -0.316255
0.202751 -0.00425746 -0.391724
-0.0347829 -0.021501 -0.385882
0.269532 -0.0255231 -0.219715
-0.296237 0.0434969 0.0757436
0.112053 -0.0845461 -0.24042
0.0273225 0.0515328 -0.391724
0.0798779 0.0326937 -0.391724
-0.296237 0.0428539 0.05652
-0.14334 -0.0309869 0.276935
0.296237 -0.0795172 -0.275522
0.295846 -0.0297639 -0.219715
-0.296237 0.0926793 -0.164486
-0.192548 0.0358354 -0.361709
-0.229719 -0.021501 -0.191526
-0.296237 0.0586638 -0.0569567
-0.14334 -0.0858681 -0.206819
-0.203099 -0.0587686 0.391871
-0.14334 -0.0644842 -0.228791
0.296237 -0.0567876 -0.249373
-0.0960517 -0.0459892 -0.24042
-0.277125 0.0321288 0.0253347
-0.182886 -0.0176141 -0.371379
0.238901 -0.0487321 -0.378956
0.238901 -0.0470292 -0.342334
0.288869 -0.00714288 -0.298067
0.22837 -0.0137679 -0.391724
0.241103 -0.014666 -0.30844
-0.235633 -0.021501 0.346512
-0.22457 -0.021501 0.106409
-0.277125 0.0796273 -0.180035
-0.151317 0.0227967 -0.364729
0.1565 0.0672002 -0.372611
-0.14334 -0.0844269 0.267145
-0.124229 -0.011109 0.355597
0.0510364 -0.00626109 -0.391724
-0.14334 -0.0696237 0.0662474
-0.288816 -0.0477389 -0.26707
-0.0733835 -0.021501 -0.375831
-0.234503 0.0719896 -0.282535
-0.192583 -0.021501 0.329009
-0.14334 -0.0407287 0.0304991
-0.277125 -0.0255817 0.370241
-0.124229 -0.0552487 0.365974
0.0571532 0.0454386 -0.372611
-0.14334 -0.0448577 -0.0929008
0.254684 -0.0931713 -0.354184
-0.156119 -0.021501 -0.21918
-0.296237 -0.0506362 0.333934
0.295067 -0.021501 -0.331784
-0.15279 -0.021501 0.289763
0.215304 0.0657198 -0.388081
-0.277125 -0.00957335 -0.211278
0.161001 0.0588873 -0.391724
-0.277125 0.0115294 0.0702805
-0.240458 0.0211175 -0.314687
-0.277125 0.0211792 -0.0979539
-0.296237 0.051493 0.26422
-0.296237 -0.025681 -0.0965796
-0.296237 -0.0429938 -0.196694
-0.295101 0.0232246 -0.24042
-0.100718 -0.0174922 -0.391724
-0.253723 -0.021501 -0.109703
-0.264665 -0.021501 -0.152763
0.0674382 -0.0297231 -0.24042
-0.296237 -0.0301192 -0.0802186
0.271971 -0.0931713 -0.264073
-0.229041 -0.00749837 0.38484
0.275665 -0.0931713 -0.35296
-0.14334 -0.0331444 -0.104335
-0.277125 0.00487872 0.321102
-0.0704111 -0.021501 -0.333038
0.126349 -0.021501 -0.270406
-0.0653241 0.00413971 -0.391724
-0.277125 0.0561356 0.146575
0.238901 -0.0869727 -0.292262
0.0778208 0.0414632 -0.372611
-0.277125 0.0308042 0.246517
-0.296237 0.00996449 -0.0928373
-0.277125 0.0858149 -0.0331243
-0.223729 -0.021501 -0.178285
-0.286471 0.038341 0.18992
-0.290779 0.0571537 0.0380103
-0.0909674 0.0583911 -0.372611
-0.14334 -0.0382236 -0.180534
0.197202 0.00233734 -0.372611
-0.280202 -0.021501 -0.00738073
-0.277714 0.088195 -0.193892
0.27999 -0.0141403 -0.219715
0.0647152 -0.0501866 -0.391724
-0.0646943 -0.089322 -0.24042
-0.199798 -0.021501 0.232796
0.0208099 -0.0139245 -0.372611
0.286868 -0.0562255 -0.219715
-0.296237 -0.0166434 0.227745
0.0216851 -0.0298502 -0.391724
0.00244789 -0.021501 -0.240574
-0.100119 0.0739871 -0.372611
-0.213924 0.0287172 -0.302868
-0.217915 -0.021501 0.250391
-0.184786 -0.0671478 0.334535
-0.180065 -0.021501 0.076065
-0.0983691 -0.0926387 -0.391724
-0.296237 0.0683213 0.0677162
0.238901 -0.0899649 -0.237996
-0.0536751 -0.021501 -0.328228
-0.0437437 0.0769303 -0.391724
-0.296237 0.0210765 -0.0456219
0.163332 -0.0312102 -0.24042
-0.14334 -0.0509092 0.100876
0.238901 -0.0778044 -0.28816
-0.187713 -0.021501 0.390433
-0.0789792 0.0100116 -0.372611
-0.0766168 -0.021501 -0.288966
0.120341 -0.021501 -0.294068
-0.14334 -0.0493205 0.0245294
-0.14334 -0.0485757 -0.211161
0.0447497 -0.021501 -0.370951
-0.119578 -0.021501 -0.263713
-0.196995 0.0583827 -0.319596
-0.210529 0.086901 -0.344287
0.239862 -0.0598096 -0.372611
-0.294746 0.036124 -0.261071
-0.277125 0.0385445 -0.00457562
-0.289104 0.0438609 -0.266647
0.22426 0.0562998 -0.381573
0.018581 -0.00775333 -0.372611
-0.14334 -0.0785227 -0.193013
-0.138926 -0.0524647 -0.391724
-0.160366 -0.0607463 0.334535
-0.259217 -0.021501 0.321058
-0.136427 -0.0127346 0.38854
0.238901 -0.0801179 -0.28535
-0.139435 0.00459156 -0.391724
-0.27125 -0.0305356 0.334535
-0.244423 -0.021501 0.299131
-0.129072 -0.021501 -0.349105
0.205291 -0.0736732 -0.24042
-0.29345 -0.021501 0.315721
-0.296237 -0.0678515 0.130413
0.161096 -0.021501 -0.262419
-0.0454579 -0.021501 -0.250656
-0.17531 -0.0684722 0.334535
-0.168936 -0.0153191 -0.385115
-0.228498 0.0527007 -0.288468
0.160441 -0.021501 -0.309669
-0.277125 0.0260043 -0.0171718
-0.195393 -0.0421242 -0.359064
-0.277125 -0.0201409 0.194922
0.267138 -0.021501 -0.244034
-0.296237 0.0794964 0.0905793
-0.296237 -0.0210904 -0.226468
-0.17627 -0.0483951 0.391871
-0.296237 -0.077841 0.174541
-0.277125 0.0262857 0.193155
-0.183896 -0.0262076 0.334535
0.296237 -0.0721367 -0.271998
-0.251248 0.0358354 -0.26974
-0.175611 -0.000783415 -0.378543
-0.245351 -0.021501 0.123852
-0.14334 -0.0457754 0.0676624
-0.285904 0.0595233 0.057593
0.0601868 -0.0263139 -0.391724
0.0687646 -0.0669752 -0.24042
-0.138068 -0.0395421 0.391871
-0.296237 0.0438296 0.00843519
-0.219133 -0.021501 -0.125561
-0.277125 0.0778058 -0.133017
-0.296237 -0.01189 0.159554
-0.161819 -0.00259149 -0.391724
-0.200784 -0.0625167 0.391871
-0.277125 0.0674013 0.308295
0.055289 -0.021501 -0.291339
0.159697 -0.021501 -0.35722
-0.162794 0.0358354 -0.390529
0.171431 -0.0281918 -0.24042
-0.277125 -0.0779335 0.366801
-0.263313 -0.00676109 -0.254067
-0.0118088 -0.0505568 -0.24042
-0.277125 0.0852007 0.000170647
-0.290545 0.0846586 -0.202464
0.16706 0.025191 -0.391724
-0.188681 -0.021501 -0.0173832
-0.267069 -0.021501 -0.185609
-0.277125 0.0472339 0.172348
0.0388403 -0.0672062 -0.391724
0.294144 -0.0931713 -0.310447
-0.226716 -0.0640473 0.334535
-0.236918 -0.021501 -0.0515271
-0.144156 -0.021501 -0.329041
0.103236 -0.021501 -0.377727
-0.155463 0.0288355 -0.38488
-0.14334 -0.0532451 -0.0334114
0.245181 -0.0896598 -0.219715
-0.201949 -0.0931713 0.349053
-0.296237 -0.0384294 0.283871
0.00422242 -0.021501 -0.353311
0.296237 -0.0625597 -0.253393
0.0636922 -0.019007 -0.372611
-0.14334 -0.0424774 -0.0992456
-0.245725 -0.0771526 0.391871
-0.138343 0.0434626 -0.376275
-0.296237 -0.0356352 -0.1185
-0.296237 -0.0790646 0.160764
-0.296237 -0.0802213 -0.244955
-0.129107 -0.0271466 0.334535
-0.211582 -0.021501 0.0692367
-0.277125 -0.00310874 0.304194
-0.296237 0.0366517 -0.031721
-0.296237 -0.0809769 0.272982
-0.296237 -0.0653683 -0.171951
-0.296237 -0.0693508 -0.109808
-0.178817 0.0430282 -0.375621
-0.268891 0.0032844 -0.248556
0.238901 -0.0652424 -0.389458
0.296237 -0.0696945 -0.362586
-0.216971 0.0358354 -0.307398
0.16569 0.0160492 -0.391724
-0.277125 -0.00819932 0.0248204
0.21926 0.0435754 -0.372611
-0.258283 0.0394512 -0.297101
-0.277125 -0.016945 -0.231493
-0.130472 -0.0655904 0.334535
-0.296237 -0.0511255 0.187244
-0.214202 -0.021501 0.36535
-0.296237 0.0148221 -0.246018
-0.185135 0.0350716 -0.331314
-0.296237 -0.0848435 -0.112861
-0.268595 -0.021501 0.0120706
-0.0614769 0.0919342 -0.379595
-0.277125 0.00924204 0.196459
-0.148484 -0.021501 0.150506
-0.287526 -0.021501 0.333761
-0.277125 0.0436232 0.0326786
0.14123 -0.021501 -0.252394
-0.240872 -0.021501 0.135949
-0.160885 -0.0477161 0.391871
-0.146947 -0.021501 0.355919
0.0970323 -0.0235106 -0.391724
-0.296237 -0.0882495 -0.0375016
0.238901 -0.0476815 -0.295914
0.294686 -0.0164373 -0.232436
-0.149374 -0.021501 0.251712
-0.0457549 0.0859912 -0.391724
-0.277125 0.0683067 0.0119888
-0.206137 0.0747917 -0.348626
-0.2215 -0.021501 -0.0145887
0.0848652 -0.0456648 -0.391724
-0.277125 0.0262189 -0.0877099
0.267662 -0.021501 -0.354837
-0.0158353 -0.0506606 -0.391724
0.273671 0.00167916 -0.316537
-0.214659 -0.021501 0.331253
-0.178934 -0.021501 0.0592091
0.296237 -0.0627641 -0.235859
0.117044 -0.0675162 -0.391724
-0.0789261 0.0761987 -0.372611
-0.279353 0.0661795 -0.276282
0.218667 0.018915 -0.391724
-0.124229 -0.0267778 0.343522
0.213323 -0.0909713 -0.391724
0.0392998 0.00703422 -0.391724
-0.0505286 -0.0384241 -0.391724
-0.0570211 -0.0178178 -0.391724
-0.279969 -0.0177518 -0.243298
0.296237 -0.0820488 -0.287184
-0.281887 -0.021501 -0.146856
-0.242981 0.0442419 -0.312221
0.123401 -0.021501 -0.292452
-0.180401 -0.021501 -0.0919835
-0.296237 -0.0426315 0.204323
-0.00568638 0.0396291 -0.391724
-0.296237 -0.0588437 -0.165681
0.0834028 0.0746601 -0.390659
-0.277125 -0.0180423 0.327002
0.277532 0.00042562 -0.227843
-0.14334 -0.0674473 0.0373491
-0.236964 -0.021501 0.11089
-0.185957 -0.021501 0.303173
-0.211154 0.0358354 -0.332781
-0.251766 0.00218261 0.364977
-0.273034 -0.021501 0.0844722
0.137404 -0.0275303 -0.391724
-0.221382 -0.021501 0.187233
-0.25457 -0.0882533 0.334535
-0.296237 0.00590315 0.319481
0.0306354 0.0102349 -0.391724
-0.14334 -0.0677661 -0.194307
-0.277954 0.0358354 -0.258835
-0.0434078 0.063771 -0.372611
-0.16404 -0.021501 0.148822
-0.257041 -0.00487849 0.382348
-0.296237 0.0657706 0.152309
-0.296237 0.0339231 0.0539713
-0.277125 0.0171976 0.266515
-0.222777 -0.021501 0.121084
-0.108476 0.000276913 -0.391724
-0.0589583 -0.021501 -0.24531
0.00594549 -0.0555028 -0.24042
-0.205522 -0.0461792 -0.349089
0.0768912 0.0537021 -0.372611
-0.296237 -0.0866413 -0.0715381
0.245131 -0.021501 -0.356887
-0.0168565 -0.0247029 -0.24042
-0.124229 -0.0396376 0.363562
-0.24603 -0.021501 -0.104622
-0.14675 -0.021501 0.0193365
-0.277125 -0.0161861 0.291842
-0.0452102 0.0929392 -0.389264
-0.296237 0.0236643 0.116192
-0.183033 -0.021501 0.207357
0.0974701 -0.0418371 -0.391724
-0.277125 0.0484331 -0.031011
0.19883 0.0495989 -0.372611
0.0811586 -0.00664173 -0.391724
-0.24556 0.0855195 -0.286565
0.0948935 0.0465493 -0.372611
0.291349 -0.021501 -0.236752
-0.296237 -0.0239708 -0.211655
-0.14334 -0.0585205 -0.220727
-0.158361 -0.0581259 0.334535
0.234207 -0.021501 -0.286729
-0.168012 -0.0107893 0.387403
-0.296237 -0.0243755 -0.13412
0.115479 0.0465076 -0.391724
-0.110585 -0.0420179 -0.24042
0.193589 0.080383 -0.390287
-0.296237 -0.0733568 -0.0671957
-0.14334 -0.061368 0.290116
-0.253023 -0.021501 -0.183162
0.134379 0.0923619 -0.374859
-0.283998 0.0446452 -0.271692
-0.14334 -0.0792511 0.300363
-0.277125 0.0590035 -0.0418603
0.164342 -0.0919042 -0.24042
-0.296237 -0.0856289 0.302091
-0.202873 -0.0931713 0.36014
-0.038132 0.0398779 -0.391724
0.249973 -0.021501 -0.307197
-0.296237 -0.0472539 0.315503
0.238901 -0.0558189 -0.349319
-0.135766 -0.0931713 0.38787
-0.277125 0.00674485 0.260955
0.222729 -0.0041703 -0.372611
-0.277125 0.055403 -0.128557
-0.296237 0.021991 -0.0572221
-0.296237 0.064023 0.301347
0.290617 -0.0220402 -0.372611
-0.152241 -0.0427883 0.334535
0.212011 -0.021501 -0.283701
0.296237 -0.0885162 -0.305261
-0.14334 -0.0303435 0.0449507
-0.296237 -0.0519237 0.139272
-0.296237 0.0296205 -0.0166646
0.140774 -0.0691143 -0.24042
-0.159604 -0.021501 -0.320495
-0.296237 -0.0187314 -0.118615
-0.296237 0.0656056 0.232714
-0.1678 -0.0246273 0.391871
-0.191728 -0.021501 -0.223187
-0.296237 0.0225724 0.255587
0.238901 -0.0855867 -0.303269
0.25438 -0.0931713 -0.311062
-0.277125 -0.0199469 -0.219534
-0.0832157 -0.0252601 -0.24042
-0.201737 -0.021501 -0.194409
-0.277125 0.0484675 -0.219036
-0.0981856 -0.0305088 -0.24042
-0.133565 -0.0214215 -0.391724
0.201127 -0.0613982 -0.391724
-0.277125 -0.019009 0.0102335
0.109301 0.0597482 -0.391724
-0.296237 0.0228731 -0.0800978
-0.19825 0.0254184 -0.318356
-0.249786 -0.021501 0.194123
-0.14334 -0.0495035 -0.0726197
-0.0447042 -0.038413 -0.24042
-0.262468 -0.021501 0.377159
-0.296237 0.0742726 0.0141488
-0.277125 -0.0674202 0.3892
-0.166715 0.0651631 -0.349514
-0.0677799 -0.0554099 -0.24042
0.171203 -0.021501 -0.388964
0.181849 0.0556242 -0.391724
-0.193275 -0.021501 0.349823
0.00394905 0.0425429 -0.372611
-0.14334 -0.0656858 0.147684
-0.235567 -0.055715 0.391871
-0.277125 -0.0153706 -0.14602
-0.277125 0.0874095 0.264985
-0.276759 -0.021501 0.33307
-0.0543019 0.0874822 -0.372611
0.238901 -0.0727782 -0.353151
-0.277125 -0.00550303 -0.0265199
-0.14334 -0.0927135 0.242706
-0.14334 -0.0464383 0.313325
0.0844264 -0.0382085 -0.391724
-0.288691 -0.021501 0.0995251
0.0368628 0.0267445 -0.372611
-0.227656 -0.021501 0.0648111
-0.277125 0.0411609 -0.0675284
-0.0655093 -0.021501 -0.261115
-0.272286 -0.021501 -0.13472
0.296237 -0.0531935 -0.295063
-0.296237 0.0130449 -0.173404
-0.296237 0.0701446 0.0770085
-0.14334 -0.0596504 -0.223669
-0.167373 -0.0576989 0.391871
-0.285832 0.0810686 -0.128925
0.294945 -0.021501 -0.320807
-0.0854493 -0.0727076 -0.24042
-0.230255 -0.021501 -0.113404
-0.296237 -0.00211816 0.222998
-0.296237 0.00372144 -0.0476258
-0.296237 -0.0473454 0.198965
-0.278055 -0.01265 -0.277666
0.287137 -0.0931713 -0.265313
-0.296237 -0.0576245 -0.0933149
0.0481359 -0.0839764 -0.391724
-0.255345 0.0574337 -0.26194
-0.253248 -0.0668469 -0.302094
-0.296237 -0.0458084 0.319056
-0.292177 0.0794719 0.0767613
-0.277125 -0.0184915 -0.175133
-0.296237 -0.0530921 0.156108
-0.269527 -0.089383 -0.286063
0.133595 0.0792553 -0.391724
0.264083 -0.0749195 -0.219715
-0.268551 -0.0248254 0.391871
-0.14334 -0.0306022 -0.0124797
0.118743 -0.0290676 -0.391724
-0.296237 0.0568316 -0.126604
-0.296237 -0.0590508 0.258712
0.219939 -0.021501 -0.26913
0.164604 -0.021501 -0.283229
-0.277125 -0.010142 -0.20763
0.289367 -0.00766747 -0.320848
-0.277125 0.0402837 0.265776
-0.125965 -0.021501 -0.390882
0.0710103 -0.0441082 -0.391724
-0.296237 -0.0864411 0.0382069
-0.124229 -0.055305 0.368302
-0.210639 -0.0241231 -0.34405
-0.287916 0.0514283 0.185344
-0.286248 0.0288146 -0.249653
-0.141297 -0.021501 -0.244321
-0.111517 -0.0268615 -0.391724
-0.0741822 -0.0742697 -0.24042
-0.281818 0.0404809 -0.238796
-0.281198 0.0194976 -0.274571
-0.296237 0.0519781 -0.0716144
0.0485255 -0.021501 -0.277093
0.150401 -0.0552364 -0.391724
-0.296237 0.0567258 0.292834
-0.296237 0.0745051 0.165303
0.284905 -0.0035013 -0.230738
0.0295733 -0.0829368 -0.24042
0.12011 0.040846 -0.372611
-0.284187 -0.021501 -0.0462736
-0.14334 -0.0824178 0.225813
-0.277125 -0.010126 -0.211333
-0.277125 0.0743507 0.12681
-0.188741 -0.0399177 0.391871
0.252143 -0.0520847 -0.219715
-0.277125 0.042117 0.13929
-0.133715 -0.021501 0.359289
-0.295227 0.0863584 0.293254
0.148375 -0.0373088 -0.391724
0.249269 -0.0339736 -0.219715
-0.0287874 -0.021501 -0.301681
-0.277125 0.0287062 -0.0146635
-0.134297 0.00192716 0.359233
-0.296237 -0.0657485 0.0535932
-0.14334 -0.0893068 0.279759
-0.212409 -0.021501 0.035012
-0.220433 -0.0138045 -0.296436
-0.296237 0.0152059 -0.138682
-0.277125 0.0241518 -0.166971
-0.14334 -0.0746668 -0.151783
-0.296237 0.0644492 -0.0516188
0.272778 -0.0931713 -0.331208
0.0190532 0.0343961 -0.372611
0.238901 -0.0101266 -0.37781
-0.296237 -0.00241181 -0.120587
-0.296237 0.0493894 -0.0826922
-0.296237 -0.0543505 0.28486
0.0913167 -0.021501 -0.336629
-0.14334 -0.0825063 0.153783
0.238901 -0.0586329 -0.376242
-0.14334 -0.0243388 -0.0403467
0.161578 -0.0813668 -0.391724
0.229258 -0.021501 -0.278745
-0.277125 0.0175318 0.209542
0.243446 -0.0136411 -0.219715
-0.14334 -0.0903779 0.0503451
-0.14334 -0.0815262 0.14908
0.16206 -0.0117636 -0.372611
-0.296237 -0.0357969 -0.0268311
-0.277125 0.0718332 0.0693515
0.188247 -0.0850217 -0.391724
0.238901 -0.0676508 -0.353144
-0.277125 0.0226415 0.182432
-0.231669 -0.021501 -0.131098
-0.208022 0.0727024 -0.308699
-0.296237 0.000964845 0.149725
-0.192353 0.0505655 -0.324182
-0.219029 0.092534 -0.325326
-0.277125 0.0205796 -0.171749
-0.14334 -0.0757578 0.0953906
-0.277125 0.00763133 -0.206502
-0.0382029 -0.021501 -0.302951
-0.151828 -0.021501 0.289377
-0.296237 0.0369737 -0.151764
-0.203203 -0.0931713 0.362882
-0.0829641 -0.067023 -0.391724
-0.252551 0.0283997 -0.264701
0.0668448 -0.0456421 -0.24042
-0.173836 -0.021501 0.0355521
-0.0538332 -0.021501 -0.274309
-0.14334 -0.0643542 -0.203231
-0.14334 -0.0813986 -0.118719
-0.277125 0.0153391 -0.0955334
-0.119264 -0.0115589 -0.391724
0.266257 -0.0540022 -0.372611
0.0503858 -0.0840408 -0.391724
-0.0548011 0.0444078 -0.391724
-0.296237 0.061584 0.29988
0.0983897 -0.00594537 -0.372611
-0.296237 -0.00626825 0.329696
-0.14334 -0.083486 -0.00282931
-0.296237 -0.0369059 0.184592
-0.108455 -0.021501 -0.33043
0.120746 0.00611216 -0.391724
0.284483 -0.00322572 -0.268892
-0.08803 -0.021501 -0.252155
-0.27711 0.0543481 -0.278498
-0.235415 -0.021501 -0.0402423
-0.132533 -0.021501 -0.390751
-0.277125 0.061511 -0.187235
-0.296237 0.0294837 -0.205193
0.275798 -0.0580254 -0.372611
-0.296237 -0.0401838 -0.0355018
-0.14334 -0.0740581 0.322581
-0.296237 -0.0785469 0.274949
-0.296237 0.0820078 0.251212
-0.104781 -0.0571284 -0.24042
-0.277125 0.0443277 0.0713932
-0.277125 -0.00637089 0.164388
-0.254485 -0.021501 0.188685
-0.14334 -0.0323923 0.279325
0.110789 0.0753849 -0.391724
0.0456028 0.0391584 -0.380224
-0.281197 0.0346398 0.334535
