ply
format ascii 1.0
comment Created by Open3D
element vertex 1200
property double x
property double y
property double z
end_header
-0.193677 -0.24104 -0.39103
-0.169828 -0.240904 -0.390918
-0.194154 -0.240759 -0.370716
-0.144942 -0.240763 -0.390802
-0.194321 -0.240609 -0.349232
-0.11895 -0.240615 -0.390681
-0.194466 -0.239567 -0.330602
-0.0917765 -0.240461 -0.390554
-0.185838 -0.221958 -0.390993
-0.194616 -0.238485 -0.311273
-0.169828 -0.222475 -0.390918
-0.194154 -0.22234 -0.370716
-0.194772 -0.240204 -0.291205
-0.0633383 -0.240299 -0.390421
-0.144942 -0.221932 -0.390802
-0.194321 -0.221791 -0.349232
-0.194934 -0.239093 -0.270354
-0.0335454 -0.240129 -0.390282
-0.195103 -0.240893 -0.248673
-0.0128824 -0.24101 -0.390186
-0.114506 -0.222189 -0.39066
-0.194466 -0.220401 -0.330602
-0.194616 -0.221749 -0.311273
-0.195243 -0.238781 -0.230697
0.0193934 -0.240851 -0.390035
-0.0824418 -0.22246 -0.39051
-0.193677 -0.202371 -0.39103
-0.195387 -0.239652 -0.212131
0.0361392 -0.240769 -0.389957
-0.194772 -0.220306 -0.291205
-0.0535626 -0.221875 -0.390376
-0.165754 -0.202129 -0.390899
-0.194154 -0.20129 -0.370716
-0.194934 -0.221704 -0.270354
-0.195574 -0.238445 -0.188046
0.070925 -0.240598 -0.389795
-0.0335454 -0.222451 -0.390282
-0.149165 -0.202368 -0.390822
-0.19573 -0.239345 -0.168039
0.0889987 -0.240509 -0.38971
-0.194321 -0.200284 -0.349232
-0.195103 -0.220202 -0.248673
-0.195891 -0.240275 -0.147337
0.10755 -0.240417 -0.389624
-0.00229871 -0.221842 -0.390136
-0.11895 -0.202117 -0.390681
-0.194466 -0.201236 -0.330602
-0.195243 -0.22076 -0.230697
0.126599 -0.240324 -0.389535
0.0193934 -0.222442 -0.390035
-0.100971 -0.202366 -0.390597
-0.194616 -0.202224 -0.311273
-0.195387 -0.221335 -0.212131
-0.196058 -0.237956 -0.125903
-0.196143 -0.240078 -0.1149
0.146165 -0.240227 -0.389443
0.0361392 -0.222129 -0.389957
0.16627 -0.240128 -0.389349
-0.0681695 -0.202103 -0.390444
-0.189771 -0.18238 -0.391011
-0.194772 -0.200407 -0.291205
-0.195574 -0.219744 -0.188046
-0.196319 -0.237692 -0.0922939
0.186936 -0.240027 -0.389253
0.0768976 -0.222432 -0.389767
-0.0486172 -0.202363 -0.390353
-0.173873 -0.182335 -0.390937
-0.194934 -0.201417 -0.270354
-0.19573 -0.220324 -0.168039
-0.196501 -0.238652 -0.068852
0.0951285 -0.222105 -0.389682
-0.0335454 -0.201827 -0.390282
-0.194154 -0.18024 -0.370716
-0.195103 -0.202468 -0.248673
-0.195891 -0.220924 -0.147337
-0.196691 -0.239649 -0.0445271
-0.0128824 -0.202089 -0.390186
-0.140689 -0.182242 -0.390782
-0.194321 -0.181465 -0.349232
-0.196058 -0.221546 -0.125903
-0.196887 -0.240683 -0.0192683
0.139584 -0.222421 -0.389474
0.00845844 -0.20236 -0.390086
-0.123362 -0.182193 -0.390701
-0.194466 -0.182071 -0.330602
-0.195243 -0.199735 -0.230697
-0.196143 -0.220209 -0.1149
0.159507 -0.222079 -0.389381
-0.195387 -0.199965 -0.212131
-0.196319 -0.220834 -0.0922939
-0.197091 -0.238123 0.00697923
0.179983 -0.221727 -0.389285
0.0475387 -0.202073 -0.389904
-0.0871269 -0.18209 -0.390532
-0.194616 -0.17991 -0.311273
-0.195574 -0.201042 -0.188046
-0.196501 -0.221483 -0.068852
-0.19725 -0.237981 0.0273492
0.070925 -0.202357 -0.389795
-0.0681695 -0.182036 -0.390444
-0.194772 -0.180508 -0.291205
-0.19573 -0.201303 -0.168039
-0.196691 -0.222156 -0.0445271
-0.197413 -0.237834 0.0483351
0.0889987 -0.201769 -0.38971
-0.0486172 -0.181981 -0.390353
-0.185838 -0.16225 -0.390993
-0.194934 -0.181131 -0.270354
-0.195891 -0.201573 -0.147337
-0.197638 -0.238906 0.0773242
0.113844 -0.202056 -0.389594
0.0305108 -0.190265 -0.389983
-0.0284415 -0.181924 -0.390258
-0.165753 -0.162496 -0.390899
-0.194154 -0.161822 -0.370716
-0.195103 -0.181778 -0.248673
-0.196058 -0.201853 -0.125903
-0.196887 -0.219289 -0.0192683
-0.197814 -0.238769 0.0998611
0.139584 -0.202353 -0.389474
-0.00761205 -0.181865 -0.390161
-0.149164 -0.162163 -0.390821
-0.195243 -0.181714 -0.230697
-0.196143 -0.200341 -0.1149
-0.197091 -0.219946 0.00697923
-0.197994 -0.238627 0.123116
0.159507 -0.201736 -0.389381
0.0139034 -0.181804 -0.390061
-0.127741 -0.162415 -0.390721
-0.194321 -0.159958 -0.349232
-0.195387 -0.181647 -0.212131
-0.196319 -0.200605 -0.0922939
-0.19725 -0.219533 0.0273492
-0.198118 -0.237201 0.139035
-0.198245 -0.239774 0.1553
0.186936 -0.202037 -0.389253
-0.110027 -0.162069 -0.390639
-0.194466 -0.160167 -0.330602
-0.195574 -0.18234 -0.188046
-0.196501 -0.20088 -0.068852
-0.197413 -0.219107 0.0483351
-0.19844 -0.239644 0.180369
0.0650034 -0.182453 -0.389822
0.0533109 -0.180906 -0.389877
-0.0871269 -0.162328 -0.390532
-0.194616 -0.160384 -0.311273
-0.19573 -0.182282 -0.168039
-0.196691 -0.201165 -0.0445271
-0.197638 -0.219794 0.0773242
-0.198573 -0.238174 0.197548
-0.19871 -0.240859 0.215114
0.0889987 -0.182399 -0.38971
-0.0681695 -0.161969 -0.390444
-0.194772 -0.16061 -0.291205
-0.195891 -0.182222 -0.147337
-0.196887 -0.201461 -0.0192683
-0.197814 -0.219357 0.0998611
0.113844 -0.182343 -0.389594
-0.0436329 -0.162236 -0.390329
-0.194934 -0.160844 -0.270354
-0.196058 -0.18216 -0.125903
-0.197091 -0.201768 0.00697923
-0.197994 -0.218906 0.123116
-0.198309 -0.224875 0.163565
-0.198993 -0.237845 0.251462
-0.199139 -0.240621 0.270273
0.139584 -0.182285 -0.389474
-0.0232966 -0.161862 -0.390234
-0.177889 -0.142479 -0.390956
-0.195103 -0.161088 -0.248673
-0.196143 -0.180472 -0.1149
-0.19725 -0.201085 0.0273492
-0.198118 -0.217269 0.139035
-0.199289 -0.239075 0.289527
0.16627 -0.182225 -0.389349
0.00305784 -0.162136 -0.390111
-0.157518 -0.142372 -0.39086
-0.194154 -0.140772 -0.370716
-0.195243 -0.160689 -0.230697
-0.196319 -0.180376 -0.0922939
-0.197413 -0.20038 0.0483351
-0.19844 -0.219162 0.180369
-0.198573 -0.221605 0.197548
-0.199442 -0.237493 0.309242
-0.199599 -0.240365 0.329433
0.193954 -0.182163 -0.38922
0.0305108 -0.162422 -0.389983
-0.136403 -0.142261 -0.390761
-0.194321 -0.141139 -0.349232
-0.195387 -0.160277 -0.212131
-0.196501 -0.180277 -0.068852
-0.197638 -0.200681 0.0773242
-0.19871 -0.219915 0.215114
-0.19976 -0.23876 0.350119
0.0533109 -0.162029 -0.389877
-0.114504 -0.142146 -0.390659
-0.194466 -0.141002 -0.330602
-0.195574 -0.160522 -0.188046
-0.196691 -0.180174 -0.0445271
-0.197814 -0.199945 0.0998611
-0.198993 -0.220703 0.251462
-0.199925 -0.237115 0.371318
0.0829219 -0.162323 -0.389739
-0.0917757 -0.142027 -0.390553
-0.194616 -0.140859 -0.311273
-0.19573 -0.160091 -0.168039
-0.196887 -0.180067 -0.0192683
-0.197994 -0.199185 0.123116
-0.198309 -0.204616 0.163565
-0.199139 -0.218943 0.270273
-0.199289 -0.221529 0.289527
-0.199442 -0.224176 0.309242
0.10755 -0.161914 -0.389624
-0.0633383 -0.142453 -0.390421
-0.194772 -0.140711 -0.291205
-0.195891 -0.159646 -0.147337
-0.196058 -0.162467 -0.125903
-0.197091 -0.179956 0.00697923
-0.198118 -0.197336 0.139035
-0.199599 -0.222394 0.329433
0.139584 -0.162217 -0.389474
-0.038609 -0.142334 -0.390306
-0.194934 -0.140558 -0.270354
-0.196143 -0.160604 -0.1149
-0.19725 -0.178947 0.0273492
-0.197413 -0.181653 0.0483351
-0.19844 -0.198679 0.180369
-0.198573 -0.200894 0.197548
-0.19976 -0.220569 0.350119
-0.199925 -0.223302 0.371318
0.16627 -0.161789 -0.389349
-0.0128824 -0.142211 -0.390186
-0.193677 -0.122454 -0.39103
-0.195103 -0.140398 -0.248673
-0.196319 -0.160147 -0.0922939
-0.197638 -0.181569 0.0773242
-0.19871 -0.198971 0.215114
0.193954 -0.161344 -0.38922
0.0139034 -0.142082 -0.390061
-0.169827 -0.122427 -0.390918
-0.194154 -0.122353 -0.370716
-0.195243 -0.139664 -0.230697
-0.195387 -0.14196 -0.212131
-0.196501 -0.159674 -0.068852
-0.197814 -0.180533 0.0998611
-0.198993 -0.199276 0.251462
-0.199139 -0.201601 0.270273
0.041815 -0.141949 -0.38993
-0.144941 -0.122399 -0.390801
-0.194321 -0.122321 -0.349232
-0.195574 -0.14182 -0.188046
-0.196691 -0.159183 -0.0445271
-0.196887 -0.162238 -0.0192683
-0.197994 -0.179463 0.123116
-0.198309 -0.184357 0.163565
-0.199289 -0.199595 0.289527
0.0768976 -0.142421 -0.389767
-0.118948 -0.12237 -0.390679
-0.194466 -0.121837 -0.330602
-0.19573 -0.141071 -0.168039
-0.197091 -0.161778 0.00697923
-0.198118 -0.177403 0.139035
-0.19844 -0.182293 0.180369
-0.19952 -0.198728 0.319277
-0.19976 -0.202378 0.35012
-0.199925 -0.204886 0.371318
0.10755 -0.142288 -0.389624
-0.0917751 -0.12234 -0.390553
-0.194616 -0.121334 -0.311273
-0.195891 -0.140295 -0.147337
-0.19725 -0.160499 0.0273492
-0.198573 -0.180184 0.197548
-0.19871 -0.182215 0.215114
0.139584 -0.142149 -0.389474
-0.0633375 -0.122308 -0.390421
-0.194772 -0.120813 -0.291205
-0.196058 -0.139492 -0.125903
-0.196143 -0.140735 -0.1149
-0.197413 -0.15918 0.0483351
-0.197638 -0.162456 0.0773242
-0.198993 -0.182134 0.251462
0.173095 -0.142004 -0.389318
0.0591323 -0.131123 -0.38985
-0.0335454 -0.122275 -0.390282
-0.194934 -0.120271 -0.270354
-0.196319 -0.139918 -0.0922939
-0.197814 -0.16112 0.0998611
-0.199139 -0.179924 0.270273
-0.199289 -0.182048 0.289527
-0.199442 -0.184224 0.309242
0.193954 -0.140526 -0.38922
-0.00229871 -0.12224 -0.390136
-0.195103 -0.119707 -0.248673
-0.195243 -0.121643 -0.230697
-0.196501 -0.139071 -0.068852
-0.196691 -0.14169 -0.0445271
-0.197994 -0.159742 0.123116
-0.198309 -0.164098 0.163565
-0.199599 -0.181959 0.329434
0.0305108 -0.122203 -0.389983
-0.189771 -0.102185 -0.391011
-0.195387 -0.120589 -0.212131
-0.196887 -0.140844 -0.0192683
-0.198118 -0.15747 0.139035
-0.19844 -0.161811 0.180369
-0.19976 -0.179639 0.35012
-0.157518 -0.102455 -0.39086
-0.194154 -0.101303 -0.370716
-0.195574 -0.120002 -0.188046
-0.19573 -0.12205 -0.168039
-0.197091 -0.139965 0.00697923
-0.19725 -0.142051 0.0273492
-0.198573 -0.159473 0.197548
-0.19871 -0.161271 0.215114
-0.199925 -0.177261 0.371318
0.101312 -0.122124 -0.389653
0.0768976 -0.120017 -0.389767
-0.12774 -0.102363 -0.39072
-0.194321 -0.100814 -0.349232
-0.195891 -0.120944 -0.147337
-0.197413 -0.140453 0.0483351
-0.198993 -0.160706 0.251462
0.139584 -0.122081 -0.389474
-0.0963888 -0.102266 -0.390574
-0.194466 -0.0999335 -0.330602
-0.194616 -0.101809 -0.311273
-0.196058 -0.119799 -0.125903
-0.196143 -0.120867 -0.1149
-0.197638 -0.139521 0.0773242
-0.197814 -0.141708 0.0998611
-0.199139 -0.158246 0.270273
-0.199289 -0.160115 0.289527
-0.199679 -0.164985 0.339714
0.179983 -0.122036 -0.389285
0.0591323 -0.112166 -0.38985
-0.0633368 -0.102163 -0.39042
-0.194772 -0.100914 -0.291205
-0.196319 -0.119689 -0.0922939
-0.196501 -0.121902 -0.068852
-0.197994 -0.140021 0.123116
-0.198309 -0.143839 0.163565
-0.19952 -0.158536 0.319277
-0.199842 -0.162442 0.360654
-0.0232961 -0.102463 -0.390234
-0.0436318 -0.100849 -0.390329
-0.194934 -0.0999842 -0.270354
-0.195103 -0.101973 -0.248673
-0.196691 -0.120699 -0.0445271
-0.19844 -0.141328 0.180369
-0.200009 -0.159834 0.382116
0.0139034 -0.10236 -0.390061
-0.195243 -0.100618 -0.230697
-0.195387 -0.102272 -0.212131
-0.196887 -0.11945 -0.0192683
-0.197091 -0.121788 0.00697923
-0.198118 -0.13355 0.139035
-0.198573 -0.138762 0.197548
-0.19871 -0.140327 0.215114
0.041815 -0.101392 -0.38993
-0.0777187 -0.0924544 -0.390487
-0.195574 -0.1013 -0.188046
-0.19725 -0.119913 0.0273492
-0.197413 -0.121726 0.0483351
-0.198993 -0.139279 0.251462
-0.199139 -0.140904 0.270273
-0.199442 -0.144272 0.309242
0.0951285 -0.102136 -0.389682
0.0829219 -0.101251 -0.389739
-0.177889 -0.0823502 -0.390956
-0.19573 -0.099859 -0.168039
-0.195891 -0.101593 -0.147337
-0.197638 -0.120409 0.0773242
-0.197814 -0.122296 0.0998611
-0.199289 -0.138181 0.289527
-0.199599 -0.141524 0.329434
0.146165 -0.102475 -0.389443
0.133063 -0.101555 -0.389504
-0.140688 -0.0823464 -0.390781
-0.157518 -0.0811654 -0.39086
-0.194154 -0.0802531 -0.370716
-0.194321 -0.0819953 -0.349232
-0.196058 -0.100106 -0.125903
-0.196143 -0.100998 -0.1149
-0.197994 -0.1203 0.123116
-0.198309 -0.12358 0.163565
-0.19976 -0.138708 0.35012
-0.200009 -0.141303 0.382116
0.193954 -0.102358 -0.38922
0.173095 -0.100943 -0.389318
-0.100968 -0.0823423 -0.390595
-0.118948 -0.081122 -0.390679
-0.194466 -0.0807682 -0.330602
-0.194616 -0.0822842 -0.311273
-0.196319 -0.0994598 -0.0922939
-0.196501 -0.101298 -0.068852
-0.19844 -0.120846 0.180369
-0.198573 -0.122193 0.197548
-0.0584674 -0.0823377 -0.390397
-0.194772 -0.0810156 -0.291205
-0.196691 -0.0997079 -0.0445271
-0.196887 -0.101622 -0.0192683
-0.198118 -0.113617 0.139035
-0.19871 -0.119382 0.215114
-0.198993 -0.122137 0.251462
-0.0128814 -0.0823327 -0.390185
-0.0335439 -0.0810255 -0.390281
-0.194934 -0.0796976 -0.270354
-0.195103 -0.0812828 -0.248673
-0.197091 -0.0999753 0.00697923
-0.19725 -0.101465 0.0273492
-0.199139 -0.119227 0.270273
-0.199289 -0.120634 0.289527
-0.199679 -0.124304 0.339714
0.0361392 -0.0823274 -0.389957
0.024929 -0.0816439 -0.390009
-0.195243 -0.0795936 -0.230697
-0.195387 -0.0809017 -0.212131
-0.197413 -0.0992537 0.0483351
-0.197638 -0.101296 0.0773242
-0.19952 -0.118344 0.319277
-0.199842 -0.121259 0.360654
0.0889987 -0.0823217 -0.38971
0.0650034 -0.080914 -0.389822
-0.082439 -0.0722642 -0.390508
-0.195574 -0.0794817 -0.188046
-0.19573 -0.0808382 -0.168039
-0.195891 -0.0822418 -0.147337
-0.197814 -0.0990017 0.0998611
-0.197994 -0.100578 0.123116
-0.200009 -0.118138 0.382116
0.146165 -0.0823157 -0.389443
0.133063 -0.0815771 -0.389504
0.113844 -0.0804938 -0.389594
-0.196058 -0.0804128 -0.125903
-0.196143 -0.0811296 -0.1149
-0.198245 -0.0987306 0.1553
-0.19844 -0.100364 0.180369
-0.198573 -0.101483 0.197548
0.193954 -0.0815395 -0.38922
0.173095 -0.0804118 -0.389318
-0.16165 -0.0623138 -0.390879
-0.177889 -0.0614358 -0.390956
-0.194154 -0.0618343 -0.370716
-0.196319 -0.0792307 -0.0922939
-0.196501 -0.0806954 -0.068852
-0.196691 -0.0822153 -0.0445271
-0.198118 -0.0936846 0.139035
-0.19871 -0.0984381 0.215114
-0.198993 -0.100709 0.251462
-0.199139 -0.101885 0.270273
-0.199442 -0.104319 0.309242
-0.110025 -0.0623346 -0.390637
-0.12774 -0.0614176 -0.39072
-0.194321 -0.0604884 -0.349232
-0.194466 -0.0616028 -0.330602
-0.196887 -0.0802278 -0.0192683
-0.197091 -0.081798 0.00697923
-0.199289 -0.0987009 0.289527
-0.199599 -0.101088 0.329434
-0.19976 -0.102326 0.35012
-0.199925 -0.103594 0.371318
-0.0535599 -0.0623571 -0.390374
-0.194616 -0.0599699 -0.311273
-0.194772 -0.0611171 -0.291205
-0.194934 -0.062309 -0.270354
-0.19725 -0.079327 0.0273492
-0.197413 -0.0805266 0.0483351
-0.197638 -0.0821838 0.0773242
0.00845963 -0.0623818 -0.390085
-0.00761044 -0.0616239 -0.39016
-0.0284393 -0.0606416 -0.390257
-0.195103 -0.0605926 -0.248673
-0.195243 -0.0615724 -0.230697
-0.197814 -0.0795896 0.0998611
-0.197994 -0.0808572 0.123116
0.0768976 -0.062409 -0.389767
0.0533109 -0.0613509 -0.389877
0.0305114 -0.0603281 -0.389983
-0.195387 -0.0595315 -0.212131
-0.195574 -0.0607802 -0.188046
-0.19573 -0.0618175 -0.168039
-0.198245 -0.0785816 0.1553
-0.19844 -0.0798813 0.180369
-0.198573 -0.080772 0.197548
-0.19871 -0.0816827 0.215114
0.152806 -0.0624394 -0.389412
0.133063 -0.0615991 -0.389504
0.113844 -0.0607811 -0.389594
-0.0824383 -0.0524271 -0.390508
-0.195891 -0.0596657 -0.147337
-0.196058 -0.0607199 -0.125903
-0.196143 -0.0612612 -0.1149
-0.196319 -0.0623731 -0.0922939
-0.198118 -0.0737517 0.139035
-0.198993 -0.0792818 0.251462
-0.199139 -0.080207 0.270273
-0.199289 -0.0811541 0.289527
-0.199679 -0.0836227 0.339714
0.193954 -0.0607209 -0.38922
0.173095 -0.0598811 -0.389318
-0.196501 -0.0600923 -0.068852
-0.196691 -0.0612241 -0.0445271
-0.196887 -0.0623994 -0.0192683
-0.19952 -0.0781516 0.319277
-0.199842 -0.0800768 0.360654
-0.200009 -0.0810754 0.382116
-0.197091 -0.0599852 0.00697923
-0.19725 -0.0608788 0.0273492
-0.197413 -0.0617995 0.0483351
-0.12336 -0.0424661 -0.3907
-0.136403 -0.0420009 -0.390761
-0.165753 -0.0409543 -0.390899
-0.185838 -0.040238 -0.390993
-0.194154 -0.0407843 -0.370716
-0.194321 -0.0416697 -0.349232
-0.194466 -0.0424375 -0.330602
-0.197638 -0.0592487 0.0773242
-0.197814 -0.0601775 0.0998611
-0.197994 -0.0611359 0.123116
-0.198245 -0.0624622 0.1553
-0.0436298 -0.0423861 -0.390327
-0.0633348 -0.0417288 -0.390419
-0.0963877 -0.0406261 -0.390573
-0.194616 -0.0404448 -0.311273
-0.194772 -0.0412185 -0.291205
-0.194934 -0.0420223 -0.270354
-0.19844 -0.0593989 0.180369
-0.198573 -0.0600612 0.197548
-0.19871 -0.0607384 0.215114
-0.198993 -0.0621397 0.251462
-0.199442 -0.0643673 0.309242
0.0533117 -0.0424737 -0.389876
0.0305122 -0.0417656 -0.389982
0.0084604 -0.0410807 -0.390085
-0.00760961 -0.0405816 -0.39016
-0.195103 -0.0399025 -0.248673
-0.195243 -0.0405477 -0.230697
-0.195387 -0.0412141 -0.212131
-0.195574 -0.0420786 -0.188046
-0.198118 -0.0538188 0.139035
-0.199139 -0.0585294 0.270273
-0.199289 -0.0592205 0.289527
-0.199599 -0.0606529 0.329434
-0.19976 -0.0613954 0.35012
0.159507 -0.0423815 -0.389381
0.133063 -0.041621 -0.389504
0.113844 -0.0410683 -0.389594
0.0889987 -0.0403538 -0.38971
0.0650039 -0.0396638 -0.389822
-0.19573 -0.0396266 -0.168039
-0.195891 -0.0403146 -0.147337
-0.196058 -0.041027 -0.125903
-0.196143 -0.0413927 -0.1149
-0.196319 -0.042144 -0.0922939
-0.200009 -0.057911 0.382116
0.193954 -0.0399023 -0.38922
-0.196501 -0.0394892 -0.068852
-0.196691 -0.040233 -0.0445271
-0.196887 -0.0410053 -0.0192683
-0.197091 -0.0418079 0.00697923
-0.19725 -0.0424307 0.0273492
-0.197413 -0.039327 0.0483351
-0.197638 -0.0401363 0.0773242
-0.197814 -0.0407654 0.0998611
-0.197994 -0.0414147 0.123116
-0.198245 -0.0423131 0.1553
-0.19844 -0.0389165 0.180369
-0.198573 -0.0393505 0.197548
-0.19871 -0.0397942 0.215114
-0.198993 -0.0407123 0.251462
-0.199139 -0.0411874 0.270273
-0.199289 -0.0416737 0.289527
-0.19952 -0.0424252 0.319277
-0.199925 -0.0437397 0.371318
-0.165753 -0.0224588 -0.390899
-0.185838 -0.022066 -0.390993
-0.194154 -0.0223656 -0.370716
-0.198118 -0.0338859 0.139035
-0.19976 -0.0386564 0.35012
-0.0128793 -0.0224544 -0.390184
-0.0335419 -0.0220979 -0.39028
-0.0535586 -0.0217525 -0.390373
-0.0729594 -0.0214178 -0.390463
-0.0871233 -0.0211734 -0.39053
-0.105513 -0.020856 -0.390616
-0.136403 -0.020323 -0.390761
-0.194321 -0.0201628 -0.349232
-0.194466 -0.0205343 -0.330602
-0.194616 -0.0209197 -0.311273
-0.194772 -0.0213199 -0.291205
-0.194934 -0.0217357 -0.270354
-0.195103 -0.022168 -0.248673
0.186936 -0.0224485 -0.389253
0.173095 -0.0222416 -0.389318
0.152806 -0.0219382 -0.389412
0.133063 -0.0216429 -0.389504
0.113844 -0.0213555 -0.389594
0.0889993 -0.020984 -0.38971
0.0650048 -0.0206252 -0.389821
0.0533125 -0.0204503 -0.389876
0.0305129 -0.0201094 -0.389982
0.00846124 -0.0197796 -0.390084
-0.195243 -0.0195229 -0.230697
-0.195387 -0.0198438 -0.212131
-0.195574 -0.02026 -0.188046
-0.19573 -0.0206058 -0.168039
-0.195891 -0.0209636 -0.147337
-0.196058 -0.021334 -0.125903
-0.196143 -0.0215242 -0.1149
-0.196319 -0.0219149 -0.0922939
-0.196501 -0.02232 -0.068852
-0.196691 -0.0192419 -0.0445271
-0.196887 -0.0196112 -0.0192683
-0.197091 -0.0199951 0.00697923
-0.19725 -0.0202929 0.0273492
-0.197413 -0.0205998 0.0483351
-0.197638 -0.0210237 0.0773242
-0.197814 -0.0213533 0.0998611
-0.197994 -0.0216934 0.123116
-0.198245 -0.022164 0.1553
-0.199442 -0.0244152 0.309242
-0.199679 -0.0248608 0.339714
-0.19844 -0.0184341 0.180369
-0.198573 -0.0186397 0.197548
-0.19871 -0.0188499 0.215114
-0.198993 -0.0192847 0.251462
-0.199139 -0.0195098 0.270273
-0.199289 -0.0197402 0.289527
-0.199842 -0.0205912 0.360654
-0.200009 -0.020848 0.382116
-0.198118 -0.013953 0.139035
0.193954 -0.00173489 -0.38922
0.173095 -0.0017109 -0.389318
0.152806 -0.00168756 -0.389412
0.133063 -0.00166485 -0.389504
0.113844 -0.00164274 -0.389594
0.0890002 -0.00161416 -0.389709
0.0650055 -0.00158656 -0.389821
0.0533133 -0.00157311 -0.389875
0.0305137 -0.00154689 -0.389981
0.00846183 -0.00152152 -0.390084
-0.00760829 -0.00150304 -0.390159
-0.0284373 -0.00147908 -0.390256
-0.0486126 -0.00145587 -0.390349
-0.0681651 -0.00143338 -0.390441
-0.0917731 -0.00140622 -0.390551
-0.110025 -0.00138522 -0.390637
-0.12774 -0.00136484 -0.39072
-0.149164 -0.0013402 -0.390821
-0.169827 -0.00131643 -0.390918
-0.189771 -0.00129349 -0.391011
-0.194154 -0.00131563 -0.370716
-0.194321 -0.00134419 -0.349232
-0.194466 -0.00136896 -0.330602
-0.194616 -0.00139466 -0.311273
-0.194772 -0.00142134 -0.291205
-0.194934 -0.00144906 -0.270354
-0.195103 -0.00147788 -0.248673
-0.195243 -0.00150178 -0.230697
-0.195387 -0.00152646 -0.212131
-0.195574 -0.00155848 -0.188046
-0.19573 -0.00158507 -0.168039
-0.195891 -0.0016126 -0.147337
-0.196058 -0.00164109 -0.125903
-0.196143 -0.00165572 -0.1149
-0.196319 -0.00168577 -0.0922939
-0.196501 -0.00171693 -0.068852
-0.196691 -0.00174927 -0.0445271
-0.196887 -0.00178285 -0.0192683
-0.197091 -0.00181774 0.00697923
-0.19725 -0.00184482 0.0273492
-0.197413 -0.00187272 0.0483351
-0.197638 -0.00191126 0.0773242
-0.197814 -0.00194122 0.0998611
-0.197994 -0.00197214 0.123116
-0.198245 -0.00201492 0.1553
-0.19844 -0.00204825 0.180369
-0.198573 -0.00207109 0.197548
-0.19871 -0.00209444 0.215114
-0.198993 -0.00214276 0.251462
-0.199139 -0.00216777 0.270273
-0.199289 -0.00219337 0.289527
-0.19952 -0.00223292 0.319277
-0.19976 -0.00227392 0.35012
-0.200009 -0.00231646 0.382116
-0.198118 0.00597985 0.139035
-0.199442 0.0155369 0.309242
-0.199679 0.0158205 0.339714
-0.199925 0.0161146 0.371318
-0.197873 0.0175627 0.107531
-0.198245 0.0181342 0.1553
-0.19844 0.0184341 0.180369
-0.198573 0.0186397 0.197548
-0.19871 0.0188499 0.215114
-0.198993 0.0192847 0.251462
-0.199139 0.0195098 0.270273
-0.199289 0.0197402 0.289527
0.193954 0.0190837 -0.38922
0.173095 0.0188198 -0.389318
0.152806 0.0185631 -0.389412
0.133064 0.0183133 -0.389504
0.113845 0.0180701 -0.389593
0.089001 0.0177557 -0.389709
-0.19577 0.0175104 -0.16293
-0.195974 0.0178938 -0.136714
-0.196143 0.0182128 -0.1149
-0.196319 0.0185434 -0.0922939
-0.196501 0.0188862 -0.068852
-0.196691 0.0192419 -0.0445271
-0.196887 0.0196113 -0.0192683
-0.197091 0.0199951 0.00697923
-0.19725 0.020293 0.0273492
-0.197413 0.0205999 0.0483351
-0.197638 0.0210238 0.0773242
0.0650064 0.0206252 -0.38982
0.0533141 0.0204504 -0.389875
0.0305144 0.0201094 -0.389981
0.00846261 0.0197797 -0.390083
-0.00760746 0.0195394 -0.390158
-0.0284365 0.0192279 -0.390255
-0.048612 0.0189262 -0.390349
-0.0681651 0.0186338 -0.390441
-0.0917731 0.0182807 -0.390551
-0.110025 0.0180078 -0.390637
-0.12774 0.0177429 -0.39072
-0.194349 0.0175379 -0.34556
-0.194436 0.017731 -0.334383
-0.194647 0.0181987 -0.30732
-0.194804 0.0185482 -0.287099
-0.194901 0.0187644 -0.274589
-0.195137 0.019289 -0.244233
-0.195351 0.0197626 -0.216829
-0.195536 0.0201754 -0.192944
-0.198118 0.0259128 0.139035
-0.149164 0.0201029 -0.390821
-0.169827 0.0197463 -0.390918
-0.189771 0.0194022 -0.391011
-0.194154 0.0197344 -0.370716
-0.199365 0.0375084 0.299326
-0.19952 0.0379593 0.319277
-0.19976 0.0386564 0.35012
-0.200009 0.0393795 0.382116
-0.198245 0.0382833 0.1553
-0.19844 0.0389165 0.180369
-0.198573 0.0393505 0.197548
-0.19871 0.0397942 0.215114
-0.198993 0.0407123 0.251462
-0.199139 0.0411874 0.270273
-0.196937 0.0376202 -0.0128013
-0.197091 0.0381724 0.00697923
-0.19725 0.0387411 0.0273492
-0.197413 0.0393269 0.0483351
-0.197638 0.0401362 0.0773242
-0.197814 0.0407654 0.0998611
0.193954 0.0399023 -0.38922
0.173096 0.0393505 -0.389317
0.152807 0.0388137 -0.389412
0.133065 0.0382914 -0.389503
0.113846 0.0377829 -0.389593
-0.196016 0.0375788 -0.131332
-0.196187 0.0382518 -0.109324
-0.196319 0.0387725 -0.0922939
-0.196501 0.0394892 -0.068852
-0.196691 0.040233 -0.0445271
-0.198118 0.0458457 0.139035
0.0890019 0.0403539 -0.389708
0.0650071 0.0396639 -0.38982
0.053315 0.0393277 -0.389874
0.0305152 0.038672 -0.38998
0.00846332 0.0380378 -0.390083
-0.00760674 0.0375757 -0.390158
-0.195243 0.0375441 -0.230697
-0.195387 0.0381612 -0.212131
-0.195574 0.0389616 -0.188046
-0.19573 0.0396266 -0.168039
-0.195891 0.0403146 -0.147337
-0.197994 0.0493031 0.123116
-0.199442 0.055489 0.309242
-0.199679 0.0565018 0.339714
-0.200009 0.057911 0.382116
-0.0284358 0.0399349 -0.390255
-0.048612 0.0393082 -0.390349
-0.0681651 0.0387009 -0.390441
-0.0917731 0.0379677 -0.390551
-0.194585 0.0375147 -0.315197
-0.19474 0.0382296 -0.29528
-0.194901 0.0389722 -0.274589
-0.198921 0.0575225 0.242219
-0.199065 0.0581899 0.260813
-0.199213 0.0588729 0.279843
-0.199842 0.0617736 0.360654
-0.110025 0.0401712 -0.390637
-0.12774 0.0395802 -0.39072
-0.149164 0.0388655 -0.390821
-0.169827 0.0381762 -0.390918
-0.189771 0.0375109 -0.391011
-0.194154 0.0381531 -0.370716
-0.194321 0.0389814 -0.349232
-0.198245 0.0584325 0.1553
-0.19844 0.0593989 0.180369
-0.198573 0.0600612 0.197548
-0.19871 0.0607385 0.215114
-0.197358 0.0577629 0.0412697
-0.197524 0.0586453 0.062682
-0.197638 0.0592487 0.0773242
-0.197814 0.0601775 0.0998611
-0.196691 0.0577256 -0.0445271
-0.196887 0.0588337 -0.0192683
-0.197091 0.0599852 0.00697923
-0.198118 0.0657786 0.139035
-0.199925 0.0759689 0.371318
-0.1961 0.0576926 -0.120426
-0.196275 0.058735 -0.0980219
-0.196409 0.0595419 -0.0806802
-0.196595 0.0606529 -0.0568029
-0.197994 0.0690244 0.123116
-0.19952 0.0781516 0.319277
-0.19976 0.0795867 0.35012
-0.195574 0.0576632 -0.188046
-0.19573 0.0586474 -0.168039
-0.195891 0.0596657 -0.147337
-0.198779 0.0779332 0.224046
-0.198993 0.0792818 0.251462
-0.199139 0.080207 0.270273
-0.199289 0.0811541 0.289527
-0.195103 0.0576369 -0.248673
-0.195243 0.0585688 -0.230697
-0.195387 0.0595314 -0.212131
-0.198245 0.0785815 0.1553
-0.19844 0.0798813 0.180369
-0.198573 0.0807719 0.197548
-0.0335395 0.0604012 -0.390278
-0.0535576 0.059457 -0.390372
-0.0729594 0.0585419 -0.390463
-0.0871233 0.0578739 -0.39053
-0.194678 0.0576131 -0.303337
-0.194901 0.0591801 -0.274589
-0.197524 0.0775632 0.062682
-0.197638 0.0783613 0.0773242
-0.197814 0.0795896 0.0998611
-0.105513 0.0597873 -0.390616
-0.136403 0.0582594 -0.390761
-0.194293 0.0575916 -0.352877
-0.194436 0.0586488 -0.334383
-0.197039 0.0777819 0.000321507
-0.19725 0.0793269 0.0273492
-0.198118 0.0857114 0.139035
-0.199442 0.0954411 0.309242
-0.19976 0.0977779 0.35012
-0.200009 0.0996069 0.382116
-0.165753 0.0594498 -0.390899
-0.185838 0.0584101 -0.390993
-0.194154 0.0592031 -0.370716
-0.196548 0.0776203 -0.0628555
-0.196691 0.0787167 -0.0445271
-0.196887 0.0802278 -0.0192683
-0.197994 0.0887457 0.123116
-0.199139 0.097549 0.270273
-0.199289 0.0987009 0.289527
-0.199599 0.101088 0.329434
-0.196143 0.0778182 -0.1149
-0.196319 0.0792307 -0.0922939
-0.198309 0.0952173 0.163565
-0.198641 0.0978863 0.206282
-0.19885 0.0995608 0.233081
-0.198993 0.100709 0.251462
-0.19573 0.0776681 -0.168039
-0.195891 0.0790166 -0.147337
-0.196058 0.0804129 -0.125903
-0.19844 0.100364 0.180369
-0.195351 0.0775303 -0.216829
-0.195536 0.0791497 -0.192944
-0.197696 0.0979778 0.0847589
-0.197814 0.0990018 0.0998611
-0.199679 0.115264 0.339714
-0.200009 0.118138 0.382116
-0.0335395 0.0780795 -0.390278
-0.195035 0.0777088 -0.257448
-0.195137 0.0786399 -0.244233
-0.19725 0.0977751 0.0273492
-0.197413 0.0992537 0.0483351
-0.198118 0.105644 0.139035
-0.19952 0.118344 0.319277
-0.199842 0.121259 0.360654
-0.0535575 0.0797594 -0.390372
-0.0729594 0.0785319 -0.390463
-0.0871233 0.0776357 -0.39053
-0.194709 0.0775794 -0.299324
-0.194869 0.0790806 -0.278791
-0.196837 0.0975879 -0.0256734
-0.196937 0.098529 -0.0128013
-0.197091 0.0999753 0.00697923
-0.197933 0.107894 0.115283
-0.198993 0.117851 0.251462
-0.199139 0.119227 0.270273
-0.199289 0.120634 0.289527
-0.105513 0.079253 -0.390616
-0.194436 0.0777438 -0.334383
-0.196501 0.0978646 -0.068852
-0.198309 0.115476 0.163565
-0.198573 0.118051 0.197548
-0.19871 0.119382 0.215114
-0.136403 0.0799373 -0.390761
-0.165753 0.0779452 -0.390899
-0.194154 0.0776218 -0.370716
-0.194321 0.079307 -0.349232
-0.196143 0.0976867 -0.1149
-0.196319 0.0994598 -0.0922939
-0.19844 0.120846 0.180369
-0.199925 0.135823 0.371318
-0.185838 0.0791781 -0.390993
-0.19581 0.097521 -0.157777
-0.195974 0.0992291 -0.136714
-0.197754 0.117798 0.0922709
-0.199442 0.135393 0.309242
-0.19976 0.138708 0.35012
-0.195536 0.0977732 -0.192944
-0.197413 0.117981 0.0483351
-0.198118 0.125577 0.139035
-0.199289 0.138181 0.289527
-0.199599 0.141524 0.329434
-0.195243 0.0976148 -0.230697
-0.195387 0.0992191 -0.212131
-0.197039 0.117577 0.000321507
-0.19725 0.119913 0.0273492
-0.197933 0.127511 0.115283
-0.19885 0.13769 0.233081
-0.198993 0.139279 0.251462
-0.199139 0.140904 0.270273
-0.0335395 0.0987043 -0.390278
-0.195001 0.0978494 -0.261783
-0.196739 0.117755 -0.0383021
-0.196887 0.11945 -0.0192683
-0.198309 0.135735 0.163565
-0.198506 0.137993 0.188911
-0.0535575 0.100062 -0.390372
-0.0729594 0.0985218 -0.390463
-0.19474 0.0976978 -0.29528
-0.196455 0.117923 -0.0747933
-0.199679 0.155945 0.339714
-0.199842 0.157866 0.360654
-0.200009 0.159834 0.382116
-0.0871233 0.100221 -0.39053
-0.105513 0.0987186 -0.390616
-0.194495 0.097555 -0.326793
-0.196143 0.117555 -0.1149
-0.196319 0.119689 -0.0922939
-0.197814 0.137826 0.0998611
-0.198641 0.147871 0.206282
-0.19952 0.158536 0.319277
-0.136403 0.0989055 -0.390761
-0.194293 0.0977718 -0.352877
-0.195891 0.117719 -0.147337
-0.196058 0.119799 -0.125903
-0.197524 0.1381 0.062682
-0.197638 0.139521 0.0773242
-0.198118 0.14551 0.139035
-0.199139 0.158246 0.270273
-0.199289 0.160115 0.289527
-0.165753 0.0990829 -0.390899
-0.194073 0.0976345 -0.38112
-0.194869 0.107837 -0.278791
-0.195652 0.117874 -0.178127
-0.197196 0.137677 0.020492
-0.197994 0.147909 0.123116
-0.19885 0.158874 0.233081
-0.198993 0.160706 0.251462
-0.195387 0.117536 -0.212131
-0.196937 0.137941 -0.0128013
-0.19844 0.157714 0.180369
-0.200009 0.178366 0.382116
-0.195172 0.117688 -0.239757
-0.196643 0.137544 -0.0506938
-0.196788 0.139505 -0.0320177
-0.198245 0.159178 0.1553
-0.199442 0.175345 0.309242
-0.19976 0.179638 0.35012
-0.0335395 0.119329 -0.390278
-0.195035 0.118762 -0.257448
-0.196409 0.137797 -0.0806802
-0.198573 0.167757 0.197548
-0.199289 0.177662 0.289527
-0.199599 0.181959 0.329434
-0.0535575 0.120364 -0.390372
-0.0729594 0.118512 -0.390463
-0.19474 0.11752 -0.29528
-0.196187 0.138039 -0.109324
-0.197581 0.157822 0.0699657
-0.197814 0.161121 0.0998611
-0.198118 0.165443 0.139035
-0.198993 0.177848 0.251462
-0.199139 0.179924 0.270273
-0.0871233 0.119982 -0.39053
-0.105513 0.118184 -0.390616
-0.194555 0.117662 -0.319091
-0.195932 0.137667 -0.142049
-0.197303 0.157592 0.0342747
-0.197413 0.15918 0.0483351
-0.197994 0.167631 0.123116
-0.19871 0.178026 0.215114
-0.199925 0.195677 0.371318
-0.136403 0.117874 -0.390761
-0.194378 0.117797 -0.341861
-0.19573 0.137901 -0.168039
-0.197091 0.158143 0.00697923
-0.19844 0.178197 0.180369
-0.199679 0.196626 0.339714
-0.165753 0.117578 -0.390899
-0.194181 0.117507 -0.367199
-0.194869 0.127967 -0.278791
-0.195499 0.137549 -0.1978
-0.196837 0.157915 -0.0256734
-0.196937 0.159438 -0.0128013
-0.198245 0.179327 0.1553
-0.19952 0.198728 0.319277
-0.185838 0.118118 -0.390993
-0.195314 0.137775 -0.22149
-0.196595 0.157698 -0.0568029
-0.198573 0.188468 0.197548
-0.199213 0.198424 0.279843
-0.199365 0.200781 0.299326
-0.195137 0.137991 -0.244233
-0.196409 0.158211 -0.0806802
-0.197638 0.177746 0.0773242
-0.197814 0.180533 0.0998611
-0.198118 0.185376 0.139035
-0.198921 0.198133 0.242219
-0.199065 0.200432 0.260813
-0.0335395 0.139954 -0.390278
-0.0535575 0.137766 -0.390372
-0.195001 0.138742 -0.261783
-0.196187 0.157996 -0.109324
-0.197413 0.177908 0.0483351
-0.19871 0.198971 0.215114
-0.200009 0.220062 0.382116
-0.0729594 0.138502 -0.390463
-0.195974 0.157791 -0.136714
-0.197196 0.178063 0.020492
-0.19844 0.198679 0.180369
-0.199442 0.215297 0.309242
-0.199599 0.217901 0.329434
-0.19976 0.220569 0.35012
-0.0871233 0.139744 -0.39053
-0.105513 0.13765 -0.390616
-0.194585 0.137554 -0.315197
-0.19577 0.157594 -0.16293
-0.196988 0.178212 -0.00627178
-0.198245 0.199476 0.1553
-0.195613 0.158068 -0.183108
-0.196739 0.177511 -0.0383021
-0.197933 0.198133 0.115283
-0.198573 0.209179 0.197548
-0.199065 0.217673 0.260813
-0.199213 0.220228 0.279843
-0.136403 0.139552 -0.390761
-0.194293 0.137952 -0.352877
-0.194836 0.147525 -0.282961
-0.195424 0.157873 -0.207393
-0.196548 0.177664 -0.0628555
-0.197696 0.197877 0.0847589
-0.197814 0.199945 0.0998611
-0.198118 0.205309 0.139035
-0.19885 0.218186 0.233081
-0.200009 0.238593 0.382116
-0.165753 0.138716 -0.390899
-0.194127 0.137653 -0.374209
-0.194678 0.147546 -0.303337
-0.195243 0.157685 -0.230697
-0.196364 0.177812 -0.0865134
-0.197468 0.197631 0.0554722
-0.19976 0.23876 0.35012
-0.0335395 0.157632 -0.390278
-0.185838 0.138886 -0.390993
-0.195069 0.157505 -0.253078
-0.196187 0.177954 -0.109324
-0.197303 0.19838 0.0342747
-0.19844 0.219162 0.180369
-0.19952 0.238921 0.319277
-0.0535575 0.158069 -0.390372
-0.196016 0.178091 -0.131332
-0.197091 0.198133 0.00697923
-0.198245 0.219625 0.1553
-0.199213 0.237672 0.279843
-0.199365 0.240495 0.299326
-0.0729594 0.158492 -0.390463
-0.19585 0.178223 -0.15258
-0.196887 0.197895 -0.0192683
-0.197933 0.21775 0.115283
-0.198573 0.229889 0.197548
-0.198993 0.237845 0.251462
-0.0871233 0.159506 -0.39053
-0.195652 0.177597 -0.178127
-0.196691 0.197666 -0.0445271
-0.197754 0.218217 0.0922709
-0.198118 0.225242 0.139035
-0.198779 0.238012 0.224046
-0.105513 0.159896 -0.390616
-0.194495 0.158012 -0.326793
-0.195499 0.177732 -0.1978
-0.196548 0.198363 -0.0628555
-0.197524 0.217555 0.062682
-0.136403 0.15852 -0.390761
-0.194349 0.157841 -0.34556
-0.194836 0.167578 -0.282961
-0.195351 0.177864 -0.216829
-0.196364 0.198133 -0.0865134
-0.197358 0.218008 0.0412697
-0.19844 0.239644 0.180369
-0.194709 0.167853 -0.299324
-0.195207 0.177991 -0.235245
-0.196187 0.197911 -0.109324
-0.197196 0.218448 0.020492
-0.198245 0.239774 0.1553
-0.0335395 0.178257 -0.390278
-0.165753 0.159854 -0.390899
-0.194073 0.157517 -0.38112
-0.196016 0.197697 -0.131332
-0.196988 0.217814 -0.00627178
-0.197994 0.238627 0.123116
-0.0535575 0.178371 -0.390372
-0.195891 0.198348 -0.147337
-0.196837 0.218242 -0.0256734
-0.197754 0.237528 0.0922709
-0.0729594 0.178481 -0.390463
-0.19573 0.198133 -0.168039
-0.196643 0.217633 -0.0506938
-0.197581 0.237683 0.0699657
-0.0871233 0.179268 -0.39053
-0.195574 0.197925 -0.188046
-0.196501 0.218049 -0.068852
-0.197413 0.237834 0.0483351
-0.105513 0.179362 -0.390616
-0.194525 0.177906 -0.322957
-0.194967 0.187659 -0.266085
-0.195424 0.197724 -0.207393
-0.196364 0.218454 -0.0865134
-0.19725 0.237981 0.0273492
-0.194407 0.178021 -0.338136
-0.195278 0.19753 -0.226112
-0.196187 0.217869 -0.109324
-0.197091 0.238123 0.00697923
-0.136403 0.180198 -0.390761
-0.194709 0.187601 -0.299324
-0.196058 0.218264 -0.125903
-0.196937 0.238261 -0.0128013
-0.0335395 0.198882 -0.390278
-0.165753 0.178349 -0.390899
-0.194154 0.177609 -0.370716
-0.195891 0.217699 -0.147337
-0.196788 0.238395 -0.0320177
-0.0535575 0.198673 -0.390372
-0.185838 0.177826 -0.390993
-0.196643 0.238526 -0.0506938
-0.0729594 0.198471 -0.390463
-0.195613 0.217539 -0.183108
-0.196455 0.237554 -0.0747933
-0.0871233 0.19903 -0.39053
-0.195069 0.207554 -0.253078
-0.195499 0.217915 -0.1978
-0.196319 0.237692 -0.0922939
-0.105513 0.198828 -0.390616
-0.194555 0.197948 -0.319091
-0.194967 0.208025 -0.266085
-0.196187 0.237826 -0.109324
-0.195243 0.217756 -0.230697
-0.196058 0.237956 -0.125903
-0.136403 0.199166 -0.390761
-0.194321 0.197595 -0.349232
-0.19474 0.208139 -0.29528
-0.0335395 0.219507 -0.390278
-0.19581 0.238207 -0.157777
-0.0535575 0.218976 -0.390372
-0.165753 0.199487 -0.390899
-0.194127 0.197958 -0.374209
-0.0729594 0.218461 -0.390463
-0.185838 0.198594 -0.390993
-0.195574 0.238445 -0.188046
-0.0871233 0.218792 -0.39053
-0.195069 0.228162 -0.253078
-0.195424 0.237576 -0.207393
-0.105513 0.218293 -0.390616
-0.194585 0.218141 -0.315197
-0.194934 0.2275 -0.270354
-0.136403 0.218134 -0.390761
-0.194378 0.217991 -0.341861
-0.19474 0.227961 -0.29528
-0.0335395 0.240131 -0.390278
-0.194264 0.217528 -0.356496
-0.0535575 0.239278 -0.390372
-0.165753 0.217982 -0.390899
-0.0729594 0.238451 -0.390463
-0.1941 0.218164 -0.377676
-0.0871233 0.238553 -0.39053
-0.105513 0.237759 -0.390616
-0.194585 0.237593 -0.315197
-0.194407 0.237814 -0.338136
-0.136403 0.239812 -0.390761
-0.194236 0.238025 -0.360089
-0.165753 0.23912 -0.390899
-0.185838 0.237534 -0.390993
