ply
format ascii 1.0
comment Created by Open3D
element vertex 1675
property double x
property double y
property double z
end_header
0.145139 0.179591 -0.104637
0.00492762 0.179591 0.2918
0.0796172 0.179591 0.0695768
0.139043 0.124685 0.372297
0.206213 0.179865 0.146567
0.145647 -0.0214128 0.378275
0.141099 0.193338 0.088456
-0.18457 0.179591 -0.401724
-0.0169288 0.193338 -0.296618
-0.104946 0.179591 -0.392133
0.115489 0.193338 -0.152
-0.125525 0.179591 -0.0385706
0.171155 0.193338 0.36011
0.0777884 0.193338 -0.370689
-0.137858 0.179591 0.160488
0.0571927 0.179591 0.180306
-0.167032 0.000426702 -0.391336
0.0311678 0.193338 -0.303635
0.0831263 0.193338 -0.213778
0.159826 0.179591 0.119915
-0.124773 0.179591 -0.17362
0.071898 0.193338 -0.00927368
0.0983346 0.179591 0.249688
-0.11587 0.179591 -0.313156
-0.206213 0.185398 -0.0876257
0.0680841 0.179591 0.101675
-0.0653756 0.179591 0.25333
-0.0683904 0.193338 0.101117
-0.191766 0.179591 -0.318948
0.161521 0.179591 -0.0750977
-0.0808172 0.193338 0.0354291
0.175334 0.193338 -0.0401007
0.159371 -0.1038 -0.375758
0.140783 0.179591 0.134427
-0.0236213 0.179591 0.0848706
0.160774 0.0959922 0.384365
0.1658 -0.0553982 -0.370178
-0.0439467 0.179591 -0.39008
-0.117808 0.183138 -0.412427
-0.0277582 0.179591 -0.373942
0.14608 0.142885 -0.378712
0.0448579 0.193338 0.0751033
-0.0379262 0.193338 0.292784
-0.163219 0.179591 0.349852
0.034408 0.193338 -0.34272
0.0203968 0.179591 0.309578
-0.114901 0.193338 0.0297706
-0.120782 0.193338 0.220614
-0.115338 0.193338 0.0702852
-0.060812 0.193338 0.0942189
-0.168 0.179591 0.330077
-0.10023 0.179591 -0.296598
0.1615 0.0246788 0.364432
0.177874 0.179591 -0.31731
-0.0102641 0.193338 0.159815
-0.186652 0.193338 0.191477
-0.149408 0.0893155 0.370586
-0.0161182 0.193338 0.0474154
0.146487 0.193338 -0.371115
-0.170912 0.193338 0.368682
0.00217071 0.179591 0.0364035
0.150985 0.193338 -0.223029
0.0768629 0.193338 -0.217882
-0.0329628 0.193338 0.0520833
0.0972207 0.193338 -0.17457
0.173958 -0.0862323 -0.38489
-0.154355 0.193338 0.27223
0.148473 0.179591 -0.274857
0.122459 0.193338 -0.0505429
-0.13805 0.193338 0.0429159
-0.186001 0.193338 0.101988
-0.15654 0.193338 -0.122344
-0.141094 0.193338 0.0905426
0.17387 -0.10128 -0.399281
-0.168826 -0.102872 -0.37604
-0.0487096 0.193338 -0.335988
0.02423 0.193338 0.304897
0.107851 0.179591 -0.36722
0.118327 0.179591 -0.355438
0.172412 -0.175503 -0.407041
0.0130671 0.193338 0.127808
0.0890874 0.193338 0.251406
-0.148555 0.179591 -0.0471239
-0.134305 0.193338 0.0716709
0.0267276 0.193338 0.0755422
-0.0100332 0.179591 -0.220491
0.166494 0.173996 -0.367905
-0.206213 0.191537 0.201534
0.0604976 0.193338 0.407608
0.159768 0.179591 -0.113116
-0.0255503 0.179591 -0.0701997
0.0924586 0.193338 -0.365795
-0.206213 0.192582 -0.376527
-0.180389 0.179591 0.404185
-0.162867 -0.0933272 -0.380667
0.0741089 0.193338 0.044978
-0.116173 0.193338 -0.0662592
0.14111 0.185267 0.376026
-0.0435943 0.179591 0.315203
-0.154016 0.179591 0.0601478
-0.104808 0.193338 0.145277
0.0356202 0.179591 0.160097
-0.0395921 0.179591 0.230975
0.155049 -0.0246641 0.36536
-0.187576 -0.12219 -0.397055
-0.0322643 0.193338 -0.125023
-0.163282 0.179591 -0.11248
-0.177015 -0.0931479 0.377337
0.0777385 0.179591 0.0379711
-0.156554 0.172994 0.342165
-0.135158 0.193338 -0.355993
0.127598 0.179591 -0.165236
0.13502 0.193338 -0.412035
-0.131795 0.179591 0.271966
0.104083 0.193338 0.338654
-0.0471424 0.193338 0.172602
-0.180323 0.179591 -0.0155574
-0.152545 0.0967232 0.376295
0.0984717 0.193338 -0.285933
-0.172476 0.191053 0.412427
0.192641 0.179591 0.2353
0.0483438 0.179591 0.0176697
-0.189089 0.193338 -0.14754
-0.0969647 0.193338 -0.118095
-0.0399025 0.193338 0.0800639
-0.0729116 0.179591 -0.252962
-0.0153787 0.193338 0.0443945
0.186872 0.193338 -0.254319
0.163949 0.0157791 -0.391902
-0.024401 0.179591 0.187917
0.111974 0.179591 0.211123
0.0207055 0.179591 -0.112158
0.0636273 0.179591 -0.202286
-0.162259 0.179591 0.0357144
-0.187603 0.193338 -0.253574
-0.0770496 0.179591 0.0737897
0.206213 0.189232 0.197841
-0.17937 0.0291618 0.383309
-0.157469 0.193338 0.20229
-0.0155764 0.179591 -0.062393
-0.093377 0.193338 0.326553
-0.188941 0.193338 0.338959
0.153581 -0.0829599 -0.384518
-0.10894 0.179591 -0.247216
-0.0829497 0.179591 -0.373537
-0.158994 -0.0133859 -0.378858
-0.144224 0.193338 0.334338
0.167111 0.179591 0.390926
0.104745 0.193338 -0.306956
-0.128813 0.179591 0.276878
0.120366 0.179591 0.291145
-0.0826481 0.179591 -0.298648
0.152865 0.0820422 -0.352772
-0.113049 0.193338 -0.107188
-0.0431548 0.179591 0.279788
-0.136333 0.179591 -0.214314
-0.114178 0.179591 0.221185
0.0761041 0.179591 -0.348526
-0.00802251 0.179591 0.126976
0.163365 0.179591 -0.310786
0.157135 0.0760905 0.38745
-0.129727 0.179591 -0.23723
0.197703 0.179591 0.110065
0.138762 0.148087 0.372679
-0.0194868 0.193338 0.0403826
-0.158487 0.179591 0.303282
0.0170028 0.193338 -0.0371729
0.0416959 0.193338 0.0628857
0.203028 0.179591 -0.298265
-0.00573505 0.193338 0.393558
0.0995195 0.179591 -0.0399406
0.0855936 0.193338 0.0881731
-0.0981592 0.193338 -0.327085
-0.139319 0.193338 -0.338313
0.156199 -0.0692583 -0.389563
0.170065 -0.112461 -0.379121
-0.162762 0.193338 0.16077
-0.0133594 0.179591 0.315759
0.186436 0.193338 -0.238931
-0.0135215 0.193338 0.2805
0.0333715 0.193338 0.0200214
-0.097912 0.179591 -0.196832
-0.154375 0.193338 -0.120426
-0.206213 0.189134 -0.266698
0.0105864 0.179591 0.360082
0.137643 0.179591 0.0126016
-0.039508 0.179591 0.193403
0.104495 0.179591 -0.365428
0.0217893 0.179591 -0.122537
-0.18593 0.179591 -0.0536765
0.160203 0.193338 -0.0830513
0.00124116 0.179591 0.152994
-0.128581 0.179591 0.0781453
-0.172637 0.193338 0.322403
0.0242495 0.193338 0.0815957
0.100005 0.193338 -0.155613
0.0177581 0.179591 -0.331712
0.0894488 0.193338 -0.220458
0.173853 0.193338 -0.194186
-0.168503 0.164422 0.353023
-0.085258 0.193338 -0.335948
0.136949 0.193338 0.073124
0.0732375 0.193338 -0.374337
-0.0877696 0.193338 0.180949
-0.206213 0.181516 0.213882
0.0789252 0.193338 -0.361429
0.0983516 0.179591 -0.125453
0.0297682 0.193338 0.345425
0.0927562 0.193338 -0.363688
0.0950248 0.179591 0.169826
-0.206213 0.192903 -0.310681
0.0559629 0.193338 -0.249803
0.11936 0.179591 0.0620788
0.044174 0.193338 0.0193994
-0.0235977 0.193338 0.346639
0.0410086 0.193338 -0.225201
-0.133682 0.179591 -0.00256281
-0.167368 0.193338 -0.407141
-0.129267 0.193338 0.168317
-0.147694 0.179591 0.0413544
-0.0814432 0.193338 0.117439
-0.03075 0.193338 0.184871
0.167504 -0.00557356 0.390976
-0.0950247 0.193338 0.246412
0.061953 0.193338 -0.376443
-0.134913 0.179591 -0.00602072
0.203694 0.193338 0.281108
0.200241 0.179591 -0.183587
-0.140273 0.179591 0.168989
0.134481 0.185421 0.353877
0.195962 0.193338 -0.221304
-0.122922 0.179591 0.0383384
0.194094 0.193338 -0.109488
0.175422 0.193338 -0.0632648
-0.0882179 0.193338 -0.308842
-0.134881 0.193338 0.0590053
0.106046 0.193338 0.231443
0.205242 0.193338 -0.179998
0.0277673 0.193338 0.292302
0.077777 0.179591 0.275081
0.156159 0.179591 0.0556633
-0.0854999 0.179591 -0.214344
-0.104134 0.179591 0.25014
-0.163683 -0.00101484 -0.387439
-0.0122533 0.193338 -0.39604
0.129876 0.179591 0.0356401
-0.171936 -0.116472 0.374938
-0.0138342 0.179591 -0.197882
-0.0125343 0.179591 -0.38565
0.16454 0.116572 0.377546
-0.0362882 0.179591 0.048932
0.173122 -0.149059 0.391018
0.196785 0.179591 0.315108
-0.0618548 0.193338 -0.365045
-0.110128 0.193338 0.101858
-0.0962659 0.193338 -0.123754
0.0683082 0.179591 -0.122141
-0.146332 0.179591 -0.409988
0.0463975 0.193338 0.178894
-0.0224845 0.193338 0.186552
0.0467761 0.179591 -0.0239259
-0.0226084 0.193338 0.147498
-0.147522 0.193338 0.222928
0.173799 0.193338 -0.269446
-0.0857534 0.193338 -0.360636
0.114973 0.179591 0.31007
-0.119847 0.193338 -0.000712842
0.0773521 0.179591 -0.195406
-0.0547204 0.179591 0.382493
-0.0614878 0.193338 0.0543203
-0.165066 -0.112254 -0.385533
0.136716 0.193338 0.393465
-0.165939 0.123847 0.350836
0.0536053 0.179591 0.28018
0.152687 -0.0457689 0.369761
0.1546 0.193338 0.268726
0.0541031 0.193338 -0.165616
-0.073204 0.179591 -0.0653214
-0.163886 0.193338 -0.0624289
-0.179017 -0.0772356 0.398513
0.194443 0.193338 0.0839932
0.173165 -0.0864231 0.389357
-0.175592 0.173565 -0.371871
0.0590685 0.179591 -0.229186
-0.114236 0.179591 -0.409875
0.206213 0.187125 0.270431
-0.0972348 0.179591 0.365557
0.203344 0.179591 0.157882
-0.00398906 0.179591 0.139879
-0.0516639 0.193338 -0.138919
0.177869 0.193338 -0.0756942
-0.206213 0.187966 -0.378003
0.206213 0.18547 0.0352692
0.0928798 0.179591 0.0212421
0.145727 -0.0379192 0.373987
-0.15809 0.185421 0.368678
0.145057 0.193338 0.165557
0.0941897 0.193338 -0.301036
-0.0487534 0.193338 -0.384321
-0.166879 0.148535 -0.347413
-0.0198481 0.193338 0.207158
-0.118035 0.179591 0.263778
-0.130147 0.179591 -0.14286
-0.0920159 0.179591 0.243042
-0.169214 0.0731833 0.357848
0.0532541 0.179591 -0.0492246
-0.167392 0.193338 -0.322136
0.19506 0.189179 -0.412427
-0.090401 0.193338 0.248818
0.181622 0.179591 0.355109
-0.109473 0.179591 -0.0525459
0.188022 0.193338 0.186298
-0.0923882 0.179591 0.152374
-0.139943 0.193338 0.232372
0.158082 0.179591 0.331103
-0.0725793 0.193338 -0.22388
0.102679 0.179591 0.0324163
0.0127875 0.193338 -0.319706
0.160972 0.0821926 -0.356434
-0.0806454 0.179591 -0.350959
0.180526 0.179591 -0.0143808
-0.205748 0.179591 -0.341054
-0.156052 0.101087 0.352802
0.109244 0.193338 -0.116819
0.00296883 0.179591 -0.231468
-0.206213 0.185365 0.19408
-0.143206 0.193338 0.184352
-0.0822695 0.179591 0.0189946
0.098011 0.193338 -0.289576
0.145175 0.184493 -0.34247
-0.00962743 0.179591 -0.192714
0.0412047 0.179591 0.288603
-0.0145408 0.179591 0.310341
0.100036 0.193338 0.11588
0.134644 0.126365 0.355408
0.0878004 0.179591 -0.14365
-0.0260969 0.193338 -0.225225
0.185481 0.193338 -0.320571
-0.090648 0.179591 -0.0584774
0.106337 0.179591 0.13057
0.0911628 0.179591 -0.327631
0.204112 0.193338 -0.082622
-0.172721 0.028295 0.365387
0.039379 0.179591 -0.34428
-0.169748 0.0119111 -0.392115
-0.053819 0.179591 0.204837
-0.190842 0.193338 -0.164252
-0.174973 -0.0334182 -0.367683
0.149706 0.0256005 -0.381841
0.118234 0.193338 0.311962
0.04899 0.179591 -0.0862103
0.174531 0.193338 -0.0332589
0.0534537 0.193338 0.163028
0.0774071 0.179591 0.152308
0.195877 0.193338 -0.111242
0.0772449 0.193338 0.163248
-0.202581 0.179591 -0.0465647
-0.0147099 0.179591 0.0807356
0.16542 -0.0667555 0.374619
-0.00307475 0.192978 0.412427
-0.0453335 0.193338 -0.0190711
-0.185473 0.179591 -0.146552
0.0669956 0.179591 -0.0392187
-0.0275744 0.193338 0.128947
0.0596078 0.179591 -0.10631
-0.181996 0.179591 0.0255342
0.0697601 0.193338 -0.191108
-0.00872417 0.193338 -0.296606
0.175951 -0.109331 -0.39801
0.00262331 0.193338 -0.338617
-0.183925 0.193338 -0.0415061
-0.00190991 0.179591 0.10201
0.172557 0.179591 0.161704
0.0367575 0.193338 -0.0199589
0.144032 0.0321555 -0.371757
-0.0188179 0.193338 0.298638
0.174155 0.179591 0.180531
0.206213 0.187066 0.201938
-0.157859 0.016759 0.363893
-0.136218 0.193338 0.0483825
0.150749 0.0514168 -0.384395
0.136475 0.127918 0.354127
-0.192198 0.179591 0.0806547
-0.125214 0.179591 0.383459
0.127526 0.193338 0.386911
-0.166357 0.193338 -0.266812
-0.118112 0.179591 -0.0474648
0.165317 -0.137529 -0.377179
0.0638294 0.193338 -0.0610416
-0.177198 -0.133298 -0.402997
-0.0344939 0.193338 0.0277425
0.0316544 0.193338 -0.102111
-0.105622 0.193338 -0.0724057
0.0630642 0.193338 0.107145
0.117663 0.179591 -0.182207
0.1286 0.193338 -0.207291
0.0912595 0.179591 -0.232466
-0.171102 0.134509 0.358635
0.140958 0.100144 -0.357042
0.184168 0.193338 0.0840123
-0.176459 0.193338 0.136756
-0.168288 0.179591 0.241801
0.169565 0.193338 -0.368613
-0.0600653 0.179591 0.0521078
-0.173424 0.193338 -0.156601
0.153201 0.179591 0.227205
-0.0169235 0.193338 0.360228
-0.0544498 0.179591 0.128725
-0.0583395 0.179591 0.113952
0.147861 0.179591 -0.131857
-0.182477 0.179591 0.199161
-0.177278 -0.058826 -0.372064
-0.158067 0.193338 -0.0783775
-0.000717318 0.193338 -0.308342
-0.0629732 0.179591 0.0141802
-0.101061 0.179591 -0.0626145
0.1684 -0.0847829 -0.399894
-0.108195 0.179591 -0.16908
0.122784 0.193338 0.169752
-0.178671 -0.162956 -0.405195
0.032642 0.193338 -0.0879397
0.0788282 0.193338 0.186854
-0.206213 0.187463 0.376287
-0.140327 0.179591 0.115708
0.00898059 0.193338 -0.283511
-0.0299309 0.179591 -0.0388931
0.160021 0.193338 0.32873
0.116683 0.179591 -0.182329
-0.158428 0.193338 0.36545
-0.141386 0.179591 0.405205
0.017344 0.179591 0.0876696
-0.190606 0.179591 -0.163466
0.139103 0.144201 0.373126
-0.0900302 0.193338 -0.0661682
0.0506764 0.193338 0.0385776
0.160465 0.105649 0.359631
-0.206213 0.189063 -0.0177993
-0.183916 -0.124846 0.390469
0.00235491 0.193338 0.312196
0.100176 0.193338 -0.0161191
-0.0105697 0.193338 0.188539
-0.177301 -0.0893517 -0.373746
0.169279 0.0632565 -0.371231
-0.153277 0.179591 0.310973
0.165479 -0.126126 0.377717
0.0206235 0.179591 -0.295584
0.194555 0.193338 0.058361
-0.20016 0.193338 0.090649
-0.192757 0.179591 0.332444
-0.198974 0.193338 0.265192
-0.10024 0.179591 0.07475
0.10981 0.193338 -0.0362001
-0.206213 0.191207 -0.27934
0.0660156 0.192654 0.412427
-0.173146 -0.0240495 0.368239
-0.000584528 0.193338 -0.190745
0.151004 0.179591 0.102322
0.113983 0.179591 0.221469
0.0754091 0.179591 0.180976
0.151347 0.126723 0.383488
0.0865416 0.193338 -0.267121
0.149398 0.193338 0.165963
0.149709 0.179591 0.178186
0.171401 -0.116687 -0.381594
-0.155616 0.193338 0.197106
-0.206213 0.182634 0.0221474
-0.0191662 0.193338 -0.389801
0.123526 0.179591 -0.177113
-0.175568 0.188315 0.412427
0.0649003 0.193338 0.180879
-0.00232858 0.179591 0.230398
-0.206213 0.183395 0.355476
-0.174122 0.179591 -0.0625495
-0.0686647 0.193338 -0.195953
-0.00749015 0.179591 -0.237645
-0.192492 0.179591 0.174655
-0.141485 0.193338 -0.409102
-0.0690507 0.179591 -0.18493
-0.154078 0.193338 -0.267876
0.131622 0.154809 0.359117
0.160518 0.179591 -0.26973
-0.116044 0.193338 -0.253385
0.149997 0.193338 -0.279153
0.0878059 0.179591 0.141165
0.161966 -0.0110288 -0.39405
0.0531416 0.179591 0.149065
-0.0271525 0.179591 -0.282842
-0.14689 0.172603 -0.349064
-0.18332 0.179591 0.407529
0.18335 0.193338 0.326563
-0.121905 0.193338 -0.219211
0.0348325 0.179591 -0.198215
-0.120002 0.179591 -0.119836
0.0214556 0.179591 0.189245
-0.142949 0.14122 0.357129
0.157354 0.179591 0.0781624
0.0452973 0.193338 0.140687
-0.0413012 0.193338 -0.115415
-0.00977367 0.193338 -0.317812
0.0464822 0.193338 0.108627
0.0518553 0.179591 0.371289
-0.172896 -0.00575919 -0.36391
0.14666 0.179591 -0.185703
-0.00078664 0.193338 -0.207995
-0.0876446 0.179591 -0.246134
0.160531 0.0873219 -0.386249
-0.117005 0.193338 -0.228081
0.0145165 0.179591 0.217285
-0.0377437 0.193338 0.119474
-0.163919 -0.0782997 -0.384977
-0.0834069 0.193338 0.238462
-0.136769 0.193338 0.367385
-0.0247918 0.179591 0.0633698
-0.160359 0.193338 -0.0593549
-0.0279243 0.179591 0.214526
-0.00257437 0.179591 -0.264446
0.202241 0.193338 0.157085
0.0576387 0.179591 -0.276797
0.202251 0.193338 0.104986
-0.0454792 0.193338 0.303661
-0.169808 0.179591 0.120542
0.0428757 0.179591 0.0494951
0.192667 0.179591 -0.107185
0.122284 0.193338 0.368011
0.0205777 0.181201 -0.412427
0.146547 -0.0240499 0.37018
-0.192932 0.179591 0.0170715
-0.0898153 0.179591 0.00703508
-0.0122157 0.193338 -0.400962
-0.0368853 0.193338 0.0542143
0.151495 0.0218822 -0.384801
-0.0909259 0.193338 0.0983216
0.169844 0.179591 0.00398411
-0.193808 0.179591 0.136413
-0.0645297 0.193338 0.281707
-0.159505 0.179591 -0.191423
-0.0901568 0.193338 0.146346
-0.128031 0.193338 -0.158809
-0.195685 0.179591 -0.103624
0.185123 0.179591 0.0355333
-0.163304 0.00630172 0.362254
0.0318738 0.193338 -0.0872613
-0.0237377 0.179591 -0.107457
0.105637 0.179591 -0.0171345
-0.0898312 0.179591 -0.366523
0.195936 0.179591 0.0183146
-0.0474267 0.179591 0.39269
0.0183889 0.179591 0.0252132
-0.19618 0.179591 0.117222
0.0589025 0.179591 0.361866
0.168716 -0.0910206 -0.400385
-0.100784 0.179591 -0.303225
0.0056859 0.179591 0.41162
-0.0314577 0.193338 0.233834
-0.122263 0.179591 -0.374249
0.0646355 0.179591 -0.167069
0.0721896 0.179591 0.046865
-0.00895715 0.182434 0.412427
0.14159 0.181282 -0.373285
-0.182341 -0.0872149 0.386341
-0.143431 0.179591 -0.186052
-0.173445 0.0652566 -0.36075
0.161378 0.179591 -0.163531
0.0935867 0.179591 -0.0148575
-0.206213 0.183597 0.0241761
0.175043 0.193338 0.17369
-0.0644879 0.179591 0.247495
-0.176803 0.193338 0.0385624
-0.0539587 0.179591 0.258488
0.0434931 0.179591 0.407066
0.127761 0.179591 -0.304427
-0.16158 0.179591 0.374923
0.0882078 0.193338 0.271313
0.206213 0.189397 0.202089
-0.150551 0.0796484 0.372208
0.0340141 0.179591 0.14615
-0.206011 0.179591 -0.291197
0.0980907 0.193338 -0.350337
0.0971861 0.193338 0.0334978
-0.165443 0.193338 0.218152
0.171435 -0.14346 0.403868
0.109785 0.193338 0.174888
0.189616 0.193338 -0.273571
-0.174619 0.0296755 0.389569
-0.0178614 0.193338 0.278653
-0.0705109 0.193338 -0.356414
-0.00597558 0.179591 -0.113233
0.0198666 0.179591 0.0210273
-0.0501077 0.179591 -0.148277
0.148515 0.193338 -0.346193
0.112926 0.193338 -0.366813
0.0200024 0.179591 -0.103813
-0.169072 -0.078018 0.397399
0.0280676 0.193338 -0.114178
0.163777 -0.16254 -0.381666
-0.204631 0.179591 0.311046
0.0679311 0.193338 0.0306777
-0.0833185 0.193338 -0.203596
-0.170227 0.193338 0.271893
-0.178677 0.179591 -0.324702
-0.0781282 0.179591 -0.360955
-0.192441 0.179591 -0.0735931
-0.0140363 0.193338 -0.244618
-0.144442 0.179591 0.107752
0.159557 0.179591 -0.0103509
0.142521 0.179591 -0.326909
-0.0291947 0.179591 -0.120339
0.142638 0.193338 -0.0223585
-0.172037 0.179591 -0.182242
0.144755 0.193338 0.105014
0.147554 -0.0214319 -0.371225
-0.205344 0.179591 0.32216
-0.0203399 0.179591 -0.381397
0.135769 0.193338 0.055204
-0.146531 0.179591 -0.337625
-0.160865 -0.0632062 -0.379553
-0.0110774 0.193338 -0.260667
0.143703 0.127995 -0.375249
0.102764 0.193338 0.124962
0.186081 0.179591 -0.177546
-0.0872181 0.179591 -0.0120929
0.0165117 0.193338 0.139977
-0.0587957 0.193338 0.134319
-0.0994467 0.179591 0.226022
-0.00218267 0.193338 -0.391474
-0.156042 0.193338 -0.236446
-0.0833568 0.193338 0.148594
0.146373 0.157759 -0.378483
0.0105176 0.193338 0.407903
-0.102496 0.179591 0.154573
0.171503 -0.193338 0.40731
-0.0644916 0.179591 0.135454
-0.0973039 0.193338 0.013433
0.051503 0.179591 0.131956
0.0320853 0.193338 -0.0656148
-0.007824 0.179591 0.360745
0.150105 0.0859347 0.352299
-0.178822 -0.110466 0.381111
0.0130576 0.179591 0.337578
0.200668 0.193338 0.324682
-0.163231 0.179591 0.30385
0.0803541 0.179591 0.172239
0.0197087 0.193338 0.285624
-0.108947 0.179591 0.213622
0.0636406 0.179591 0.141202
-0.0470547 0.179591 -0.333288
0.00348578 0.179591 0.0844243
0.206213 0.192585 0.146946
0.162815 0.120697 0.363142
-0.0120768 0.179591 0.0232294
0.109103 0.179591 -0.0252222
0.0802266 0.193338 -0.196135
-0.0762101 0.193338 -0.219621
-0.17762 -0.0794169 -0.373625
-0.00714325 0.193338 -0.314555
-0.142967 0.193338 0.239232
0.0387492 0.179591 0.126354
0.205139 0.193338 -0.277498
0.121976 0.179591 0.222374
-0.0833005 0.193338 0.411296
-0.0620588 0.179591 -0.336375
-0.146297 0.193338 -0.283401
0.0763342 0.193338 -0.236468
0.0756896 0.179591 -0.315974
0.0158172 0.179591 -0.24229
0.0486147 0.193338 0.14124
-0.155123 0.151066 0.346146
-0.174343 0.0300457 -0.39061
0.167866 -0.108416 -0.375762
-0.0643144 0.179591 0.116717
0.0382815 0.179591 0.274132
0.206029 0.179591 0.187866
0.103404 0.179591 -0.126195
-0.00854136 0.179591 -0.128396
0.152837 -0.0852073 -0.382902
0.0290019 0.179591 -0.00718583
0.0921278 0.193338 -0.229223
-0.175397 0.193338 0.268654
-0.0783951 0.193338 0.0920111
0.107363 0.193338 0.0983537
0.0191742 0.179591 0.237561
0.180986 0.179591 -0.153792
-0.00600333 0.179591 -0.260841
-0.159325 0.181253 -0.37876
0.097939 0.179591 -0.392684
-0.206213 0.182527 0.368145
0.169165 0.10614 -0.372353
0.164014 0.179591 -0.17392
0.0215152 0.193338 -0.409237
0.16489 0.143902 -0.360633
-0.0235549 0.193338 0.406444
0.159012 -0.132477 0.397328
-0.116569 0.193338 -0.0868877
-0.155067 0.0812289 -0.357492
-0.179078 0.104108 -0.376081
0.0186569 0.179591 0.23515
-0.150176 0.104723 -0.367974
-0.151281 0.193338 -0.330177
-0.0999504 0.193338 -0.396591
-0.186235 0.193338 0.191292
0.11093 0.179591 0.323252
-0.198943 0.179591 0.337034
0.0178739 0.179591 0.174237
-0.145197 0.136899 0.353915
0.167213 0.193338 0.397397
0.120173 0.179591 0.0538996
0.0214057 0.193338 0.0725547
-0.0300422 0.185165 0.412427
-0.0806261 0.193338 -0.326864
0.175603 0.193338 0.382821
0.0252262 0.179591 -0.362395
0.190757 0.193338 0.170663
0.064868 0.193338 0.371485
0.15939 -0.00840392 0.39409
-0.0231964 0.193338 -0.224908
0.0526457 0.193338 -0.0773757
0.193794 0.179591 -0.213272
0.0963384 0.179591 -0.323343
-0.124231 0.193338 0.111512
-0.171267 -0.0239247 0.366161
-0.13115 0.179591 0.0325805
0.103941 0.179591 -0.355927
-0.112001 0.179591 -0.325945
0.164423 -0.162518 -0.400341
-0.206213 0.186972 0.188561
-0.0977395 0.193338 -0.0900967
-0.0834594 0.193338 0.288211
0.00141088 0.184343 -0.412427
-0.142653 0.193338 0.182808
0.0938899 0.179591 0.0870034
0.120583 0.193338 -0.0334509
0.184847 0.179591 -0.214209
0.0801437 0.193338 0.0484737
0.00514864 0.193338 -0.262648
-0.00822657 0.193338 -0.401346
-0.206213 0.186562 0.190715
-0.172136 -0.185184 -0.39526
0.0517225 0.179591 -0.129252
0.0959808 0.193338 0.0348347
0.173286 -0.00636424 -0.384641
-0.00416996 0.179591 0.29679
-0.163415 0.0582427 -0.35598
-0.162702 0.193338 0.148529
0.0769908 0.179591 -0.114466
-0.151523 0.193338 -0.0267833
0.182685 0.193338 -0.394954
-0.190687 0.179591 0.187036
0.121663 0.185859 -0.412427
0.155006 -0.140505 0.382054
0.065176 0.179591 -0.334682
-0.0826156 0.179591 0.226433
-0.0339918 0.179591 0.0511776
-0.0914505 0.193338 0.324238
-0.206213 0.183459 0.247119
0.156714 -0.0405773 -0.391521
-0.189922 0.193338 0.154328
-0.197594 0.193338 0.153048
0.138658 0.193338 0.319583
0.152735 0.131796 -0.382747
0.10676 0.193338 0.225031
0.0521787 0.193338 -0.203556
0.0379984 0.179591 -0.405638
-0.148602 0.0835351 0.359628
-0.189165 0.179591 0.142675
-0.0749281 0.193338 0.356826
-0.0180682 0.193338 0.139919
0.0404336 0.182165 -0.412427
0.168941 0.179591 -0.172002
-0.174954 0.193338 -0.0673922
0.0169561 0.179591 0.0562286
-0.175997 0.110481 -0.38067
-0.0479731 0.179591 0.209306
-0.00672048 0.179591 0.264049
-0.16438 -0.0242602 -0.387783
0.149256 -0.023759 -0.370081
-0.177067 0.179591 -0.193703
0.0947972 0.179591 0.352055
-0.164463 0.0624177 0.388362
-0.125527 0.193338 0.10145
0.0245933 0.193338 0.222275
0.163959 0.0928442 -0.360917
0.155704 0.179591 0.0868827
-0.0720071 0.193338 0.329247
-0.114203 0.193338 0.11946
-0.130038 0.193338 0.327211
-0.153575 0.193338 -0.388881
0.161663 0.193338 -0.0154601
0.0650676 0.193338 -0.13981
-0.174884 0.154904 0.369858
0.107352 0.179591 0.186286
-0.162697 0.193338 -0.331526
-0.115473 0.179591 0.0882236
-0.11401 0.193338 -0.354572
-0.159541 -0.083079 0.379376
-0.146146 0.193338 -0.31984
-0.155141 0.193338 0.216765
0.159427 0.11804 -0.352479
-0.134378 0.193338 -0.0749716
-0.197957 0.193338 0.0926162
0.167652 -0.173347 -0.381143
-0.183438 0.193338 -0.373922
0.0889402 0.179591 0.0722737
-0.119668 0.193338 -0.298598
-0.108334 0.179591 -0.0417224
-0.157085 0.179591 -0.279642
-0.172833 0.168676 0.360403
-0.154848 0.193338 -0.279684
-0.199546 0.179591 -0.273594
0.0798844 0.193338 -0.409404
-0.0997339 0.193338 0.130656
-0.141776 0.193338 0.286677
0.0410653 0.193338 0.0755186
-0.0715556 0.193338 -0.197291
-0.095161 0.179591 0.00701279
-0.0848558 0.193338 -0.327498
-0.156095 0.185421 -0.362504
-0.102111 0.179591 0.320128
0.102591 0.193338 -0.190233
0.106675 0.193338 0.343934
-0.156169 0.193338 0.170624
-0.164467 0.179591 0.129481
0.0916168 0.179591 0.12741
0.141255 0.193338 -0.129506
0.161364 0.15375 -0.354159
0.186965 0.193338 -0.0572399
-0.144804 0.179591 -0.0517836
-0.180359 0.00868706 0.381196
0.0847477 0.193338 0.123096
0.145515 0.179591 -0.33662
-0.19049 0.179591 -0.378603
0.171215 -0.0230942 -0.377793
-0.0922817 0.193338 -0.0385489
-0.164785 -0.0203096 -0.388631
0.0354749 0.193338 0.0438478
-0.168645 0.193338 0.208733
-0.0422354 0.193338 0.333134
0.150337 0.179591 0.087111
0.149016 0.0267828 -0.38069
-0.0630685 0.193338 0.346895
0.15408 -0.149414 0.387327
0.144949 0.102248 -0.37645
0.0366718 0.193338 -0.0681735
-0.0202675 0.179591 0.0595555
-0.1771 0.193338 -0.349839
-0.0475574 0.179591 0.341338
0.0850452 0.193338 -0.211912
-0.155773 0.193338 -0.250463
-0.195346 0.193338 0.034721
0.164109 -0.157937 0.379628
0.165283 0.179591 -0.369028
0.183075 0.193338 -0.360311
0.142743 0.102553 -0.372641
0.147563 -0.0229069 -0.374654
0.0707072 0.179591 -0.330294
-0.167708 0.193338 0.267078
0.164529 0.179591 0.379048
-0.123122 0.179591 -0.301066
0.156233 -0.0766271 -0.389348
-0.17218 -0.060353 0.398049
-0.126076 0.193338 0.231685
-0.0920055 0.193338 0.333219
-0.107933 0.193338 -0.314521
-0.183703 -0.0344199 -0.390344
0.0839844 0.193338 0.261025
-0.137284 0.179591 0.315227
0.0013721 0.193338 -0.177288
-0.175441 0.193338 -0.400046
-0.146475 0.165487 0.349064
-0.130397 0.179591 0.217329
0.182326 0.193338 -0.289711
-0.0525494 0.193338 0.20953
0.0984913 0.193338 -0.234736
0.15204 0.180119 -0.412427
-0.159719 0.0789396 -0.383001
-0.0796429 0.179591 -0.203816
-0.126937 0.193338 0.144728
-0.135012 0.179591 0.254564
-0.174353 0.179591 -0.213718
-0.0871551 0.179591 -0.152381
0.105398 0.193338 -0.285052
-0.170296 0.179591 -0.0652783
0.091809 0.193338 0.19708
-0.0856464 0.193338 0.228705
0.194284 0.193338 0.342137
-0.0972827 0.193338 -0.0225325
-0.0320472 0.179591 0.162755
0.128145 0.193338 -0.37852
0.168354 0.193338 0.187991
0.167122 0.193338 0.0989949
0.125632 0.193338 0.205529
0.117752 0.193338 -0.239409
0.0390261 0.193338 0.271882
-0.0985985 0.179591 -0.15572
0.101674 0.179591 0.282168
-0.10698 0.179591 0.290063
0.105329 0.193338 -0.370076
-0.17929 0.179591 0.349414
0.0916872 0.179591 0.222576
0.166603 -0.00333571 0.391424
-0.0620118 0.193338 -0.400566
0.0647585 0.179591 0.212242
-0.0879886 0.179591 0.0559056
0.101376 0.193338 -0.072416
-0.131411 0.193338 0.103249
-0.16523 0.0242989 0.390823
0.0745194 0.193338 0.369057
-0.20485 0.193338 0.0744868
-0.0726945 0.193338 -0.0327581
-0.149805 0.193338 0.126735
-0.148495 0.179591 -0.0447703
-0.181713 -0.0280779 0.384655
-9.06885e-05 0.179591 -0.0589519
-0.191207 0.193338 -0.262056
0.195915 0.193338 0.383308
-0.170287 -0.0768744 -0.395784
-0.00125383 0.179591 0.101854
0.129294 0.179591 0.144066
0.00615394 0.179591 -0.147759
0.162281 0.106589 -0.357501
-0.167968 0.193338 -0.334446
0.130255 0.193338 0.308551
0.134167 0.179591 -0.12658
0.151964 0.179591 -0.0266384
0.0877186 0.179591 -0.407993
0.160533 0.179591 0.108702
-0.206213 0.183393 0.0914966
0.168612 -0.18453 0.4059
0.160297 0.193338 -0.12176
-0.0259541 0.179591 0.271074
-0.0457681 0.179591 0.239275
0.108133 0.193338 0.113511
0.177448 -0.174974 -0.394232
-0.101637 0.193338 0.0696241
0.029756 0.193338 0.156015
0.0327485 0.179591 -0.302505
0.155267 0.0248453 0.358894
-0.0061179 0.179591 -0.370168
0.16186 0.193338 0.235144
0.0636232 0.179591 -0.256742
0.165025 -0.0736043 0.37419
0.0841569 0.179591 -0.28801
-0.168173 0.023136 -0.390887
-0.075313 0.179591 -0.0791527
0.0922103 0.179591 0.0935924
-0.122495 0.193338 -0.280543
-0.165478 0.179591 0.153139
-0.10433 0.179591 -0.357431
0.0469247 0.186464 0.412427
0.00474536 0.179591 0.385144
0.190497 0.193338 0.398158
0.206213 0.181161 0.0790134
-0.0324629 0.193338 -0.0968446
-0.0715279 0.193338 0.0647546
-0.0611983 0.179591 0.0973598
-0.103578 0.193338 -0.0570351
0.109073 0.179591 -0.316357
-0.158784 0.00961043 0.383865
-0.183865 -0.082952 -0.384307
0.167064 0.179591 0.135856
-0.0953423 0.193338 -0.286185
0.0226089 0.193338 0.328148
-0.173926 0.193338 -0.0905765
-0.145146 0.179591 0.183552
0.160314 -0.189794 0.397648
0.0812758 0.179591 -0.273125
0.155416 0.148148 0.349611
0.0196737 0.193338 0.148902
0.0518313 0.179591 0.299036
-0.135784 0.193338 -0.323489
-0.140746 0.193338 0.362348
0.00830937 0.179591 -0.251634
0.0884618 0.179591 -0.0225424
-0.126503 0.179591 -0.243663
0.161048 0.177113 0.357986
-0.177458 0.0856839 0.373459
-0.180129 0.179591 -0.13468
0.0957802 0.179591 -0.18384
0.00539447 0.193338 -0.26943
-0.025596 0.179591 0.12686
0.103191 0.193338 -0.150809
0.167362 0.193338 -0.0670829
-0.168175 0.0244492 -0.390818
0.0581139 0.193338 0.204146
-0.206213 0.184628 0.115671
0.184986 0.193338 -0.106247
0.169543 -0.0274188 -0.375058
0.149604 -0.0599641 0.383728
-0.000143521 0.179591 -0.29583
0.0883428 0.193338 -0.021041
0.148594 -0.0350125 -0.376818
0.149865 0.179591 0.270731
-0.0702409 0.179591 -0.0710389
0.0375729 0.193338 0.385812
0.157511 -0.190665 0.392794
0.0939577 0.179591 -0.234841
-0.0404279 0.179591 0.253704
-0.14598 0.193338 -0.0973431
0.206213 0.192771 -0.23962
-0.14846 0.193338 -0.282079
-0.122191 0.179591 -0.31828
-0.0662711 0.179591 -0.0812505
-0.0408419 0.179591 0.252328
-0.0951883 0.193338 0.405134
-0.191587 0.179591 -0.285843
0.0825958 0.179591 0.169
-0.0434842 0.193338 0.36771
-0.11434 0.193338 0.115473
0.124289 0.193338 0.0930105
-0.10147 0.193338 0.0799749
-0.0559544 0.193338 0.282385
0.0363954 0.193338 -0.345639
-0.145552 0.193338 -0.109504
0.0882393 0.179591 -0.364804
0.117797 0.192192 0.412427
0.0388972 0.179591 -0.0148563
-0.139478 0.179591 -0.36559
0.151839 0.193338 -0.232433
0.0373367 0.179591 0.291451
0.176239 -0.187578 -0.392494
0.204759 0.179591 -0.100638
0.138699 0.193338 0.407803
-0.1851 -0.14781 0.401609
0.203399 0.193338 -0.0421471
0.154796 0.179591 0.352675
-0.0699715 0.179591 0.00343069
0.041727 0.179591 0.260583
-0.0172985 0.179591 -0.379224
-0.0630307 0.179591 -0.0403951
-0.190217 0.192302 0.412427
0.012207 0.193338 -0.312731
-0.0898861 0.193338 -0.363202
0.0634816 0.193338 0.357407
0.00434563 0.193338 -0.386457
-0.0417526 0.193338 -0.110613
-0.0879062 0.193338 -0.0175464
0.104389 0.179591 0.407044
0.0840863 0.179591 -0.0738785
-0.0587486 0.187477 0.412427
-0.0193138 0.179591 0.13098
-0.140486 0.179591 0.0840426
-0.17384 0.179591 0.0396953
0.206213 0.190741 -0.260084
0.19081 0.193338 -0.334932
0.0187487 0.179591 0.293331
-0.109352 0.192768 0.412427
-0.180824 0.179591 0.376104
-0.0566737 0.179591 0.182331
0.130174 0.181407 0.358396
-0.162948 0.179591 0.171235
-0.0223097 0.193338 0.36264
-0.0202354 0.179591 -0.135405
0.0608618 0.179591 -0.0846839
0.113387 0.179591 0.145218
-0.01823 0.179591 -0.0538483
0.0837348 0.193338 0.372391
0.150192 0.193338 -0.131094
-0.100832 0.179591 -0.404137
-0.203566 0.193338 0.222916
0.1553 0.179591 0.292689
0.142396 0.136081 0.378036
0.137149 0.132054 -0.363747
0.107836 0.179591 -0.00672599
-0.1208 0.193338 0.187464
-0.0514439 0.179591 -0.0692964
0.16958 0.179591 0.341557
0.0364804 0.193338 -0.346546
0.0783043 0.179591 0.15387
-0.0820806 0.179591 -0.174577
0.0622088 0.179591 -0.281139
0.00276528 0.193338 0.022368
-0.0195651 0.179591 0.10634
0.133681 0.179591 0.221876
-0.0903464 0.179591 0.327729
-0.197488 0.193338 -0.305275
0.146072 0.126053 -0.350361
0.147881 0.0363762 -0.362221
0.105648 0.179591 0.309083
0.00229638 0.193338 -0.056364
0.0369523 0.179591 0.358101
0.0960243 0.179591 -0.00905935
-0.190654 0.191354 0.412427
-0.190698 0.193338 -0.0647985
0.127121 0.193338 0.196346
0.134844 0.179591 -0.189785
0.105115 0.179591 0.236666
0.050255 0.193338 -0.230995
-0.165902 -0.159591 0.384625
0.0360602 0.179591 0.33236
0.183382 0.179591 0.353732
0.145618 0.193338 0.175455
0.160129 0.179591 0.186512
0.177198 0.179591 -0.379813
0.039652 0.179591 -0.217832
0.155419 0.172636 0.348403
0.148086 0.193338 0.219728
-0.148448 0.193338 0.239385
0.154143 -0.101333 -0.378421
0.168554 -0.00727137 -0.372597
-0.0815391 0.179591 -0.368942
0.123915 0.193338 -0.0221969
0.101977 0.179591 -0.0197313
-0.169104 -0.161775 0.39537
0.154791 0.185421 0.370066
0.0428839 0.179591 -0.379483
-0.107028 0.179591 -0.223279
0.169384 0.0937704 -0.376348
0.0413608 0.179591 0.126831
0.189789 0.193338 -0.321913
-0.0217354 0.193338 0.298288
-0.109677 0.193338 0.077205
-0.191363 0.179591 -0.221145
-0.167138 -0.133043 0.380092
-0.143338 0.193338 0.287603
0.060122 0.193338 0.343273
0.0738571 0.193338 -0.261749
0.143769 0.13965 -0.375796
-0.182462 0.179591 0.09099
0.161003 0.193338 -0.271882
0.00291375 0.179591 0.176264
0.0611668 0.188982 0.412427
0.161062 0.155085 0.377049
-0.164412 0.193338 0.282876
-0.0914943 0.193338 -0.180299
-0.162079 0.193338 -0.0397891
-0.114903 0.193338 -0.24863
-0.155117 0.0126561 -0.3714
-0.170669 0.0163587 -0.391922
0.161376 0.108264 0.382478
-0.188595 0.193338 -0.32704
-0.0514183 0.179591 0.102981
0.00820482 0.193338 0.285956
0.0102966 0.193338 -0.34557
-0.146843 0.193338 0.0730614
-0.18615 0.179591 -0.360924
0.147883 0.179591 0.398839
0.118249 0.193338 0.289591
-0.00866967 0.193338 -0.378597
-0.0960636 0.179591 0.1956
0.0855374 0.193338 0.309134
0.122492 0.193338 0.127956
0.167873 0.0159533 -0.390272
0.116039 0.179591 0.0792896
0.191608 0.179591 -0.363135
0.165912 -0.0325631 -0.369088
-0.158667 0.00574165 0.383518
-0.12129 0.179591 0.151902
0.197797 0.193338 0.13798
-0.0810721 0.193338 0.353935
-0.0218494 0.179591 0.228658
0.173389 0.179591 -0.0283516
0.0348335 0.179591 0.102557
0.065131 0.179591 0.289611
0.0678956 0.193338 0.326956
0.138104 0.179591 -0.0476905
-0.0626503 0.193338 -0.190894
0.176025 0.179591 0.153459
-0.091093 0.179591 -0.0588346
0.0968883 0.179591 0.356923
-0.188891 0.179591 0.258676
0.0610226 0.193338 -0.190388
0.0340225 0.193338 0.0636583
-0.107488 0.193338 0.22761
0.14652 -0.0061564 0.367621
-0.1836 0.179591 -0.244038
0.15871 0.193338 -0.320654
-0.114314 0.179591 0.00686043
0.16114 0.179591 -0.29131
0.104389 0.193338 0.376455
-0.15583 0.193338 -0.0767686
0.0781371 0.193338 -0.0311879
-0.177793 0.193338 0.385179
-0.139793 0.179591 -0.282272
0.0999595 0.179591 0.073068
-0.100089 0.193338 0.18304
0.100008 0.193338 0.37254
0.0380146 0.193338 0.306241
-0.196158 0.179591 -0.192266
0.184085 0.179591 0.0358018
-0.180336 -0.164161 0.385728
-0.0132331 0.193338 -0.286582
-0.025658 0.179591 0.167559
0.125134 0.179591 0.313176
-0.16311 0.179591 0.0246662
-0.161377 0.193338 -0.125881
0.0784623 0.193338 0.355477
-0.191456 0.179591 -0.21641
0.146167 0.193338 -0.157491
0.206213 0.186722 0.271071
0.14586 0.179591 0.0490547
0.0844181 0.193338 0.158071
-0.185529 -0.19108 -0.40737
0.125348 0.179591 0.157794
0.151483 0.193338 -0.296
0.0877764 0.179591 0.1973
0.0732999 0.179591 0.233511
-0.197836 0.193338 0.33908
-0.16228 0.193338 -0.248744
0.0619171 0.179591 0.00422078
0.16178 0.185421 -0.364515
0.0271225 0.193338 -0.14025
-0.113776 0.179591 -0.0500459
-0.123962 0.179591 0.24671
-0.0307578 0.179591 0.321332
-0.102442 0.179591 -0.0210385
-0.0390745 0.179591 -0.368044
0.00662099 0.193338 0.0266589
-0.171218 0.179591 0.219912
0.200217 0.179591 -0.13975
0.00687158 0.182519 0.412427
-0.0162124 0.179591 -0.115296
0.122613 0.179591 0.156784
-0.194208 0.179591 -0.0528776
0.137861 0.193338 0.052849
-0.190223 0.179591 0.223208
0.126789 0.193338 0.319013
-0.0843596 0.193338 -0.291256
-0.169271 0.193338 0.110918
-0.00335164 0.193338 0.113509
0.0986227 0.193338 0.401009
0.00370029 0.179591 -0.0611676
0.184196 0.179591 0.300616
-0.111758 0.179591 -0.194828
-0.0196595 0.179591 0.324702
-0.122598 0.193338 -0.396358
0.0900931 0.193338 -0.311327
-0.177786 0.179591 0.212156
0.0638286 0.193338 -0.151681
0.136033 0.193338 -0.157628
-0.00644214 0.193338 -0.278395
-0.206213 0.191626 0.386873
0.0893209 0.193338 0.0707924
0.0875105 0.193338 0.292681
-0.00525787 0.193338 0.049359
0.0248268 0.179591 -0.329888
0.0348899 0.179591 0.223801
0.149832 0.179591 0.250023
0.0372723 0.179591 0.180893
0.0563765 0.179591 -0.197494
-0.0347404 0.193338 -0.366066
0.111371 0.179591 0.313635
0.160185 -0.0211162 -0.363833
0.0989217 0.193338 0.295873
0.0910321 0.179591 0.203534
-0.0222793 0.193338 0.016913
0.120458 0.179591 -0.225904
0.144847 0.193338 -0.0939957
0.00465901 0.179591 -0.172277
-0.173752 0.193338 0.139009
-0.20472 0.179591 -0.209163
0.145697 0.179591 -0.130485
-0.0146034 0.179591 -0.238449
0.161344 -0.0985138 -0.39725
-0.00335343 0.179591 0.150415
0.0962832 0.193338 0.0501732
-0.0902797 0.193338 0.244019
0.0249063 0.179591 -0.199266
-0.169693 -0.176623 -0.386153
-0.127791 0.179591 -0.347768
0.158324 0.179591 0.299883
-0.101775 0.179591 0.0875104
0.173632 -0.155793 0.392152
-0.0301191 0.179591 -0.393765
-0.0401875 0.193338 0.375891
-0.182961 -0.0519637 -0.381589
-0.0229373 0.193338 0.0817609
-0.18081 0.193338 0.0793387
0.17005 0.179591 -0.207605
0.170271 0.179591 0.193057
-0.132 0.179591 0.0806074
0.206213 0.182756 0.185511
-0.170087 0.0809267 -0.355123
0.152026 0.179591 -0.385768
-0.0424149 0.193338 0.222816
-0.0192764 0.193338 0.10615
-0.0138501 0.179591 -0.234188
0.126501 0.193338 -0.0710123
-0.0712735 0.193338 0.400178
0.0651744 0.179591 -0.233765
-0.109156 0.179591 0.297971
-0.0472911 0.193338 -0.263339
-0.189749 0.193338 0.126922
-0.16205 0.193338 -0.316741
0.0820707 0.193338 0.0802253
0.153711 -0.103549 0.389221
0.110934 0.179591 0.393067
0.111894 0.193338 0.0813559
0.162679 0.179591 -0.277637
-0.179856 0.193338 -0.24283
-0.0765089 0.179591 0.353441
-0.199542 0.193338 0.304617
-0.0126191 0.179591 0.308703
0.0456693 0.179591 0.254398
-0.150151 0.0514807 0.369857
-0.0613924 0.193338 0.132526
-0.170824 0.160623 0.357184
0.163417 0.107643 -0.383046
0.0751337 0.193338 0.378303
0.104129 0.179591 -0.392117
-0.141301 0.179591 -0.0809683
-0.127628 0.193338 -0.31093
0.000864267 0.193338 -0.335468
0.148008 0.179591 -0.20103
-0.0501535 0.193338 0.24259
0.130589 0.179591 -0.0243257
-0.0908994 0.179591 0.158408
0.153645 0.14915 0.381677
-0.182794 -0.0738377 0.39389
0.021154 0.179591 0.17679
0.0144902 0.193338 -0.130556
0.0309822 0.179591 -0.0783224
-0.156317 0.193338 0.121581
-0.161785 -0.041477 0.387165
0.0954831 0.193338 -0.207238
0.161773 -0.0761195 -0.397445
0.130191 0.193338 0.127765
0.00338436 0.179591 -0.0341058
-0.0266751 0.179591 0.284459
0.138744 0.193338 -0.0471058
-0.0813992 0.193338 -0.11715
-0.10495 0.179591 -0.396485
-0.137009 0.193338 -0.361101
0.116064 0.193338 0.39316
-0.163646 0.0388625 0.357372
-0.16643 -0.0934271 0.393279
-0.0459713 0.179591 0.0448099
0.1585 0.117776 0.355777
0.165771 -0.18453 -0.38514
-0.165002 0.179591 0.224295
-0.149142 0.111197 -0.366342
-0.0189288 0.193338 0.0842921
-0.201564 0.193338 -0.0785751
0.178751 0.193338 -0.282334
0.11565 0.179591 0.177891
-0.0878754 0.193338 -0.391368
0.177198 -0.190304 -0.406392
0.0511096 0.193338 0.0855472
0.142803 0.179591 0.0377762
0.162879 0.193338 0.360036
0.200455 0.179591 0.252368
-0.0454703 0.179591 -0.206137
0.206213 0.184823 -0.0494548
0.014667 0.179591 -0.256103
-0.131078 0.179591 -0.279616
0.126484 0.179591 0.338656
0.0172892 0.193338 -0.0537359
0.144737 0.179591 -0.233544
0.114877 0.193338 0.334502
-0.0904853 0.179591 -0.285656
-0.0938232 0.179591 0.351343
0.191359 0.179591 -0.231643
0.138719 0.193338 -0.050275
-0.176193 -0.166949 0.381087
-0.0103828 0.179591 0.407254
0.161142 0.179591 0.068536
0.150927 0.193338 0.130257
0.156718 0.143829 -0.381931
-0.0603258 0.193338 -0.109516
-0.152482 0.179591 -0.264886
-0.0413302 0.179591 0.200038
-0.153351 0.18137 -0.412427
0.00166443 0.179591 -0.313828
-0.190231 0.179591 0.147839
0.104681 0.179591 0.340711
-0.119301 0.179591 0.0896377
0.151522 0.136021 -0.34578
-0.188462 0.193338 0.129728
0.168149 0.179591 0.286762
0.093217 0.193338 0.24457
-0.170845 0.063194 0.36084
-0.135234 0.179591 0.182491
0.205184 0.179591 0.300639
-0.00884836 0.193338 0.381859
0.206213 0.191743 0.180491
0.118062 0.193338 0.0661523
-0.115255 0.179591 0.0186521
0.156467 0.179591 -0.0107917
-0.14744 0.179591 -0.140465
-0.0592207 0.193338 0.382919
-0.104172 0.179591 0.190383
-0.180823 -0.184229 0.387318
0.0984216 0.193338 0.149509
0.139918 0.193338 -0.121905
-0.18456 -0.0358204 -0.38564
0.0565498 0.179591 0.352226
0.169984 -0.172365 -0.406314
0.194829 0.193338 -0.119989
0.172939 0.188531 0.412427
0.0949242 0.179591 0.359227
-0.0604305 0.179591 -0.0537975
0.152059 0.169297 -0.342683
0.0893385 0.193338 -0.362613
0.028966 0.193338 0.0316774
-0.183271 -0.0410541 -0.381722
0.0120752 0.193338 -0.3575
0.0504729 0.193338 -0.113143
0.142215 0.179591 0.175842
0.126131 0.179591 -0.0924069
0.139286 0.0900683 -0.364647
-0.043805 0.179591 -0.033882
0.0187159 0.193338 -0.0644537
-0.126663 0.179591 0.103026
0.186468 0.179591 0.342394
0.13643 0.193338 0.325139
-0.088948 0.193338 0.381051
-0.181771 -0.105959 0.386052
-0.201056 0.179591 -0.112007
0.063187 0.179591 0.379467
-0.126791 0.193338 -0.400833
-0.0589917 0.179591 -0.00425023
-0.166364 0.179591 0.28625
-0.187524 0.179591 -0.129552
0.155325 0.185421 -0.343755
0.15503 0.127772 0.350211
-0.172893 0.179591 -0.0102317
0.136835 0.193338 0.124741
0.115159 0.193338 -0.288195
-0.0718551 0.193338 0.119179
-0.121988 0.179591 -0.219615
0.0687909 0.179591 -0.024684
0.0180075 0.179591 -0.124366
-0.16709 0.0923271 -0.351904
0.150929 0.174942 -0.379462
-0.14104 0.193338 -0.179122
-0.204092 0.193338 -0.234234
0.076652 0.193338 0.226675
0.0758642 0.179591 -0.309969
0.138305 0.193338 -0.182803
0.0888971 0.193338 0.209995
-0.127761 0.193338 -0.200442
-0.126256 0.179591 -0.149012
0.0930172 0.193338 0.0120291
0.11315 0.193338 0.0846073
0.163919 0.179591 -0.0273643
-0.0958989 0.179591 -0.0222797
-0.0936898 0.179591 0.407071
-0.206213 0.189234 -0.365686
-0.205673 0.193338 0.0834357
-0.0780075 0.179591 -0.374319
0.143852 0.193338 -0.194483
0.200931 0.179591 -0.268744
0.0744009 0.193338 -0.285887
0.10257 0.179591 -0.0580379
-0.161616 0.193338 0.264582
0.130814 0.193338 0.3943
-0.0332354 0.179591 -0.0304235
-0.0532249 0.193338 0.0214636
-0.119873 0.193338 -0.266141
-0.0670876 0.193338 -0.394702
-0.177619 0.125298 -0.366172
-0.112371 0.193338 -0.241273
-0.1182 0.193338 -0.370145
0.150681 0.0613645 -0.38437
0.0469143 0.193338 0.102971
0.104479 0.179591 -0.262786
0.110614 0.193338 0.116121
0.067699 0.193338 0.192267
0.0300896 0.179591 0.0123427
-0.140407 0.176232 0.355407
0.160518 0.193338 0.0913487
-0.199881 0.179591 -0.0205437
0.0615394 0.193338 -0.111734
-0.0969725 0.193338 0.0113977
-0.145834 0.179591 -0.249017
-0.0611853 0.193338 0.396525
-0.133285 0.179591 -0.152214
-0.131329 0.193338 -0.347007
-0.0368396 0.179591 -0.06028
-0.0249486 0.179591 0.352444
0.0442518 0.179591 0.0894315
-0.140237 0.179591 -0.0672433
-0.112543 0.179591 0.338808
-0.201799 0.179591 0.266506
0.196317 0.193338 -0.238423
-0.0391811 0.179591 -0.168514
-0.0242273 0.179591 -0.0626009
0.156272 -0.0496256 0.368246
-0.167361 0.193338 0.268147
-0.133825 0.193338 -0.111772
-0.100081 0.193338 0.137659
-0.193942 0.179591 0.199409
-0.146516 0.193338 -0.0958323
0.0299562 0.193338 0.173834
0.103689 0.193338 0.245918
-0.0625069 0.193338 0.296125
-0.0266698 0.193338 -0.318414
-0.202654 0.179591 -0.0360467
0.0707519 0.193338 -0.137386
0.16129 -0.0330778 -0.365407
0.0847029 0.193338 -0.387931
-0.206213 0.185566 0.11209
0.121737 0.179591 -0.11804
-0.11878 0.179591 -0.206967
-0.0767958 0.18539 -0.412427
-0.162032 -0.0316097 0.368444
0.0541488 0.179591 -0.0873246
0.0977897 0.179591 0.0852302
0.155256 0.179591 0.0156057
0.134622 0.179591 0.0486443
-0.130667 0.193338 -0.0521583
0.186793 0.179591 0.393054
0.0298272 0.179591 -0.230939
-0.0132512 0.179591 0.232656
0.0554672 0.179591 0.0368296
0.126137 0.193338 0.000998259
0.200078 0.193338 -0.179519
-0.167495 -0.138203 -0.388943
0.0454286 0.193338 -0.1747
0.0740833 0.193338 0.411954
0.162106 0.179591 0.362249
-0.150858 0.0739792 -0.360965
-0.153136 0.110047 -0.373298
-0.146853 0.179591 -0.376445
-0.0939604 0.193338 0.110741
0.168213 -0.0204063 -0.393965
-0.0930757 0.193338 0.38513
-0.121099 0.193338 0.293778
-0.073426 0.179591 0.0461477
0.119607 0.179591 -0.174654
-0.0331624 0.179591 0.264137
0.0519991 0.179591 -0.326176
-0.109592 0.179591 -0.393659
-0.0626627 0.193338 0.398132
-0.00336335 0.193338 -0.0703567
-0.168652 -0.051023 0.396251
-0.122337 0.181922 0.412427
-0.0638666 0.193338 0.336038
0.179089 0.193338 -0.0103135
0.119784 0.179591 0.322919
-0.19061 0.193338 0.266522
0.108346 0.179591 -0.0625639
-0.0543192 0.193338 -0.0515721
-0.153316 0.18327 -0.343819
-0.182269 -0.128433 -0.383232
0.156882 0.179591 -0.012737
0.17125 0.179591 -0.339763
-0.132366 0.193338 -0.135392
0.149598 0.0594993 -0.382914
-0.145444 0.193338 -0.0215829
0.152052 0.185421 -0.344035
0.06263 0.193338 -0.202555
-0.142751 0.179591 -0.0246378
0.154396 -0.0490504 0.369246
0.013176 0.193338 -0.137065
0.17005 0.179591 0.205032
0.167874 0.0332173 -0.388267
0.137102 0.173649 0.347185
-0.00230174 0.193338 0.391608
0.0885166 0.193338 0.00303242
-0.124588 0.179591 0.0954462
-0.0579054 0.179591 -0.0341257
-0.099373 0.179591 -0.0488833
-0.168489 -0.0999189 -0.392087
-0.120481 0.179591 -0.260197
-0.166742 0.193338 0.337018
-0.138311 0.179591 0.306481
-0.159056 0.193338 0.168601
0.167003 0.193338 -0.25575
0.0467817 0.193338 -0.181914
0.00318862 0.179591 0.404928
-0.14535 0.193338 -0.131151
-0.185397 -0.10616 -0.398517
0.143353 0.193338 -0.31543
0.165864 -0.0962163 -0.400533
-0.160857 0.0825069 -0.353965
-0.164998 0.179591 -0.034716
0.192393 0.193338 -0.201203
0.0880526 0.179591 -0.345983
-0.164764 -0.118016 -0.381633
-0.116765 0.179591 -0.384537
0.0117694 0.193338 -0.349995
-0.184101 0.179591 -0.371877
-0.142327 0.193338 -0.330539
-0.183729 0.193338 0.32969
0.188409 0.193338 -0.250935
0.203947 0.179591 -0.00651085
0.16554 -0.149231 -0.378734
-0.188409 0.193338 -0.0914463
0.101567 0.193338 0.0775897
-0.0398824 0.193338 -0.26153
-0.157294 0.0233134 0.363276
-0.0570689 0.179591 -0.126556
-0.109716 0.179591 -0.289221
-0.123585 0.179591 -0.299645
-0.0125859 0.179591 -0.0803773
-0.179013 -0.0729537 0.380047
-0.177075 0.0936184 0.372024
0.169443 -0.0369381 -0.375238
0.159307 -0.0363044 0.396001
-0.206213 0.185945 -0.219194
0.171624 0.00323483 -0.38801
-0.182676 0.179591 -0.245116
-0.158904 0.193338 -0.000998646
-0.0516169 0.193338 -0.0823006
-0.144242 0.141128 0.353858
-0.159585 0.0109259 -0.380785
0.159034 0.179591 -0.373573
-0.0514682 0.193338 0.101695
0.101857 0.179591 0.0846749
0.16392 0.13516 -0.359278
0.143565 0.193338 0.344466
-0.0791892 0.182862 0.412427
0.181434 0.179591 -0.193542
0.139402 0.179591 0.183576
0.106817 0.193338 0.323431
0.0482517 0.193338 0.0228788
0.0527317 0.179591 0.327767
0.0254028 0.179591 -0.1257
0.0494907 0.179591 0.0579882
-0.174418 0.193338 0.315065
0.056768 0.179591 0.289955
0.115165 0.179591 0.0575327
-0.067178 0.193338 -0.270479
0.0729925 0.193338 0.394453
-0.172885 0.134728 0.361716
0.0381342 0.179591 0.37563
0.166211 0.193338 0.229065
-0.141623 0.193338 -0.286761
-0.0149155 0.179591 0.161397
-0.0433922 0.193338 -0.186028
-0.17036 0.179591 -0.362496
0.0798082 0.179591 -0.343916
0.168146 -0.147317 0.405055
0.158784 0.193338 0.244241
0.0684184 0.179591 -0.277008
-0.165869 -0.0847989 0.392629
-0.181503 -0.00649721 -0.389746
0.166002 0.0965401 0.377681
0.134831 0.179591 -0.35226
-0.18228 0.193338 -0.273027
0.110213 0.179591 -0.102315
0.11887 0.179591 -0.377102
0.112284 0.179591 0.195106
-0.0242676 0.179591 0.172253
-0.129792 0.179591 -0.331115
0.115402 0.193338 -0.28173
-0.200097 0.193338 -0.313591
0.174117 0.179591 -0.330894
-0.0913322 0.179591 0.192252
0.116387 0.179591 -0.0450793
-0.129674 0.179591 -0.302985
-0.203345 0.193338 0.161119
0.175376 0.193338 0.250859
-0.133951 0.179591 0.297332
-0.0104132 0.193338 -0.113838
-0.00617137 0.193338 -0.349331
0.153809 0.00811315 -0.388108
0.0856562 0.193338 -0.279424
0.0927129 0.179591 0.179961
0.0416028 0.179591 0.179535
-0.17509 0.193338 -0.319636
0.133037 0.193338 -0.407096
-0.120024 0.193338 -0.0863724
0.114829 0.193338 -0.146196
0.0724135 0.179591 0.251394
0.0410631 0.179591 -0.112562
0.105448 0.193338 0.272013
0.0223272 0.193338 0.0983838
-0.0951475 0.193338 -0.23259
0.196268 0.193338 0.116856
-0.153904 0.193338 -0.00619313
0.112135 0.193338 0.266151
0.188348 0.193338 0.266725
-0.0592012 0.179591 -0.0492678
-0.123183 0.179591 -0.188447
0.157354 0.179591 -0.207015
-0.121768 0.193338 0.0524968
-0.113246 0.179591 -0.238453
0.0128283 0.193338 -0.0518164
-0.161554 0.179591 -0.151354
0.0447358 0.179591 0.343465
-0.17537 -0.132201 -0.401786
0.206213 0.180253 -0.333097
0.0226147 0.179591 0.316713
0.0409273 0.193338 -0.250555
-0.129064 0.179591 0.402486
