ply
format ascii 1.0
comment Created by Open3D
element vertex 1620
property double x
property double y
property double z
end_header
0.160349 0.0862809 0.132206
-0.207073 0.0516128 0.0537488
-0.211347 0.0755375 0.0697472
0.214529 -0.112782 0.128945
0.0915753 -0.111996 -0.0151162
-0.239108 0.271367 -0.139781
0.217762 0.0859874 0.0425022
0.08797 -0.112782 0.165582
-0.171975 0.0747889 0.193263
-0.166411 -0.0922195 0.0514478
-0.199947 -0.018834 -0.0403124
-0.122691 0.0540743 0.249636
-0.0206648 0.00468063 -0.0616136
-0.0799812 -0.158585 -0.125694
-0.174556 0.0671393 -0.201784
-0.142545 -0.100035 0.217802
-0.128428 -0.183112 0.154653
-0.192233 -0.199626 0.0481504
0.242855 -0.0803426 -0.180487
-0.0707319 0.00260387 0.105172
0.220308 -0.0228651 0.215172
0.245558 -0.0385485 -0.202124
-0.22569 0.227595 0.085127
0.17274 0.00138346 -0.218064
-0.0901598 -0.163156 -0.094465
-0.200659 -0.102649 -0.138399
0.136131 -0.0347368 0.249136
0.198962 0.0133158 0.00872394
-0.0709285 -0.152969 0.250614
-0.0879787 0.0419843 -0.227648
0.232978 -0.0174906 0.0699965
0.0960844 0.0214782 0.249446
0.24822 -0.0973356 -0.155587
-0.205232 -0.1541 -0.112626
-0.235691 0.264795 0.124489
-0.0366837 0.0228014 0.215693
-0.21139 0.184717 -0.000169631
-0.0704479 -0.0420895 0.217292
-0.203956 0.0242854 -0.0541362
-0.209435 0.183199 0.199423
0.248303 -0.0615094 0.0497003
-0.0303108 -0.0794627 0.216987
0.14682 0.0858455 -0.0349746
0.119497 -0.109151 -0.00390697
-0.167353 -0.0975669 -0.106595
0.0530112 0.0305815 -0.217382
-0.1476 0.0742683 -0.125972
-0.0370496 0.0320661 0.21883
-0.174676 -0.210841 0.226791
-0.194428 0.128534 -0.0644977
-0.189499 -0.207047 -0.0956863
0.219131 0.0315552 0.226266
0.187547 0.0128034 0.112497
-0.103745 -0.155473 0.217501
-0.191017 -0.20264 0.00448835
-0.0920154 0.0763425 0.0797273
0.234918 -0.0278955 0.070503
0.250323 -0.089218 0.176572
-0.263227 0.25632 0.178976
0.0545807 0.00766115 -0.0747304
-0.166548 -0.128963 -0.166179
0.216073 0.00646859 -0.218379
0.190006 0.0375973 -0.218179
0.254043 -0.296053 -0.236608
-0.219912 -0.242077 0.246585
-0.0237214 -0.0168822 -0.216634
0.208357 0.0880838 -0.152586
-0.15513 0.0679205 0.247001
0.0918798 0.0331837 0.218873
-0.142651 0.0135395 0.251189
-0.205718 -0.152154 -0.207465
-0.0457868 -0.144901 -0.174509
0.17957 0.0559918 0.23176
-0.210129 0.1824 0.0652744
-0.0551356 0.0778984 -0.0876438
0.0672037 -0.0231144 -0.250652
-0.139411 0.0573598 -0.20961
-0.0789376 0.0490905 0.214199
-0.0725436 0.0770762 0.139795
0.159953 -0.0926032 0.215593
0.23291 0.0145511 0.187303
0.158596 0.0340615 -0.218124
-0.168699 -0.0823937 -0.208839
-0.215588 0.196672 0.00498044
0.0425527 0.00721768 -0.128295
0.22248 -0.148375 -0.234162
-0.060615 -0.0339459 -0.216369
-0.163004 -0.179514 0.0456528
0.155667 -0.0102652 0.249
-0.075453 0.00252894 -0.083378
-0.0824879 0.00230881 -0.180827
-0.142435 -0.000256784 0.15244
0.0857748 0.0606423 -0.21387
0.217474 0.0141432 -0.153528
0.136967 -0.107562 -0.206042
-0.273389 0.30068 -0.0161607
-0.193556 -0.22383 0.251489
-0.0105589 0.0796303 -0.0385601
-0.0155334 0.00474936 0.16459
-0.25808 0.23494 0.124517
-0.118572 -0.177448 0.100817
-0.207841 0.0431483 -0.218252
-0.204738 0.161545 -0.143387
-0.216073 0.199911 0.0993894
0.0127669 -0.126947 -0.160141
-0.16845 -0.0423617 0.0420493
0.218245 0.0139713 0.18757
-0.205276 -0.153317 -0.130168
-0.182079 0.0914351 -0.00329831
-0.153502 0.0147766 -0.215675
0.0667911 0.082725 -0.104295
-0.179367 0.0352067 0.137423
-0.206151 -0.164442 -0.0433579
-0.260015 0.241386 0.0974026
0.0426192 0.00721235 -0.114864
0.049397 -0.0810185 -0.217187
-0.257764 0.328234 -0.245262
-0.239154 -0.302547 0.227291
0.151247 0.0367611 -0.217896
0.16575 0.00726557 -0.218011
-0.179793 0.088053 0.0787267
0.0672018 0.00814424 -0.0485091
-0.202068 -0.00816825 -0.215196
-0.010119 0.00510924 -0.0817833
0.148293 -0.107266 -0.150523
-0.233583 0.24738 -0.202075
0.106874 -0.0222901 -0.21759
-0.0550131 -0.0632392 -0.216419
-0.198463 0.141451 -0.116709
-0.172775 0.0584567 0.028875
0.0367414 0.0274464 0.218048
-0.163027 -0.171687 0.0849966
0.242977 0.042445 0.183086
-0.275917 0.314045 -0.0982775
-0.163859 0.0677478 0.126824
-0.165302 -0.203077 -0.148611
0.254548 -0.186436 0.214873
-0.230451 -0.295756 0.220467
-0.170981 0.0381494 0.131079
0.0895568 -0.112059 -0.185431
-0.253793 0.327317 0.0778559
-0.209157 0.0580048 -0.107386
-0.00804365 0.0797378 -0.052245
-0.177462 0.0456894 0.147186
-0.173745 0.0584764 -0.137577
0.142985 -0.107442 -0.104004
-0.205822 0.0395242 -0.0116233
0.155083 0.0860449 0.179531
0.0721338 0.00826368 0.0784365
0.252061 -0.266283 -0.252077
0.220785 -0.123823 -0.232331
0.193557 0.0132307 -0.20813
-0.26282 0.247712 -0.0584687
-0.0804757 -0.0394277 -0.216226
-0.148948 0.0419588 0.251243
0.111622 -0.109743 -0.112956
-0.27576 0.307101 -0.205746
0.244345 -0.0886142 -0.187188
0.249982 -0.100994 0.0660897
-0.139159 -0.181695 -0.249191
-0.195091 0.0368267 0.251579
-0.166975 -0.0978624 -0.0564067
-0.0420109 -0.143806 -0.109603
-0.254158 0.224086 0.228236
0.227734 0.000552546 -0.190122
0.090396 -0.112318 0.0905035
-0.000374608 0.0801107 -0.170143
-0.0596401 0.00317107 -0.112632
-0.274957 0.324346 0.207451
0.108762 0.0844084 -0.146933
0.169948 0.0122033 -0.048335
-0.204225 0.160478 -0.11794
-0.0615208 0.077513 -0.188038
-0.131638 0.0456917 0.251118
0.0596683 -0.098429 -0.250619
-0.178499 -0.15351 0.2514
-0.247474 0.317886 -0.138937
0.230998 -0.0164258 -0.175624
0.111204 -0.109916 0.0307676
-0.071427 -0.155442 -0.026916
-0.256568 0.328225 -0.0697139
-0.0812497 0.0414865 0.222027
-0.199041 -0.0247577 0.0192538
-0.0625496 0.0742813 0.19655
-0.0906205 0.00175663 0.209142
0.0646951 0.00800512 0.0191716
0.0349531 0.0144198 -0.250404
0.0995876 -0.110775 -0.14517
-0.145679 -0.192729 0.18052
-0.202307 -0.128102 -0.0983186
-0.226247 -0.252964 -0.215126
0.0769227 -0.114409 0.15537
-0.25987 0.233052 -0.19894
0.0594737 -0.107772 -0.217269
-0.0159124 0.0293476 0.24441
-0.0762955 -0.156935 -0.173609
-0.201461 0.151998 -0.0979891
-0.163511 -0.176258 -0.00610897
-0.186728 0.0366647 -0.248777
-0.177265 -0.210626 -0.148717
0.0372496 0.00699157 -0.100266
0.159839 0.0862818 0.0966377
-0.0403232 0.0515905 0.213642
-0.0770631 -0.157283 -0.16229
0.240833 0.0282002 0.0161401
-0.169565 -0.060157 -0.207093
-0.233871 0.216416 -0.248377
-0.0899328 0.00183816 0.117293
-0.0460301 -0.145391 -0.0274436
0.105881 0.00974298 -0.167823
-0.117072 -0.11816 -0.249334
-0.202672 -0.122197 -0.235315
-0.0340675 -0.141648 0.0788914
0.212871 -0.107808 0.174838
0.199065 0.0134177 -0.156473
-0.16694 -0.0760954 0.0663321
-0.0984219 -0.167546 0.0264759
0.0531174 0.00756324 -0.00701827
-0.200579 -0.0112647 -0.0445027
0.0169326 0.0276288 -0.241876
0.219322 0.026991 0.248547
-0.164665 -0.204223 0.166045
-0.0304013 -0.0466376 0.250349
-0.219656 -0.241061 0.248707
-0.216493 0.195553 -0.176143
-0.168999 -0.0407658 -0.0244904
-0.237582 0.170029 -0.0201398
-0.210664 0.180239 -0.11096
-0.217878 0.100184 -0.126697
0.247385 -0.0753984 -0.151258
0.109789 -0.109928 -0.0886995
0.0323416 -0.122478 -0.0356072
0.245562 -0.0160251 -0.079586
0.106829 0.0356108 0.230927
-0.149325 -0.193579 -0.0872805
0.233068 -0.123129 -0.0119818
0.194378 -0.10721 -0.225948
-0.25854 0.329005 -0.061811
0.0965501 -0.111086 -0.138671
-0.196543 -0.0737992 0.243805
0.153466 -0.107176 -0.036369
-0.098865 0.0112729 0.214415
0.262075 -0.265438 -0.25215
-0.266119 0.258019 -0.1628
-0.26187 0.241533 -0.153677
0.13689 0.0452455 -0.233775
0.231629 -0.0431952 -0.251859
0.0252651 0.0810961 -0.123882
0.242793 -0.0669332 0.154921
0.0793122 -0.113736 -0.073179
0.0921109 0.00915672 -0.0964554
0.0307796 -0.048196 0.249902
-0.086697 0.0152062 0.215152
-0.125428 -0.180604 -0.0426875
-0.243787 0.309385 0.252018
-0.179579 0.0357866 0.101976
0.01465 0.00608309 -0.0738559
-0.132519 -0.125267 -0.215871
-0.0219027 0.00449782 0.164439
-0.165307 -0.189985 0.251292
-0.126181 -0.180455 -0.172971
-0.178446 0.0492052 -0.134355
0.158448 0.0116731 0.0797741
-0.168096 -0.0776029 -0.100261
0.0168418 0.0284723 0.237513
-0.171721 0.012553 -0.108831
0.0300955 -0.0110837 0.216566
0.19813 0.050391 0.227481
0.205245 0.0417189 -0.244674
-0.0460441 0.00356884 0.122643
-0.272716 0.298951 0.0391329
0.133408 0.0107975 -0.112116
-0.226244 0.223996 -0.149728
0.00463057 0.00554547 0.165388
-0.20571 -0.170059 0.147915
0.249239 -0.07091 0.12708
0.249646 -0.0688468 0.194036
0.130623 0.0104989 0.205914
-0.0543178 -0.149408 0.24744
-0.275437 0.316154 0.00701174
0.240507 -0.0525673 0.208191
-0.212178 -0.306665 -0.241721
-0.246437 0.199005 0.159391
0.0302752 0.00656679 0.151521
-0.094893 -0.0478022 -0.249474
0.240372 -0.0662273 -0.160657
-0.206224 0.167405 -0.0863831
-0.048059 -0.146815 0.229925
-0.088371 -0.16352 0.226668
-0.198363 0.147074 0.125642
-0.119147 0.000726662 0.0452578
-0.11212 0.00114114 -0.185886
-0.172722 0.0188276 -0.212102
-0.222435 0.127488 0.243696
0.0923064 0.00326926 0.216116
-0.0952559 -0.0944329 -0.216134
0.120841 0.0400995 0.228076
-0.150969 -0.000607966 0.176177
0.0398507 0.0815735 0.0429412
-0.224931 0.224548 0.0565624
0.0313748 -0.033198 0.21655
0.0691125 0.0320446 0.21529
0.0355072 0.00686053 0.00442247
-0.0106613 0.0795464 0.0965401
-0.209599 0.177082 -0.112396
0.251282 -0.277959 -0.227149
-0.209462 0.0579606 -0.150309
0.238961 -0.0523259 0.00124787
-0.259912 0.243903 0.205621
-0.14939 0.0741201 -0.0362646
0.0436786 -0.0400763 -0.217133
-0.168232 -0.0946235 -0.211031
-0.186502 -0.214479 -0.203651
-0.274282 0.304788 -0.0502725
-0.143655 0.0446785 0.251205
0.170565 0.0868321 -0.116878
-0.25557 0.222752 -0.0219338
-0.0451655 0.0324924 0.250482
-0.260686 0.329367 -0.219852
-0.199094 -0.281467 0.223919
0.115274 -0.109483 -0.0466733
-0.160092 0.0643404 0.21798
0.167342 -0.0302199 0.215557
-0.256921 0.328899 0.140687
-0.199527 -0.184416 0.106851
0.173956 0.0551599 -0.250969
-0.199799 -0.0785695 -0.248717
0.248385 -0.122087 0.0499099
0.198942 -0.107368 0.00261958
0.239549 -0.0612136 -0.145553
-0.139748 0.00493018 -0.215779
0.0645164 -0.0400877 -0.217285
-0.0134401 -0.133958 -0.218472
-0.0832679 0.0767627 -0.0464771
0.0946481 -0.111462 -0.0714137
0.186343 0.0496088 -0.218209
-0.111377 -0.0372932 0.250944
-0.250512 0.203531 -0.190323
-0.0357471 -0.142634 0.230366
-0.16301 -0.00109125 0.189055
0.147619 -0.107446 0.16425
0.27243 -0.253697 0.237498
0.215871 -0.0108303 0.24856
-0.0972425 -0.166188 -0.184094
-0.0862547 -0.021895 -0.249529
-0.207173 0.168658 -0.161532
-0.14451 -0.0951059 -0.249125
-0.0208598 0.0284413 -0.216876
-0.166652 -0.111205 -0.0842981
0.267524 -0.285499 -0.218844
-0.0728008 -0.155895 -0.0585224
0.134907 0.0106755 0.193514
0.110158 0.030267 -0.217619
0.078314 0.0831308 -0.0208971
-0.169181 -0.00940695 0.120274
0.187048 0.0127786 0.121012
-0.179791 0.0886892 0.124515
-0.199246 -0.115847 0.137367
0.0849415 -0.0603064 0.249502
-0.218122 0.111426 0.232278
-0.0185 0.00468129 0.0815739
-0.169668 -0.0116478 0.041339
-0.264149 0.253267 -0.0525904
-0.11317 0.00101701 -0.0463858
0.0204382 -0.124972 -0.109436
-0.0316226 0.00425619 -0.0758583
-0.110181 0.00120589 -0.165888
-0.0430769 -0.0797624 0.217081
0.0137921 -0.12742 0.167419
0.239247 0.0565721 -0.0995288
-0.165522 0.0678296 -0.102945
0.208453 -0.10765 -0.11149
-0.245747 0.307851 -0.10131
0.129795 0.085235 -0.139625
-0.212212 0.0854552 0.233986
-0.258386 0.231751 -0.0461865
-0.264089 0.252805 -0.0600128
0.157562 0.058437 -0.216078
0.242033 0.0339959 0.0744479
-0.165074 -0.130718 0.0261873
-0.141833 -0.145162 0.217783
-0.11845 0.0198642 -0.249281
0.249276 -0.056922 0.207954
0.241104 -0.208494 0.234923
-0.266751 0.329621 0.0249509
-0.227376 0.236658 0.234463
0.160795 0.0117611 0.0878253
0.115446 -0.109559 0.0490587
0.0681535 0.00806753 0.144182
-0.111045 0.0334728 -0.249331
-0.166482 -0.0826146 0.0937461
0.213433 0.053472 -0.218044
-0.227563 0.231311 -0.0114435
-0.219508 0.206996 -0.0188627
-0.256994 0.228127 -0.000376217
-0.158303 -0.0875121 0.21792
0.0446994 -0.0414317 -0.250492
-0.0392169 -0.143565 0.143561
0.0875251 0.083585 -0.17325
0.183877 -0.106912 0.0774332
-0.071468 0.00142139 -0.216279
-0.170919 -0.00226202 -0.0791966
0.0513955 -0.118994 0.243956
-0.195496 0.137471 0.132555
0.083801 0.0830806 -0.190119
0.239956 0.0229409 0.0646308
-0.0953526 -0.166172 0.0494878
0.0782011 0.0830723 0.0703823
0.0406169 -0.12042 -0.211002
0.00307668 0.028782 0.232826
-0.0673696 0.00280142 -0.00418454
-0.273579 0.292154 -0.233466
0.087998 -0.106161 0.216114
0.162961 -0.0226823 0.248943
-0.040566 -0.054294 -0.249874
-0.202009 -0.12174 -0.151757
0.232433 0.0230579 0.211623
0.224652 0.0820009 0.0465102
0.238969 -0.122843 0.152118
-0.0588952 0.0312631 0.21723
-0.170583 -0.0102953 -0.0767036
-0.0543251 0.0779036 -0.0422761
0.241438 0.0297891 0.0610574
0.0814111 0.0831519 0.150229
-0.236519 0.264131 -0.0126051
-0.227228 0.134842 -0.14225
0.218435 -0.10923 0.248512
0.06205 0.00781159 0.169222
-0.0879516 0.00186695 0.200886
-0.201446 -0.0029332 -0.072627
0.0182626 -0.126015 0.0861837
-0.0502718 -0.147236 0.0841847
0.0735828 0.0102971 0.216255
-0.173118 0.0420494 -0.140531
0.179433 0.0125366 0.0216362
-0.200095 0.0108419 0.251608
-0.276965 0.3149 -0.226454
-0.240923 0.292488 0.205943
0.134544 0.0108924 -0.196596
0.0937212 -0.0146882 0.249452
-0.0233018 -0.137878 0.0298727
-0.0428959 -0.0336924 -0.216499
-0.133476 0.000145391 0.0709199
-0.172334 0.0652258 0.0922194
-0.215499 0.0962696 0.0895077
-0.104439 -0.170554 0.0646545
-0.0300299 -0.139616 -0.162299
-0.247521 0.196264 -0.130227
0.108755 0.0839835 -0.190786
-0.267819 0.263432 -0.228897
-0.106548 -0.121272 0.250883
-0.132386 0.000244702 -0.0241363
-0.235587 0.260723 -0.000146583
-0.119484 -0.178055 0.12486
0.228428 0.0108932 -0.01181
0.0170827 -0.126377 0.104176
-0.273646 0.30635 0.0710935
-0.074156 -0.0984963 -0.249641
0.223561 -0.0360919 -0.218447
-0.196877 -0.193458 -0.163607
0.0380305 0.0216799 0.249871
0.0170362 0.00611228 0.035757
0.0108414 -0.0589247 0.216693
-0.208382 -0.279562 0.219474
-0.269353 0.274265 -0.117701
-0.129869 -0.18366 0.0978882
0.13664 -0.00896641 0.24914
-0.163373 -0.185871 -0.0393223
0.169822 0.018063 -0.251389
0.238298 -0.0562367 -0.190342
-0.0283878 -0.140109 0.215281
-0.0954579 -0.166345 0.0818607
-0.0591407 0.00310869 0.0259097
-0.218196 0.108354 0.105741
0.250293 -0.105 0.0869174
0.239301 0.020039 0.100642
-0.0310039 -0.0581263 -0.216593
-0.20775 0.175524 0.0705239
0.0974644 -0.102718 -0.250897
0.155169 0.0862562 -0.171297
-0.0464216 -0.14565 0.0183185
-0.0561719 0.0777415 0.108443
0.235962 -0.0426104 -0.162881
-0.250864 0.212425 0.177069
0.243598 -0.084201 -0.176956
0.255722 -0.28477 0.235043
-0.226261 -0.292039 0.220131
0.194631 -0.000406262 0.248718
0.269946 -0.241255 0.224421
0.122477 -0.108967 0.0794113
-0.0195439 0.00580907 0.250286
0.00127159 0.00545482 0.0943386
-0.258172 0.237619 0.211869
-0.165006 -0.00107941 0.0357751
0.250833 -0.118092 -0.0291779
-0.207143 0.038277 -0.217874
-0.006364 -0.0674982 -0.250128
0.117258 0.010581 0.215936
-0.0568356 0.0600591 0.209989
-0.138816 -0.187812 -0.0817577
0.165922 0.0864863 0.157077
-0.207288 -0.192138 -0.21035
-0.0236885 -0.0908063 -0.250008
0.240583 -0.0628822 -0.0458617
0.0941578 0.00925431 -0.124708
0.246887 -0.0450902 -0.0554114
0.0662259 0.0827212 -0.135451
-0.0491815 0.0034614 0.0947406
-0.248273 0.196033 -0.246419
-0.173764 -0.164573 0.251362
-0.186215 0.104301 0.14826
-0.241879 -0.309824 0.226943
-0.182353 -0.0574343 -0.248838
-0.0248226 -0.137936 -0.134514
0.00118119 -0.125069 0.216743
0.192099 -0.107177 0.244585
0.0782934 -0.113803 -0.134444
-0.21598 0.20216 0.226217
0.246519 -0.0632957 -0.204344
0.240364 -0.0633844 -0.0888978
-0.144965 0.0743846 -0.146506
-0.210375 -0.201211 0.243194
0.148565 -0.00963141 0.249052
-0.107668 -0.10332 -0.216046
-0.243135 0.183041 -0.17399
-0.274974 0.305907 -0.121357
-0.179195 0.041162 0.0541645
0.0528342 0.0294906 -0.22264
0.246266 -0.12237 0.210402
-0.159559 -0.189631 0.25125
-0.236574 0.263047 -0.0572078
-0.20413 -0.136268 -0.225977
-0.198146 -0.097011 0.169576
0.238279 0.0611048 -0.0524718
0.227977 -0.0473971 -0.251834
-0.155771 0.0192763 -0.249008
0.0154451 -0.126373 -0.0923089
-0.224749 -0.283391 -0.216626
-0.188414 -0.0450293 -0.248789
0.193207 -0.0608211 0.215359
0.0810142 0.0314146 0.217047
-0.245598 0.309236 -0.0507969
-0.1994 -0.00364784 0.200372
0.175584 -0.106665 0.17026
-0.0106984 -0.108544 -0.216756
0.169367 0.0867336 -0.030573
-0.236824 0.167557 -0.0320982
0.109607 0.0776455 0.200131
0.234188 0.0718717 0.0908259
0.239931 -0.0923427 0.24836
0.175976 -0.0518955 -0.251455
0.19427 -0.0137749 -0.251578
-0.20556 -0.172251 0.126062
-0.0784891 -0.05513 -0.216245
0.19755 -0.0291229 -0.218254
0.240562 0.0586097 0.154893
-0.226115 0.231254 0.186826
0.246133 -0.0249013 -0.0494283
-0.209713 0.0714691 0.17894
-0.0302708 -0.139815 -0.120102
-0.223779 0.126951 0.0369576
0.240581 0.038055 -0.148563
-0.172212 0.0163575 -0.155497
-0.25682 0.226083 -0.0592464
0.265356 -0.196186 0.232812
0.215099 -0.123322 -0.246303
-0.170372 0.0161292 0.0952853
0.0900205 -0.112158 -0.064781
-0.201195 -0.0174892 -0.197101
0.0401019 -0.12067 -0.133339
0.222617 -0.0354875 -0.21844
0.20511 0.0134975 0.112038
0.0130639 0.0632617 -0.210791
-0.241954 0.281755 -0.2241
0.127725 0.060968 -0.214678
-0.0501758 -0.146212 -0.235988
-0.035718 -0.0566372 -0.24991
0.0289223 0.0346128 0.215712
0.221499 -0.0201321 0.248516
0.0697048 0.0827251 0.0898852
0.110417 -0.0859242 -0.250986
0.24284 -0.073035 0.00488608
-0.222368 0.126257 0.206293
0.0883852 0.00892525 0.0457181
0.23445 0.0709872 0.0504711
0.246477 -0.0317824 -0.0395574
-0.245849 0.191633 -0.132485
-0.00104553 0.00534542 0.124527
-0.114172 -0.174821 -0.0322324
0.0374011 0.00698507 -0.0791833
-0.186605 -0.219226 -0.225497
-0.198545 -0.104626 0.162553
-0.136928 -6.02042e-07 0.0871776
0.152268 0.0114492 0.0457054
-0.197123 -0.03416 0.237517
-0.119746 0.000645037 0.143213
-0.132319 -0.0576643 -0.215852
0.216278 0.0864979 0.00399558
-0.101919 -0.169242 0.0347359
-0.116117 0.00924753 0.217641
-0.0900905 -0.163029 -0.119228
0.234055 0.0731874 0.196829
-0.274733 0.327207 -0.16649
-0.170513 -0.0231791 -0.136843
-0.0204685 0.00463825 0.0228827
-0.267901 0.275588 0.119314
-0.242765 0.19021 0.223825
-0.261192 0.244549 0.0527139
-0.223585 -0.323789 -0.219242
-0.164668 -0.115936 0.16194
-0.226621 0.138668 0.0866096
0.0843329 -0.113262 0.121956
-0.20452 0.0432196 0.240181
0.199534 0.0878745 0.0552983
-0.19759 0.145087 0.151848
0.162127 -0.0904996 0.215577
-0.249904 0.321658 -0.20831
-0.211873 0.0747526 -0.0253329
0.0382781 0.0705794 -0.206762
-0.260471 0.239698 -0.0286498
-0.157753 -0.17457 0.251242
-0.217227 -0.215584 -0.241318
-0.134379 -0.14686 -0.249216
0.164929 0.0120061 -0.0501659
0.195059 0.0130672 0.167496
-0.226434 0.233526 0.23793
-0.163859 -0.159826 0.0351579
-0.215271 0.200686 0.249937
0.0540463 0.0821665 -0.0113771
0.272782 -0.264578 0.216548
-0.16288 -0.172105 0.102833
-0.247414 0.203515 0.239036
0.0852578 0.00891151 -0.139591
0.178677 -0.0187328 0.248829
0.11463 0.0845564 -0.00563964
-0.0190693 0.0793658 -0.159523
0.151456 0.0852073 0.188753
0.179011 0.0871342 -0.0635747
-0.10242 0.0759161 0.105764
-0.166328 -0.0956674 0.0441769
0.162992 0.0865103 -0.078672
-0.0584562 -0.0152179 0.217212
-0.039969 0.0785303 -0.142954
0.130998 -0.108128 -0.0116346
-0.0800047 0.00223674 0.106541
-0.167715 -0.0868682 -0.0982115
0.240645 0.0585554 0.164217
-0.207365 0.0438812 -0.138359
0.165206 0.0543896 -0.24533
0.204008 0.0135727 -0.0884175
0.241636 -0.0590004 0.198949
0.214392 0.0870363 -0.0265055
-0.245303 0.305218 -0.0970839
0.156202 0.0600202 0.211993
-0.207414 0.145907 0.251702
-0.157735 0.0725784 -0.175159
-0.203557 -0.144473 -0.0267499
-0.261828 0.242944 -0.0952248
0.0683589 0.0082531 -0.155146
-0.166138 -0.148109 -0.213746
-0.028936 -0.140167 0.169699
-0.149245 -0.194416 0.116298
0.196148 -0.107266 -0.207422
-0.172852 0.0342028 -0.146563
0.255302 -0.133998 0.239675
-0.0984265 0.00148851 0.141108
0.249045 -0.0861766 0.0178558
-0.167145 -0.0563787 0.144929
0.211685 0.0877225 -0.00996125
-0.164125 -0.141293 0.0990204
-0.163008 -0.148399 0.213574
-0.0474153 0.00354725 0.0675808
-0.275146 0.322354 0.150457
-0.179251 0.0256222 0.146718
-0.211012 -0.240806 0.216437
-0.101071 -0.0808551 -0.216088
-0.247059 0.313634 -0.160935
-0.123004 0.0752216 -0.0950065
-0.222991 0.125308 0.0839938
0.223256 0.0141685 0.189022
0.174509 0.0385815 -0.251417
0.239393 -0.0606732 -0.153183
-0.205283 0.0473127 0.215608
0.046936 -0.119611 0.070868
0.0189946 -0.0884586 0.216624
0.212546 -0.0835187 0.248562
0.237168 -0.0410691 0.0428676
-0.169794 -0.0535312 -0.202661
-0.26215 0.245664 -0.0382683
-0.0150297 0.0793392 0.154988
-0.243205 0.288833 -0.199674
-0.20354 -0.142746 -0.0499411
-0.166109 -0.113159 -0.0204903
-0.27497 0.307432 -0.0909026
0.203197 0.0206167 -0.251633
0.0711143 0.0197538 0.213633
-0.162573 -0.164041 0.188496
-0.0331191 0.00423906 -0.14679
0.044621 0.0816894 0.165563
-0.206954 0.166342 -0.235486
0.228667 -0.00166163 -0.118345
-0.0870489 -0.0433213 0.250765
-0.201083 -0.0059683 -0.0559727
0.0778075 0.0830289 0.117442
-0.125421 -0.136882 -0.249278
0.240285 -0.115781 0.24835
-0.210097 0.0756238 0.24467
-0.211791 0.181965 -0.185858
0.249168 -0.150492 -0.218668
0.0725235 0.0828373 0.0884175
-0.172123 0.00728321 -0.192527
-0.23453 0.253437 -0.107059
-0.207246 -0.164847 -0.18265
-0.141817 -0.000169239 0.0457741
0.247561 -0.0365236 0.0833756
-0.173048 -0.198435 0.251346
-0.170702 0.0453233 0.251403
-0.064833 -0.122511 -0.249716
-0.0462813 0.0782152 -0.0318329
0.153377 0.086192 -0.182409
0.0546854 0.00770929 -0.149045
0.00393376 0.0801009 0.133787
0.0843369 -0.0258497 -0.250778
0.129036 -0.108435 0.12855
0.0380753 -0.016629 0.249859
-0.239898 0.278428 -0.0329206
-0.215709 0.200925 0.201318
-0.262991 0.329928 -0.0363505
-0.130879 0.0195165 -0.215744
-0.156575 -0.145437 -0.249052
0.248384 -0.0991672 -0.142959
-0.198008 -0.0319978 0.121319
-0.134552 0.00267786 -0.211382
0.0275481 -0.123335 -0.116363
0.246469 -0.0122062 0.0654473
-0.220996 0.118187 -0.248501
0.240312 0.0257375 0.0146114
0.206069 -0.107568 -0.229027
-0.190853 -0.201618 0.099816
0.112573 0.0379932 -0.218569
-0.154734 -0.198104 0.19622
-0.215491 -0.245129 0.251643
-0.0354834 -0.142035 0.046132
0.236599 -0.122852 -0.0420206
0.240016 0.0530904 -0.0987903
0.03253 0.0068692 -0.208499
0.250078 -0.084291 0.169558
-0.173609 0.0736364 -0.21551
-0.203395 -0.130614 -0.209442
-0.175883 0.0497348 0.18546
-0.13842 0.00010827 -0.19629
0.239913 0.0219901 0.0956422
-0.0518277 -0.147367 -0.0684892
-0.104062 0.00186106 -0.210673
0.185773 -0.106969 0.062074
0.101563 0.0838708 0.184853
-0.166063 -0.109588 0.00516742
0.0365594 -0.121345 -0.170521
-0.245094 0.194833 0.134555
0.24953 -0.102475 0.172105
0.150559 0.0859201 0.0883784
-0.151871 -0.000602657 0.10703
-0.266322 0.262693 -0.0449664
-0.162749 -0.172605 0.118099
-0.198462 -0.0496161 0.0184606
0.231759 -0.100279 0.215065
-0.245044 0.3035 -0.098625
0.220424 0.0839271 -0.159929
-0.173851 -0.209662 0.0931435
-0.230599 0.244291 0.0953336
-0.201972 -0.00454758 -0.162498
0.0252282 0.0276088 -0.246244
0.267318 -0.218984 0.238496
-0.273619 0.307512 0.0964711
-0.163834 -0.150926 0.0867263
0.25719 -0.148901 0.248216
-0.19347 -0.0648082 0.251536
-0.268777 0.329337 -0.0304642
-0.0888513 0.0764706 0.0743695
-0.0761501 -0.115511 -0.21628
0.2394 0.00881186 -0.130315
-0.1621 -0.185814 0.135498
0.232168 -0.0130274 0.0728452
-0.248498 0.320132 -0.139995
0.0559138 0.00770217 -0.0550663
0.250508 -0.108577 0.0970216
0.249332 -0.0677418 0.157042
-0.119563 -0.178447 0.205328
0.158572 0.0501731 0.227978
0.234978 -0.030783 0.00473924
0.0949862 0.0243541 -0.217488
0.0366584 -0.0362331 0.249863
0.0686035 -0.115338 -0.0654271
-0.0562783 0.0758394 0.193779
0.179175 0.0376991 -0.2181
-0.168274 -0.20603 0.0703606
-0.167134 -0.0696984 0.074394
0.131783 0.0338562 0.249189
0.248953 -0.0717548 0.0833923
-0.185682 0.100758 0.0484918
-0.0809928 -0.124774 0.217344
0.02042 -0.125723 0.215446
-0.209899 0.184548 0.198771
0.202272 0.0450626 0.248676
-0.207676 -0.17054 -0.107873
-0.231299 0.148434 -0.172588
-0.0793367 -0.13391 0.217329
0.174752 0.0869309 -0.0044254
0.245656 -0.0907316 -0.0607657
0.112003 -0.0486586 -0.217635
0.107369 0.00140956 -0.250938
-0.209487 0.0635396 -0.0166187
-0.210111 0.0625825 -0.130093
-0.132859 0.0455167 0.251126
0.198591 0.0133385 -0.0543298
-0.0396685 0.0784952 -0.0636436
0.215867 0.0140701 -0.137258
0.144383 -0.10746 0.0103482
0.134833 -0.0742382 -0.21781
0.150798 0.0113534 0.109059
-0.206367 0.0364453 -0.147044
-0.163898 0.0674094 0.176997
0.247279 -0.08272 -0.20531
0.219731 -0.12696 0.244677
-0.174045 -0.208674 -0.132543
0.199638 -0.1074 0.147735
0.161407 0.0863669 0.0576236
0.0638763 0.016114 -0.214878
-0.117138 0.0409744 -0.249284
0.058436 0.00773456 0.0581299
-0.20103 0.157309 0.189084
-0.112752 -0.0508528 0.25095
-0.218647 -0.294821 0.251651
-0.160275 -0.129777 -0.249021
0.249051 -0.109773 -0.108956
0.167949 -0.106817 0.0752669
-0.170839 -0.0291068 -0.213583
0.126865 -0.108277 -0.239818
-0.167998 -0.025581 0.194794
-0.131573 0.0748949 -0.11486
-0.196339 -0.193432 -0.0865647
0.0516094 0.00758052 -0.136803
-0.149805 0.0447884 0.215138
-0.0474962 0.0264808 0.217145
-0.0882591 -0.123715 0.25075
-0.0743025 0.0402361 -0.216201
0.15037 -0.107335 0.101612
0.175441 -0.106637 -0.129677
-0.11977 -0.157439 0.217618
0.184933 -0.106229 0.248757
-0.167778 -0.0717721 -0.0251737
-0.0640666 0.00302259 -0.157201
0.0326947 -0.122027 -0.240963
0.0518249 -0.0868581 -0.250558
-0.177933 0.0852246 0.123503
-0.00188861 0.0798811 0.116541
-0.0918647 -0.165062 0.195001
0.233432 0.0111063 -0.0376623
0.0433139 0.00727871 -0.180588
0.153089 0.0860845 -0.0202967
0.17205 0.0867557 0.111006
0.245851 0.0011312 0.0933728
-0.19553 0.129154 -0.193059
-0.198842 -0.097161 0.0755262
-0.210472 0.0645792 -0.122812
-0.165508 -0.0948864 0.160827
-0.219268 -0.308598 0.251651
-0.197946 -0.104247 0.241879
0.132986 0.0106459 0.115195
0.0692311 0.00829009 -0.159415
-0.168429 -0.0361538 0.0784347
-0.213059 0.116166 -0.24856
-0.202746 0.154617 -0.163886
0.214355 -0.109968 0.226145
-0.239761 0.272314 -0.200717
0.223101 0.0831607 0.0546004
-0.235047 0.261275 0.0933489
0.267345 -0.243768 -0.221853
0.0407365 -0.121024 0.131976
-0.201502 -0.00179706 -0.068003
0.230499 -0.00499533 0.0487657
-0.25276 0.217033 0.116516
-0.0695142 0.0377537 0.21731
0.170899 0.086783 -0.0116957
-0.0730138 0.00265568 -0.134512
-0.223574 -0.318518 0.222001
-0.156625 -0.0506734 -0.215672
-0.248306 0.201787 0.0335187
-0.0876463 -0.130331 -0.249552
-0.236285 0.162946 -0.17634
-0.0149601 0.0794899 -0.0949878
-0.231539 0.156978 0.199532
0.179601 -0.106793 0.233171
0.239749 -0.122826 0.19818
0.247733 -0.0965919 -0.218295
0.2015 -0.107447 0.0172715
-0.210336 0.0599081 -0.232342
-0.191103 0.121104 0.117118
-0.27181 0.288347 -0.0837564
0.0218139 0.0808788 0.0127438
-0.230231 0.153118 0.197915
0.170727 0.0692164 0.208238
-0.204361 0.0229253 -0.136584
0.0115909 0.0276407 -0.23575
-0.193776 0.1305 0.101393
-0.207594 -0.166706 -0.186466
-0.113361 0.0383971 0.21763
0.0725764 -0.0401657 -0.250696
-0.171876 0.0184127 -0.0984119
0.00227431 -0.130033 -0.0619222
-0.168628 -0.0690612 -0.126905
-0.0525331 -0.129403 -0.216457
0.00733346 0.00582693 -0.129404
-0.191288 0.118436 -0.00532093
-0.217329 0.204455 0.155054
-0.0704971 0.0773088 -0.116752
0.248661 -0.104978 -0.136455
0.247282 -0.0222229 0.122489
-0.237105 0.265562 -0.0447804
0.00758179 0.00564507 0.194099
0.155657 0.0499154 0.241573
0.0432319 0.00726613 -0.164813
-0.0194618 -0.13699 0.176905
-0.249088 0.32054 -0.195237
0.00126532 -0.0876207 -0.250189
-0.0284323 0.00429584 0.0698609
0.242186 -0.0716217 -0.0489751
0.154502 -0.107222 0.112081
-0.169709 0.00809598 0.142632
0.0758616 0.0264495 -0.2507
-0.147578 -0.0216538 -0.249081
-0.21162 0.0750881 0.01922
0.22967 -0.0103674 -0.203333
-0.0219369 -0.0707699 -0.250015
-0.268167 0.307116 -0.248099
0.223109 0.0836913 0.178599
0.255848 -0.286051 0.224289
-0.0458773 0.0782765 -0.108452
-0.198225 -0.0536898 0.0414834
0.00439678 -0.0592213 0.250091
0.131491 0.0852018 0.0292939
-0.169229 -0.0396709 -0.0501014
-0.154742 -0.108929 0.217888
-0.164794 -0.146784 -0.022345
0.13962 0.0416258 -0.218214
0.0395829 -0.120903 -0.065694
-0.0328114 -0.141344 0.122344
-0.0178448 0.0048676 -0.189174
0.0567236 0.00758007 0.204883
0.145113 -0.107313 -0.234769
-0.235966 0.169884 0.197678
-0.00347102 -0.13138 -0.157383
-0.19264 0.12999 0.23905
0.0804258 0.0326027 -0.245272
-0.229535 0.151168 0.201888
-0.0783907 -0.158898 0.16771
-0.168618 -0.0800603 -0.185112
-0.0502051 0.0440391 -0.215967
-0.0493921 0.00352429 -0.0255803
-0.0516627 0.0349577 -0.235092
0.0633434 -0.115944 -0.191204
0.196272 0.0878066 -0.0474792
-0.201172 0.0134369 0.143463
-0.203229 -0.140081 -0.0469403
0.153681 0.0787723 -0.204247
-0.270917 0.27857 -0.213807
-0.165335 0.0682208 -0.146387
-0.000227954 0.0799743 0.0698299
-0.114162 0.0329312 0.217634
-0.162571 -0.168043 0.167219
0.0866786 0.00900034 -0.194804
0.0229728 -0.124491 -0.0180985
0.126444 -0.108537 -0.00451868
-0.162401 -0.165841 0.202345
-0.198604 -0.0666011 -0.040193
0.0117377 -0.127725 0.0562776
-0.0714542 -0.0424425 0.250651
0.0529195 -0.117948 -0.151329
-0.160477 0.027125 0.217971
0.0287507 -0.123562 0.144617
-0.0509717 -0.146833 -0.125914
-0.198438 0.149573 0.217037
-0.0962603 0.00168083 -0.0392732
0.0754947 -0.114732 0.235581
-0.0785199 0.00226204 0.162901
-0.203777 -0.177626 -0.00584053
0.128849 -0.0696139 0.215827
-0.157336 0.00784837 -0.213408
0.0766943 -0.114097 -0.0932032
0.062621 -0.116413 0.0691574
-0.138241 -0.0631257 -0.21581
-0.202292 -0.182107 -0.115883
-0.191665 0.114198 -0.211343
-0.168267 -0.0550338 -0.0015294
0.100761 -0.110725 -0.0883727
-0.237699 0.264319 -0.169222
-0.140373 -0.190086 0.245151
-0.202493 0.00832483 -0.0935224
0.128439 0.0104452 0.150846
-0.158558 -0.200097 0.110648
0.15046 -0.00129824 -0.217902
-0.204225 -0.286345 -0.235907
0.0907876 -0.112316 0.13128
-0.179865 -0.0384432 0.251445
0.10169 -0.0670077 -0.217565
0.0055266 -0.129587 0.129689
-0.106349 -0.171693 0.125338
0.248147 -0.100405 0.0345363
-0.225674 0.220371 -0.232389
-0.168644 -0.0250959 0.108949
-0.130122 0.0749264 -0.071201
-0.0962368 -0.0378117 0.250834
0.214899 -0.120974 -0.172821
0.120181 0.010181 0.04651
-0.101562 0.0108282 0.214347
0.221899 0.0200349 -0.218461
-0.0770618 0.00236148 0.092198
0.120279 -0.108896 -0.199657
0.227582 0.00558998 -0.0818838
-0.246126 0.311131 -0.0825687
0.215311 -0.11594 0.101347
0.136129 0.0241666 -0.251141
0.248645 -0.231661 0.248254
-0.148765 -0.181218 -0.215769
0.0691572 0.0297942 0.240941
0.0794656 0.0316856 -0.250725
-0.0768671 -0.139538 0.250661
0.0127441 0.0805445 -0.0277507
-0.273939 0.325712 0.205142
-0.183607 0.0990913 0.249258
0.144876 0.0804636 0.198095
-0.069925 -0.117594 -0.249678
-0.0293329 -0.0566941 0.250338
0.149889 -0.0250295 0.249038
0.131406 -0.093783 -0.251142
0.118302 0.0847975 -0.167547
0.0724067 0.0829726 -0.147731
-0.172467 0.0196108 -0.172919
-0.210123 0.176206 -0.226502
-0.26221 0.240466 -0.24062
-0.238416 0.266592 -0.1919
-0.2091 -0.239067 0.216389
-0.20865 0.0597931 -0.00245587
-0.151635 0.0738349 -0.0155259
0.223298 -0.151643 -0.247509
-0.0664533 -0.154096 0.177817
-0.198265 -0.0693747 -0.000178397
-0.163494 -0.155301 0.109721
0.26714 -0.21719 0.245619
0.177421 -0.10669 -0.228711
-0.192323 -0.190939 0.25149
-0.172315 0.0380569 -0.0521711
0.122177 0.0848956 -0.0747112
0.248609 -0.105864 -0.0418178
0.0436202 0.0817883 -0.0683371
-0.217511 0.106104 0.115261
-0.167071 -0.078009 0.038037
-0.203614 0.0115186 -0.212433
-0.276198 0.318581 -0.0527789
-0.197158 -0.0394435 0.220478
-0.236709 0.2652 -0.00233003
-0.172292 0.0535032 0.0345882
0.137802 0.0109009 0.00653607
-0.206574 0.0541009 0.171362
-0.178199 0.0822411 -0.157933
0.207886 0.0881528 -0.112838
-0.208633 -0.170398 -0.241182
-0.182593 0.0927137 0.00946288
0.178957 -0.106756 0.0222102
0.21256 0.0343529 -0.22155
-0.195004 -0.19386 0.0695691
-0.244136 0.296109 -0.147292
-0.106348 0.075848 -0.0414625
0.163808 -0.106785 -0.219858
-0.143136 0.0743464 0.0401187
0.2484 -0.0652702 0.0426603
0.0549819 -0.020051 0.216382
0.0504829 -0.119106 0.201239
0.115218 -0.0180477 -0.21765
-0.176197 0.0813681 0.0467145
-0.116427 0.000902021 -0.0694761
0.227308 0.00982197 -0.0111587
-0.213665 0.0885985 0.123276
0.25633 -0.200341 0.248207
-0.168991 -0.203893 -0.24898
-0.0512922 0.0298564 -0.249769
-0.170449 0.012214 0.0635208
-0.170088 -0.20637 -0.0932597
0.0853617 -0.0270132 -0.217434
0.167906 -0.106654 -0.246832
-0.269613 0.276135 -0.101613
-0.205636 0.17233 0.216915
-0.202918 -0.139339 -0.0156087
-0.238103 0.171703 -0.0129755
-0.165284 -0.146322 -0.0870718
-0.178537 0.0821782 -0.210535
-0.0150714 0.0301878 -0.232704
-0.13887 0.0746468 -0.182777
-0.162761 -0.0564369 0.251314
-0.0861584 -0.148879 -0.216217
-0.0308615 -0.107962 -0.216609
0.0198285 -0.1259 0.222357
0.206436 -0.107587 -0.137501
0.183506 -0.10689 -0.054975
-0.234242 0.252461 -0.103645
0.165485 -0.106957 0.209677
0.160087 -0.107038 0.0648044
-0.241351 0.282664 -0.115527
-0.261426 0.244749 0.0278222
0.241917 -0.0670931 0.0300969
-0.191602 0.123634 0.14002
0.24809 -0.10359 -0.0549637
-0.225684 0.22427 -0.0600251
-0.171097 0.0311037 0.0769635
-0.000457093 0.0799977 0.0150796
0.0213083 0.0652304 -0.209898
0.163519 0.0118769 0.0740227
0.199043 0.0498784 0.227612
-0.106078 0.0757634 0.119613
-0.0366943 -0.130693 0.25037
0.110829 -0.109768 -0.16029
0.238152 -0.0480076 0.00058379
-0.0485945 0.0671644 -0.206113
-0.0484594 -0.14635 0.0227838
0.10571 0.0842898 -0.150276
-0.182702 -0.215481 0.140519
-0.206734 0.169292 -0.0720804
0.119276 -0.109397 0.234197
0.0224631 0.0279533 -0.219928
0.210759 0.0166756 0.248605
0.221332 0.0840623 0.0043532
-0.166166 -0.142457 -0.186995
0.105339 -0.110221 -0.193921
-0.210055 0.06186 -0.142996
-0.199547 -0.0259666 -0.0633637
-0.102415 0.076042 -0.106853
-0.237562 0.170684 0.0138096
0.236278 -0.12305 0.169915
0.0726849 -0.114531 -0.209736
-0.204822 -0.166919 0.19504
-0.164052 -0.136089 0.137215
0.0722189 -0.114752 -0.100181
-0.246217 0.197806 0.129208
0.245632 -0.00372375 -0.00342007
0.209867 -0.107712 0.128547
-0.217294 0.0937344 -0.230557
0.123002 0.084948 -0.108181
-0.242787 0.233414 -0.248307
0.00850546 0.0802832 0.13094
-0.236308 0.162907 -0.181352
0.238984 0.0580849 -0.0852359
-0.221369 0.115973 -0.0448427
-0.031772 -0.0808929 0.216998
-0.191855 -0.199818 0.0872724
0.215679 -0.122619 -0.135593
-0.0456652 -0.0475843 0.250461
0.0165984 -0.0707249 -0.216944
-0.21174 0.0731329 -0.0533267
-0.138823 -4.11712e-05 0.0292251
-0.011212 -0.134252 0.173991
0.247691 -0.1044 -0.13083
0.0749098 -0.104062 -0.217381
-0.0627157 0.0775358 0.0190424
-0.230549 0.243861 0.0861611
-0.109867 -0.0483537 0.217578
-0.232927 -0.285245 0.225507
0.245224 -0.00489114 -0.0656871
-0.17011 -0.0365324 -0.153927
0.0561979 0.00756614 0.193321
0.161934 0.00376733 0.215607
-0.141021 -0.0952342 0.217792
-0.25227 0.217019 0.183754
0.0644685 0.0601939 -0.213559
-0.0345866 -0.142079 0.171458
0.269339 -0.262658 -0.220219
-0.167195 0.0620938 0.251383
0.188374 -0.107059 0.197492
-0.221437 0.115689 -0.0650839
-0.126192 0.0555957 0.220916
-0.167731 -0.0902831 -0.118933
-0.127069 -0.182222 0.121933
0.133193 0.085253 0.0564309
-0.171784 -0.00353862 -0.20457
0.132755 0.0853633 -0.158829
-0.155772 -0.199004 0.246021
-0.202953 -0.204168 0.21395
0.0748769 0.00844667 -0.0471711
-0.0508972 0.00345244 -0.00464407
-0.224234 0.130357 0.102952
-0.201733 0.0209065 0.185299
-0.200951 -0.182605 0.0361722
-0.205608 0.0362123 -0.0472036
0.265965 -0.203014 0.241553
0.109178 -0.110158 0.0970574
0.248784 -0.0442039 0.209375
0.222835 0.0179861 -0.22224
-0.122815 0.043577 -0.215891
0.214407 -0.112765 0.112866
-0.233519 0.258702 0.216647
-0.169242 0.00971309 0.215382
0.233516 -0.139076 0.248392
0.177201 0.0124101 0.0864301
0.21198 -0.113335 -0.247953
0.21907 -0.0355209 -0.218414
0.048214 0.00744045 -0.126806
0.0430119 0.00712603 0.0567558
-0.244526 0.19119 0.0288622
0.168013 -0.106746 -0.0597585
-0.200071 0.00493579 0.201859
-0.172194 0.00699947 -0.203822
-0.0437214 0.0340604 0.233547
-0.1679 -0.001197 0.0412757
0.14216 -0.100807 0.21572
-0.269729 0.278035 -0.0648273
-0.236931 0.163693 -0.230659
-0.104752 0.0758508 0.0603373
-0.00775458 -0.132873 -0.0159549
-0.0953648 -0.138257 -0.216147
0.168187 -0.0286774 0.215551
0.0350295 0.00679656 0.0806244
-0.16632 -0.136994 -0.178433
-0.12163 0.056744 -0.210435
6.58371e-05 0.0055406 -0.130746
-0.126108 0.00047378 0.00789108
-0.199461 0.151242 0.146692
-0.171632 -0.206981 -0.167242
-0.0501824 -0.0803622 0.250484
-0.100965 -0.169595 0.248001
-0.0383953 -0.143391 0.180752
-0.253476 0.326279 -0.0934572
0.241093 -0.0666076 -0.0710341
-0.0209449 -0.0181286 -0.216654
-0.211424 0.0820639 0.245723
0.0929966 0.0836821 0.0276368
-0.238814 0.176251 0.10424
0.242343 0.0344387 0.11135
-0.0676967 -0.0964026 -0.216336
-0.119848 0.075324 -0.0572469
-0.130902 -0.182766 -0.239994
0.00521164 -0.0796958 -0.250216
-0.198221 -0.104041 0.203067
0.0656934 0.0827082 -0.149002
0.231518 -0.00138858 0.219177
0.105131 -0.110329 -0.0994263
-0.198149 -0.0490832 0.0625617
-0.257029 0.234134 0.238408
-0.216732 0.202745 0.151377
-0.233583 0.246186 -0.24669
-0.197551 -0.0896984 0.205195
0.234483 -0.122939 -0.119976
-0.271013 0.29745 0.24109
-0.202293 -0.00247913 -0.184
-0.170445 -0.0383613 -0.209634
-0.114074 -0.0199005 -0.249325
-0.181749 0.0259766 -0.191905
0.18216 0.0127558 -0.166533
0.230391 -0.16417 0.215055
-0.138259 5.36676e-05 0.2178
-0.27541 0.3206 0.0868678
-0.201418 0.0148577 0.125237
0.0249785 0.0809254 0.145364
0.135357 0.0107317 0.128547
0.0617039 -0.0377837 0.216327
-0.072842 0.00268073 -0.165354
-0.230239 0.240461 -0.00753473
-0.177099 0.0813571 -0.0810316
0.0428283 -0.120434 0.0497592
0.0892721 -0.112381 0.0160927
0.256942 -0.139154 0.225783
-0.00205435 0.00535341 0.0436649
-0.105006 0.0759067 -0.0511673
0.0564898 -0.0403628 0.249716
0.244819 0.00156122 -0.0320292
0.0604574 0.00774714 0.17182
0.212839 0.0138029 0.111957
0.109764 -0.110029 0.0157748
-0.0773644 -0.158561 0.191558
0.169058 0.0412276 0.214711
0.0026589 -0.0726728 -0.250195
-0.00206234 0.0798514 0.155175
0.2656 -0.307162 -0.218837
0.191698 -0.107159 0.173326
-0.0518156 0.00334836 0.109926
0.210288 0.0414734 0.236541
-0.19372 0.128942 0.0492421
-0.034542 -0.0799779 0.250369
0.0810847 0.0313851 0.2446
0.193608 -0.107206 0.031075
-0.244766 0.298585 -0.173065
-0.0547349 -0.133107 -0.249794
0.0380406 -0.12134 -0.00384404
0.148879 -0.054884 0.249036
-0.242261 0.294846 0.252003
0.00387564 0.00560892 0.00777463
0.23987 0.0242855 0.00131243
-0.076953 0.00238206 0.0646931
-0.210535 0.184769 0.12103
0.243071 0.0421782 0.196231
0.157829 0.0499231 0.227563
-0.113992 -0.0870558 -0.249347
0.208737 -0.107675 0.0939259
-0.198154 -0.0865595 0.10342
0.1371 0.0265202 0.215796
0.0168634 -0.00126118 0.250018
-0.257942 0.328659 -0.139131
-0.216129 0.103949 0.224987
0.226122 -0.123571 -0.0775845
-0.12966 0.0749194 -0.028505
-0.165028 -0.145464 -0.0472739
-0.179688 0.0374023 0.0647192
-0.186131 0.0680121 0.251522
-0.00653058 0.0797064 0.101943
-0.0992434 0.0761361 -0.0540584
-0.208918 0.0493711 -0.244187
0.235983 -0.038451 -0.0533291
-0.169415 0.0614602 0.201138
-0.092874 0.00180351 -0.0205056
-0.0336588 0.0237196 -0.216497
-0.0612594 0.0775484 0.0950152
-0.0378645 -0.142831 0.0433175
-0.256505 0.229195 0.110554
0.217754 -0.0573635 -0.251762
-0.187085 -0.239483 0.248768
0.00139825 -0.130505 0.0395067
0.136194 0.0439411 -0.250978
-0.0521239 -0.14838 0.204813
-0.143557 -0.190137 -0.148224
0.0514668 0.00742294 0.119471
-0.12094 0.0752614 -0.0243645
-0.232696 0.155446 -0.0336652
-0.0597689 -0.0514631 -0.216381
-0.0337957 0.0786585 0.0524821
0.250635 -0.0969748 0.177278
0.18558 0.0873725 -0.0277651
-0.205486 0.0274582 -0.202444
-0.207227 0.0458163 -0.0812558
-0.209475 0.180871 0.0838637
-0.0451137 0.0331835 0.21713
0.136539 0.010844 0.0183354
0.175438 0.0200236 -0.215539
-0.242922 0.240116 -0.248304
0.249963 -0.121806 -0.153308
-0.172567 0.0216621 -0.175409
-0.257642 0.233281 0.11889
-0.19725 -0.0559144 0.169864
-0.165473 -0.203073 -0.171524
0.137641 -0.0442853 -0.251173
-0.163853 -0.138849 0.149581
-0.163714 -0.139653 0.164243
0.186738 0.0127335 0.17589
0.2226 -0.0301412 0.215153
-0.225144 0.12663 -0.164487
-0.240507 -0.297234 -0.222791
-0.196375 0.139374 0.0880868
-0.225215 0.226866 0.118873
0.126088 -0.108527 -0.0488568
0.114097 0.00996464 0.00601961
-0.167002 -0.116627 -0.161698
-0.177311 0.011284 0.121548
-0.189195 -0.206834 -0.0381398
0.147565 -0.107274 -0.173959
0.135288 -0.107618 -0.190775
-0.0092376 0.00516528 -0.117632
-0.196821 -0.0805354 0.247763
-0.142752 0.013418 -0.215754
-0.19118 0.123867 0.206832
-0.199505 -0.0327525 -0.0853312
-0.148881 0.0616283 0.217897
-0.00844616 0.00505888 0.11467
-0.218316 -0.234879 0.231399
-0.169808 -0.0053348 0.251381
-0.0595822 0.0775793 0.154814
0.247343 -0.082572 -0.195767
0.149803 -0.107387 0.169822
-0.247478 0.196514 -0.111473
-0.205392 -0.166403 0.105551
-0.055374 -0.148373 -0.200313
0.184454 0.0127376 0.0172358
-0.131895 0.0437654 -0.214796
-0.019305 -0.0118568 -0.250016
0.00262712 0.0801152 0.0223851
-0.0448674 -0.00948969 -0.216477
-0.126631 -0.181644 0.0442272
0.214365 -0.112983 0.097602
0.0863358 -0.00687725 0.249508
-0.231542 0.242495 -0.105459
0.221379 0.00187563 0.215171
-0.205229 -0.171725 0.209569
0.241447 0.0502141 0.0380023
0.193777 0.0132301 -0.192457
-0.257532 0.227874 -0.0852439
-0.0906149 -0.0981492 -0.24952
-0.00608461 0.0464743 -0.216161
-0.200394 -0.126154 0.133319
-0.153559 0.0731228 0.124057
-0.15069 -0.194807 0.0226442
-0.251591 -0.326616 -0.235117
-0.254697 0.215985 -0.198027
0.12419 0.0849568 -0.0438426
0.252691 -0.225215 0.214874
-0.167764 -0.206321 0.194923
-0.0518445 0.0779994 -0.0386825
0.10849 -0.0948919 -0.217624
-0.137221 -0.115576 0.217758
-0.134926 0.0465138 0.21779
-0.0265777 -0.13929 0.140313
-0.188263 -0.210163 -0.143756
0.244603 -0.0172551 -0.217619
-0.178698 0.0449137 0.00758899
-0.211759 -0.20703 0.224321
0.138872 -0.00862167 -0.251171
-0.149167 -0.194724 0.197203
0.00361922 -0.00835324 -0.216831
-0.0891243 -0.162827 -0.0510539
-0.244614 0.309353 0.0872828
-0.205676 0.0469241 0.153861
0.162283 0.0501994 -0.217857
0.106704 -0.110428 0.150804
0.122215 -0.109135 0.231766
-0.262 0.243247 -0.107629
-0.102488 -0.169228 -0.0404978
0.0229517 0.000155637 -0.216969
0.243138 -0.0767178 -0.0484577
0.150333 0.0113301 0.117144
0.161526 0.0408471 0.248973
-0.200704 -0.10512 -0.129079
-0.209173 0.179933 0.0813166
-0.243466 0.290311 -0.198147
-0.201365 -0.122748 -0.049206
0.239344 -0.0626297 -0.210144
-0.201431 -0.0179604 -0.234536
-0.0260743 -0.104582 0.2503
-0.27498 0.309922 -0.0459635
0.257717 -0.148287 0.247089
0.240886 -0.0654851 -0.0708006
0.0155089 -0.125787 -0.216953
-0.177833 0.0105102 0.0203215
-0.201546 -0.118932 -0.130125
0.0947792 0.00927506 -0.118294
0.127952 -0.108444 0.0379566
0.215244 0.0140189 -0.0923786
0.0861185 0.0834294 -0.00437472
-0.196991 -0.0700886 0.172683
0.00717729 -0.0376838 0.216726
-0.272085 0.300831 0.166676
0.072772 -0.0516818 -0.250701
-0.198738 -0.0271325 0.0349622
-0.173094 0.0496446 -0.0962569
-0.0736291 0.00247197 0.134657
-0.198123 -0.0409125 0.0849603
0.238084 -0.0494768 -0.0465665
-0.0769563 0.0231735 0.216174
-0.246579 0.192804 -0.174551
0.24697 -0.0107998 0.141673
0.251945 -0.119856 0.0837887
0.0262468 0.00655961 -0.104874
0.267765 -0.245223 -0.244343
-0.207799 -0.167914 -0.185959
-0.216777 0.105819 0.206122
0.270004 -0.242154 0.217787
-0.2333 0.247895 -0.143805
0.157046 -0.0523419 0.248977
-0.166702 -0.103714 -0.0506625
-0.0938649 -0.165269 -0.00215672
-0.201851 -0.179019 0.164558
-0.232735 -0.308053 0.221353
-0.216261 0.202101 0.184197
0.0767112 -0.0522615 0.249565
0.00866818 -0.128157 -0.12008
0.213208 -0.114386 -0.123205
0.228164 0.0105317 0.125095
-0.16471 -0.166458 -0.117359
0.244958 -0.0817388 0.0735984
-0.2034 -0.13933 -0.0812929
-0.171054 0.060693 0.056463
-0.226817 0.133459 -0.137786
0.203824 0.0135034 0.0162281
-0.214909 0.196362 0.0838856
-0.014578 0.00481487 0.117662
0.218875 -0.124017 -0.162992
-0.169187 -0.00111305 -0.186491
0.132606 0.0105913 0.182179
0.162934 0.0418369 -0.251332
0.0811873 0.0832121 0.0335407
0.177621 0.0502674 0.248858
-0.132041 -0.0400291 0.251095
0.240214 0.0261118 -0.0107
0.186454 0.0192815 0.215433
0.250121 -0.0894267 0.147756
-0.208692 0.0600175 -0.00390364
-0.201351 -0.100743 -0.244712
-0.204859 0.166682 0.0704348
-0.211572 0.067575 -0.188968
-0.202371 -0.134938 -0.00614976
-0.237712 0.270806 0.0354745
-0.114148 -0.0190853 0.25097
0.271651 -0.255297 0.230213
-0.256523 0.227965 0.0581463
0.230668 -0.1662 0.227363
-0.201344 -0.139979 0.208215
-0.202606 -0.00252682 -0.227519
-0.200237 -0.0484144 -0.2216
-0.157822 -0.171974 0.217891
-0.168562 -0.0767399 -0.159473
-0.0536152 0.0779526 -0.0776926
0.2153 0.0364274 0.236546
0.116735 -0.109214 -0.19475
-0.165492 -0.154512 -0.159841
0.254224 -0.125006 0.219203
0.00951288 0.00582326 0.0219083
-0.275847 0.316468 -0.0435648
-0.244403 0.301556 -0.0523542
-0.198789 -0.0527735 -0.0335206
-0.206661 -0.169415 0.00373366
0.230943 -0.12331 0.0230312
-0.115229 0.000822844 0.144285
-0.0617153 0.0765262 -0.192382
-0.230468 0.240433 -0.0403848
-0.133636 -0.169157 -0.215876
0.0754331 -0.114404 -0.00700519
-0.0880375 0.0764982 0.0820688
0.169783 0.030812 -0.251385
-0.271954 0.296421 0.089262
0.232601 0.0110881 -0.0623491
0.0906975 0.00911115 -0.113809
-0.220673 0.114702 0.00340656
-0.165765 -0.100947 0.0927682
0.165796 -0.00457538 0.215576
0.1825 0.0127711 -0.169698
-0.243733 0.291655 -0.20179
0.24444 -0.0743328 0.192111
0.084615 0.00877081 0.0546988
-0.164129 -0.137162 0.120823
0.161728 -0.0869476 -0.251362
-0.0283052 -0.102424 0.216966
-0.200583 -0.0885624 -0.21587
-0.238321 0.280288 0.236421
-0.167891 -0.0894085 -0.136066
-0.218692 0.110119 0.103932
-0.163608 -0.178308 -0.0305625
-0.0929775 0.0381653 0.250833
-0.100239 -0.169186 0.231107
-0.163717 -0.171825 -0.0103233
0.232651 0.0730993 -0.0103214
0.0853016 0.0834367 -0.071209
-0.204078 -0.144607 -0.095629
0.240882 -0.0482441 0.236553
0.0311617 -0.122796 0.0030922
-0.139887 -0.000175803 0.185707
-0.158528 0.0680269 -0.229874
0.196142 0.0132621 -0.0888406
-0.164633 -0.164212 -0.0946391
0.237051 0.0613952 -0.208868
0.226634 -0.0119567 0.248481
0.175211 0.012415 -0.0546209
-0.0516445 0.0343511 0.217491
0.24392 -0.0767165 0.0593178
-0.0372746 -0.142669 0.0568701
0.068436 0.0827842 -0.0945193
0.131501 0.0106273 0.0481698
-0.172388 0.0308282 -0.101381
-0.22135 0.117312 0.00848722
0.127526 -0.108576 0.137134
0.175107 -0.106639 0.0283061
-0.205685 0.0479536 0.172868
0.0834619 -0.113132 -0.064537
0.0143233 0.080678 -0.147627
-0.115752 -0.0299719 -0.249316
-0.268638 0.284182 0.250504
0.247834 -0.0291863 0.160558
0.0446157 0.0589491 0.211616
-0.149388 -0.00054869 0.181539
0.101189 0.00943727 0.0354471
-0.22689 0.230166 0.0315641
-0.201343 0.00910194 0.0727103
-0.162671 0.0693655 -0.00554272
0.0771715 0.083057 0.0274068
0.20868 0.0137321 -0.0459559
-0.217685 0.102349 -0.0382282
-0.207877 0.0616886 0.152695
-0.170298 -0.206109 -0.173407
0.246257 -0.0298324 -0.0591846
0.205197 -0.030808 0.248632
-0.00451023 -0.0704777 -0.250142
-0.172092 0.064899 0.123662
-0.18115 0.0226228 -0.141433
-0.200566 -0.121615 0.0428533
-0.240503 0.285636 0.0841188
-0.199791 -0.0603972 -0.188269
0.230073 0.0109637 -0.0211241
0.246907 -0.122303 0.184025
-0.264797 0.329655 0.222979
0.202945 0.0880861 -0.0743629
0.0629811 0.0299198 0.243694
-0.191981 -0.146167 -0.248794
-0.161932 -0.000970026 0.0561161
0.0317681 0.00660588 0.185119
-0.151808 -0.113894 0.251217
0.141951 -0.107171 0.21572
-0.181365 0.0251047 0.251474
-0.00368977 0.0632144 0.209014
-0.163844 -0.204085 0.243425
0.262304 -0.174284 0.229029
0.237853 0.0103189 -0.028086
-0.0788833 -0.0624504 0.217347
0.0712176 0.00822674 0.0797045
-0.158971 0.0721168 -0.186274
0.0852329 0.0329221 0.225093
-0.0227787 -0.137324 -0.106387
-0.0944401 -0.165084 -0.123251
0.24793 -0.0597724 0.00797208
-0.173903 0.074638 -0.0718138
-0.201629 -0.109679 -0.227027
-0.104865 -0.169893 -0.163903
-0.206433 0.173267 0.148604
0.221473 -0.124061 0.114301
-0.121478 -0.179546 0.215491
0.241455 -0.0712356 -0.244229
0.117203 0.0846724 -0.0297435
-0.201048 -0.110331 -0.143597
