ply
format ascii 1.0
comment Created by Open3D
element vertex 1674
property double x
property double y
property double z
end_header
0.134114 0.161787 -0.226901
-0.0803697 0.161787 0.18294
0.194144 -0.0853457 0.390933
-0.130949 0.12185 -0.387704
0.131106 0.0629763 0.402406
-0.163361 -0.124376 -0.368011
0.0726008 0.161787 -0.325299
0.174103 0.161787 0.0880662
-0.194144 -0.0763939 -0.404668
0.17171 0.133436 -0.311736
-0.119669 0.147981 0.298189
-0.16949 0.147981 0.0989617
-0.169772 0.0405459 -0.368011
-0.164071 0.147981 0.138853
0.152278 -0.129094 0.418094
0.139837 0.147981 0.366034
-0.175963 0.13561 -0.368011
0.107944 0.161787 -0.132785
-0.181201 0.117477 0.245438
-0.115526 0.161787 -0.0813785
-0.131109 -0.0969118 -0.402678
-0.140824 0.147981 0.311672
0.0645225 0.161787 0.0813621
-0.0958746 0.161787 0.0957299
-0.0665727 0.161787 0.297193
0.130767 0.148312 0.37075
0.130976 0.00731064 0.390237
-0.192968 -0.0485124 0.368011
-0.105821 0.147981 -0.146686
-0.147786 -0.161787 -0.384339
-0.17171 0.113674 0.321872
0.0975568 0.147981 0.00721714
0.157729 0.161787 0.0932606
-0.194144 0.151553 0.372731
-0.148208 0.161787 -0.205354
0.194144 0.151123 0.291719
0.0799829 0.161787 -0.109021
-0.190873 0.0386691 0.410533
0.119359 0.161787 0.325741
-0.113694 0.147981 -0.319722
-0.131089 0.0210637 0.400792
-0.187082 0.147981 0.218632
0.0723566 0.147981 -0.364135
-0.0640135 0.161787 0.132385
0.122447 0.147981 -0.075103
-0.194144 -0.126971 -0.402901
-0.160511 0.161787 0.0504154
-0.131242 -0.136072 0.415086
-0.00560353 0.147981 0.190496
-0.093272 0.147981 -0.0101709
0.0890444 0.147981 0.22726
-0.0544747 0.161787 0.242398
-0.0385774 0.161787 -0.236397
-0.140645 0.147981 0.251544
-0.16142 0.000360476 -0.368011
-0.181201 0.138667 0.123461
-0.0748128 0.161787 -0.0615013
0.107477 0.147981 0.0844065
-0.181854 -0.119588 0.412388
0.168039 0.161787 0.050374
-0.181201 0.124748 0.187939
0.0877962 0.147981 0.0494211
0.0233067 0.161787 -0.398375
0.17148 0.10857 0.368011
-0.0170045 0.147981 0.25346
0.181201 0.114639 -0.079405
-0.130978 -0.148762 -0.39038
-0.0804537 0.147981 -0.31763
-0.186257 -0.0126843 0.411482
0.194144 0.148973 -0.143575
-0.176699 -0.0433689 -0.368011
-0.116144 0.161787 0.168753
-0.170649 0.147981 0.163304
0.0229849 0.147981 -0.144061
0.129814 0.139342 0.402655
0.131083 0.110698 -0.400266
0.171214 0.147981 -0.243775
0.0948926 0.147981 -0.080767
0.0291021 0.147981 -0.319545
-0.107426 0.147842 -0.40986
0.167665 0.161787 0.259814
-0.072266 0.161787 -0.00928056
0.149957 0.147981 -0.149235
-0.149403 0.147981 0.272839
-0.194144 0.150023 -0.348118
-0.0383233 0.147981 -0.148662
-0.137004 0.0836689 -0.368011
-0.130885 -0.122814 -0.38176
-0.135098 0.161787 -0.0126228
-0.181201 0.141852 -0.278057
-0.181201 0.140485 -0.0354638
0.00844078 0.161787 0.0748423
-0.0353266 0.161787 -0.339772
-0.154037 0.161787 -0.115214
-0.158269 -0.13581 0.41709
-0.190297 -0.00288776 0.368011
0.165131 -0.149739 0.368011
0.0534287 0.147981 0.363374
-0.181201 0.137661 -0.0200329
-0.17171 0.139142 -0.195693
0.192146 -0.138705 0.410271
0.161818 0.147981 -0.242324
-0.194144 -0.0862446 -0.379498
0.18731 0.126163 0.411266
-0.194144 -0.144991 0.391143
-0.14551 0.161787 -0.256963
0.105501 0.161787 -0.329253
0.0997785 0.161787 -0.284794
-0.128677 0.161787 -0.115157
-0.164952 0.156698 0.415865
0.128357 0.147981 0.209994
0.158306 0.147981 0.0774691
0.0574579 0.147981 0.270473
0.103246 0.161787 0.284063
-0.181201 0.133842 0.0263419
0.137695 0.161787 0.00465237
0.115824 0.161787 0.378327
-0.0410642 0.147981 0.198118
-0.135307 0.147981 0.300865
0.182786 -0.161787 0.371832
0.130873 -0.0718753 0.368011
-0.161902 0.142236 0.368011
0.121282 0.147981 -0.416858
0.0984722 0.161787 -0.149246
0.170777 -0.149337 -0.368011
0.122658 0.161787 0.0588111
0.00267413 0.147981 -0.310291
0.0663495 0.161787 0.135641
0.185621 0.0101027 -0.411612
-0.138065 -0.0889777 0.420475
0.146585 0.161787 -0.378348
-0.0123181 0.161787 -0.0884496
0.12597 0.147981 -0.227498
-0.00403416 0.147981 -0.0430481
0.109277 0.147981 0.195806
0.0792824 0.161787 0.199172
-0.17171 0.144032 0.0989203
0.0528475 0.161787 -0.20811
0.0325057 0.147981 0.309124
-0.0524753 0.161787 0.148474
-0.0868285 0.161787 0.166442
-0.0169207 0.161787 0.0725699
-0.181201 0.130072 -0.0645203
-0.169658 0.147981 -0.0938392
0.154925 0.147981 0.0680603
0.0563074 0.161787 -0.28091
0.0425189 0.147981 0.158978
-0.194144 0.0736954 -0.385021
-0.0563357 0.161787 0.341898
-0.0791075 0.147981 -0.128329
-0.0556003 0.161787 -0.194561
-0.172246 0.113467 0.224484
-0.00620013 0.147981 0.276353
-0.194144 0.158119 0.332039
0.0477521 0.161787 -0.337583
0.181201 0.126327 0.333094
-0.17171 0.115448 -0.113796
0.0506428 0.147981 -0.102613
0.130749 -0.074959 -0.369082
-0.12989 0.121376 -0.409758
0.189878 -0.0764583 0.410738
0.124345 0.161787 -0.22626
0.00289993 0.147981 -0.054857
-0.0739197 0.147981 -0.0964166
0.123322 0.147981 0.364424
0.181201 0.138417 0.118375
0.157566 0.147981 0.3184
0.065623 0.147981 0.00864735
-0.112488 0.113467 -0.400526
0.158524 -0.0425026 -0.368011
0.131199 -0.0839956 -0.411091
-0.10988 0.147981 0.291456
0.107173 0.161787 0.0629962
-0.194144 0.154239 -0.253382
-0.0642936 0.141277 -0.40986
-0.099204 0.143514 -0.400368
-0.0289514 0.147981 -0.023173
-0.0930875 0.147981 -0.0248601
-0.0362457 0.161787 -0.0450908
-0.172402 0.161787 0.353511
0.131031 0.0388026 0.395335
-0.181201 0.145465 -0.10213
0.107222 0.147981 0.365165
0.17171 0.13351 0.21027
0.0483911 0.161787 -0.0279916
0.13131 0.159004 0.421462
-0.109567 0.147981 0.195477
0.137258 0.147981 0.341835
0.0469599 0.161787 -0.233798
-0.183427 0.147981 0.185946
-0.181201 0.144744 0.295815
0.0781889 0.161787 0.339725
-0.141858 0.150925 0.368011
-0.130966 -0.10768 0.389337
0.148002 0.147981 -0.0732362
0.147789 0.147981 -0.035964
0.170568 0.147981 -0.074726
-0.194144 0.149986 -0.0420231
-0.148036 0.161787 0.254849
-0.130849 0.145582 0.378417
-0.0119949 0.147981 0.339799
0.0752244 0.161787 0.13719
0.11126 0.161787 0.0688875
0.0256888 0.147981 0.219748
-0.129802 0.131356 -0.401482
-0.17171 0.138944 0.246258
0.00768918 0.161787 -0.365106
-0.185745 0.161787 -0.211945
-0.119448 0.161787 -0.389816
-0.0241262 0.161787 0.0346968
-0.178759 0.161787 0.176131
-0.0551162 0.161787 0.126171
0.158468 -0.0978551 0.368011
0.128669 0.147981 -0.156344
0.0155409 0.147981 0.42062
-0.169315 0.161787 0.22746
-0.181201 0.129181 -0.340822
-0.0939288 0.147981 0.0986555
-0.0162167 0.147981 0.25647
0.174253 -0.0718013 0.413952
-0.145417 0.161787 -0.0772569
-0.17171 0.120383 -0.230063
0.173252 0.0147998 -0.368011
-0.168528 0.161787 -0.314889
-0.0554264 0.147981 -0.186321
-0.181052 0.161787 0.148116
0.181201 0.145212 -0.199312
0.089539 0.147981 0.130788
-0.192383 -0.141382 -0.368011
-0.194144 0.161263 -0.253763
-0.0390275 0.147981 -0.310819
0.0485207 0.147981 0.21078
-0.0706827 0.147981 0.0107
-0.118037 0.161787 0.174913
0.17171 0.14437 0.0573746
-0.161591 0.161787 0.239441
0.194144 0.157414 0.232474
-0.0373418 0.161787 -0.0979193
0.0301988 0.147981 -0.142443
0.102456 0.147981 -0.293227
0.109047 0.147981 0.278533
0.0983177 0.147981 -0.125651
0.0586391 0.161787 0.409487
-0.17171 0.144654 -0.323986
0.0795554 0.161787 -0.392996
-0.015568 0.161787 -0.36615
-0.118225 0.161787 0.265021
-0.0322059 0.127073 0.400368
-0.168828 0.161787 0.0128642
-0.194144 0.0738988 -0.369353
-0.149159 0.147981 0.232831
-0.079867 0.161787 0.408823
0.130756 -0.0495642 -0.369723
-0.0305343 0.147981 0.39347
-0.17171 0.14762 -0.336227
-0.0558129 0.147981 0.263782
-0.0554634 0.161787 -0.378576
0.0996044 0.161787 -0.322719
-0.194144 0.0766275 0.382733
-0.00167339 0.114224 -0.40986
0.0603514 0.147981 -0.390798
0.168537 -0.161787 0.382227
-0.130883 0.0735461 0.381516
-0.0178794 0.147981 0.295675
-0.137605 0.161787 -0.252853
-0.0452594 0.147981 -0.302365
-0.122708 0.147981 -0.058487
-0.142379 0.147981 -0.327005
-0.00141312 0.161787 -0.276559
-0.172357 0.0985187 -0.414341
-0.135617 -0.0761986 -0.368011
-0.164845 0.161787 -0.172529
-0.154432 0.147981 -0.296615
-0.147169 0.161787 -0.316893
0.151419 0.161787 0.155757
-0.0719255 0.161787 0.305526
0.021609 0.161787 -0.307994
-0.181201 0.134802 0.180325
-0.0565406 0.147981 -0.419433
0.039915 0.161787 0.129282
-0.130929 0.093887 -0.385878
-0.131397 0.147981 0.224262
-0.131288 -0.156393 -0.419375
-0.170779 0.102573 -0.414666
-0.0690715 0.147981 -0.325579
0.177067 0.161787 -0.166071
0.141132 0.147981 -0.185145
0.00876833 0.161787 -0.367442
0.163014 0.057116 0.416264
0.036019 0.147981 0.185939
-0.181201 0.113996 0.132419
0.139966 0.147981 -0.252316
-0.00530352 0.161787 0.105648
-0.130826 -0.0878696 -0.376243
-0.175051 0.113467 -0.351113
-0.131259 0.0360619 -0.41663
-0.194144 -0.119949 -0.398855
0.17502 -0.146702 -0.413793
-0.166286 -0.136336 0.368011
-0.188557 0.161787 -0.154433
-0.181471 0.147981 0.0645597
0.0832177 0.161787 -0.156217
0.07071 0.146372 0.400368
-0.0914143 0.161787 -0.389592
-0.153832 -0.154047 0.368011
-0.131274 -0.134227 -0.4181
0.0816559 0.121104 0.40986
0.0437099 0.147981 0.411678
-0.174375 0.113467 0.357368
-0.167781 0.161787 -0.312268
-0.091565 0.161787 -0.262453
0.194144 0.160744 0.160577
-0.176705 0.161787 0.0861652
0.0315957 0.161787 -0.0140243
0.0951251 0.161787 0.11922
0.0611183 0.147981 0.157828
-0.063912 0.161787 -0.0982327
0.18739 0.0532409 -0.368011
0.181008 0.161787 0.300016
-0.121251 0.161787 0.280582
-0.174694 -0.161787 -0.40874
0.17171 0.119442 -0.00669578
-0.130923 -0.109068 0.385263
0.0975953 0.147981 -0.419558
-0.0274688 0.147981 0.0578717
0.0118931 0.141361 -0.400368
-0.101962 0.147981 -0.359455
-0.147265 0.161787 0.40095
0.0655563 0.147981 0.389724
-0.150138 -0.0610101 0.368011
0.194144 0.151182 -0.0813144
0.0202007 0.147981 0.0997372
-0.130911 -0.0279847 0.384198
0.194144 0.152174 -0.081417
0.0827272 0.161787 0.213194
0.17171 0.132735 0.0119781
-0.0597176 0.147981 -0.103367
0.144298 0.147981 -0.00531475
0.180977 0.113467 -0.0735899
-0.175252 -0.161787 -0.403745
-0.135311 0.161787 -0.279308
-0.192753 -0.102871 0.410146
-0.0626293 0.161787 -0.252916
-0.194144 0.0209554 0.38978
0.0888285 0.147981 -0.165828
0.162971 0.141021 0.416273
0.114838 0.147981 0.257233
0.127787 0.147981 -0.0984662
0.0293437 0.147981 0.156977
-0.117326 0.147981 0.261422
0.0583634 0.161787 -0.311195
0.154917 0.161787 0.0865161
-0.0313203 0.161787 0.184035
0.194144 0.147797 -0.401128
-0.131899 0.02816 0.421508
-0.0160935 0.161787 0.0138058
-0.148076 0.161787 0.143416
-0.143795 -0.0285536 -0.419514
0.175482 0.113467 -0.140215
-0.131237 0.0384683 -0.414626
-0.0473923 0.161787 0.302039
-0.0373921 0.147981 -0.326396
0.158917 0.147981 0.176011
-0.0367654 0.147981 0.21069
0.00387232 0.147981 0.236586
-0.0900863 0.135304 -0.40986
-0.0169565 0.161787 0.266563
-0.194144 -0.073736 0.379241
-0.194144 -0.02076 0.390994
0.194144 0.147957 0.400144
0.147491 0.161787 -0.21718
-0.138478 0.1075 0.420406
-0.190049 0.021513 -0.410702
-0.173264 0.161787 -0.384926
-0.118986 0.161787 0.0804938
0.0565043 0.147981 0.14543
-0.0598842 0.113467 0.4074
0.182649 0.161787 0.0831639
-0.0686151 0.161787 0.194993
-0.131065 0.0441466 -0.398585
-0.162373 -0.0212877 -0.416395
-0.125789 0.147981 0.115994
-0.181201 0.14103 -0.287973
-0.182241 -0.0966804 0.368011
-0.13005 0.161787 0.281479
-0.0622201 0.147981 -0.120829
-0.194144 0.156016 -0.245111
-0.0897527 0.147981 -0.248431
0.188614 0.0985482 0.368011
-0.00250267 0.161787 -0.34735
-0.194144 0.160848 -0.243411
-0.126735 0.147981 -0.367933
0.192106 0.0618282 -0.410278
0.0358343 0.161787 -0.0942774
-0.177511 0.113467 0.277448
0.103666 0.161787 -0.331686
-0.181201 0.138312 -0.121421
-0.0570653 0.147981 -0.213393
0.030968 0.161787 -0.257444
0.157565 0.0613865 -0.368011
-0.091813 0.147981 -0.284097
-0.144037 0.147981 -0.0704161
-0.0639999 0.147981 0.24858
-0.094767 0.147981 -0.200299
0.0103852 0.161787 0.29144
0.184945 0.0808046 -0.368011
0.131084 -0.010515 0.40036
-0.191341 0.161787 -0.252914
0.10071 0.113467 -0.40411
-0.103988 0.161787 0.413637
0.12957 0.147981 -0.173631
-0.0310972 0.161787 0.029111
-0.0508123 0.161787 -0.260651
0.128859 0.147981 0.327517
0.134367 0.161787 -0.0969549
0.194144 -0.0116974 0.370201
0.0105868 0.134457 -0.400368
-0.194144 0.122884 -0.368411
-0.175321 -0.0328343 -0.368011
-0.194144 0.158065 0.14209
0.0907131 0.161787 -0.232849
0.0278063 0.161787 0.138034
0.0728007 0.147981 -0.283356
0.151074 0.161787 -0.313439
-0.155029 0.161787 0.142667
0.0658367 0.147981 -0.375111
0.0364184 0.161787 -0.171988
-0.194144 -0.0970724 0.379159
-0.167415 0.0619423 0.368011
0.194144 -0.0399357 0.382022
0.0784123 0.161787 0.379761
0.151894 0.161787 -0.147639
-0.178189 0.113467 0.36289
0.155287 0.147981 0.193507
-0.0179699 0.161787 0.112261
-0.141069 0.147981 -0.218298
-0.00724225 0.147981 0.296034
-0.0706942 0.161787 0.204167
-0.168667 0.161787 0.318202
0.0878644 0.161787 0.367407
-0.0627671 0.161787 0.21676
0.00167761 0.147981 0.239103
0.0863188 0.147981 0.126172
0.0893199 0.147981 -0.254823
0.0504817 0.147981 -0.170221
-0.0133217 0.147981 -0.19943
0.181201 0.130118 0.151927
0.160038 0.147981 0.230603
0.13107 0.121087 -0.39898
0.130978 -0.113674 -0.390444
-0.141782 -0.106325 -0.368011
-0.0996332 0.143704 -0.400368
0.155291 0.147981 -0.157564
0.0435036 0.161787 0.384579
0.17171 0.134479 0.265812
0.130885 -0.0903008 0.381692
0.179824 0.137458 0.366717
-0.175661 -0.113403 -0.368011
0.107978 0.15437 0.424684
-0.168746 0.161787 -0.0863757
0.124855 0.147981 -0.251183
-0.122661 0.147981 -0.0721518
0.0520933 0.147981 0.25207
0.194144 -0.0536676 0.369624
0.145538 0.0736556 0.419223
-0.111642 0.161787 -0.0139416
-0.190254 0.147981 -0.256561
-0.16794 0.161787 -0.20208
0.0549798 0.147981 -0.0335874
0.17171 0.126633 0.0158703
-0.147178 0.161787 0.102668
0.168893 0.0724235 0.415055
0.0712064 0.147981 -0.146628
0.13111 -0.0915232 -0.402785
-0.00868038 0.147981 -0.369603
0.0576335 0.147981 -0.302922
0.131167 -0.0154007 0.408084
-0.124667 0.147981 0.337727
0.0372347 0.147981 0.384197
0.192144 0.147981 0.31793
0.158844 -0.0236805 0.416994
0.0529216 0.147981 -0.384429
0.0201378 0.147981 0.248937
0.181201 0.115673 0.00137059
0.158097 0.161787 -0.0471511
0.173098 0.161787 -0.047971
0.17376 -0.132298 0.414053
0.184409 0.161787 4.5985e-05
0.158966 0.147981 -0.00443621
-0.17171 0.1203 -0.0978594
0.0738528 0.161787 -0.412092
-0.168154 0.0366097 0.415206
0.151892 0.147981 -0.103648
-0.102409 0.147981 -0.197929
0.0126354 0.161787 0.0901478
-0.194144 0.158391 -0.0123916
-0.178464 -0.161787 0.384065
-0.194144 0.161242 -0.183836
0.00784954 0.147981 -0.358685
-0.160806 0.147981 -0.104696
0.177355 -0.161787 0.385221
-0.0328829 0.147981 0.253437
0.150898 0.161787 0.292303
-0.0722471 0.147981 -0.233395
0.0440095 0.161787 -0.136612
0.0311795 0.115664 -0.400368
-0.0720481 0.147981 0.145813
0.0325992 0.161787 -0.0857187
0.10989 0.147981 0.00558805
0.0398275 0.147981 -0.141289
0.129821 0.145654 0.403291
-0.17171 0.128147 -0.165462
-0.124069 0.147981 0.227923
0.0939714 0.147981 0.0534925
0.0337417 0.161787 -0.0434367
0.130959 0.121343 -0.388613
-0.175803 0.113467 0.109568
-0.162371 0.147981 -0.307345
-0.0646179 0.161787 0.0162531
0.0934843 0.147981 0.250757
0.181201 0.122762 0.029536
-0.114197 0.161787 -0.342548
0.088353 0.147981 -0.425334
-0.165774 0.161787 -0.0420461
0.164289 0.0441871 0.368011
0.159098 0.147981 -0.10854
0.0651285 0.147981 0.261905
-0.0102227 0.161787 0.170379
0.0461005 0.147981 -0.227018
-0.17171 0.141924 0.319472
0.178637 0.161787 0.079746
0.177181 0.113467 0.000226486
-0.17171 0.137757 -0.0427965
0.0796544 0.147981 0.354091
0.155824 0.0342113 0.368011
0.00903342 0.161787 -0.356844
0.0258686 0.161787 -0.0829153
-0.194144 0.10457 0.392696
-0.0763174 0.161787 0.289199
-0.0437659 0.158846 0.430212
0.134789 -0.111946 -0.421023
-0.145914 0.161787 0.320252
-0.15903 -0.000503153 -0.416962
-0.00336261 0.161787 -0.0332895
0.17171 0.131338 0.310621
0.0924505 0.147981 0.379752
-0.129052 0.147981 -0.210558
0.0879591 0.147981 0.204135
0.170009 0.161787 0.298451
-0.0709712 0.147981 -0.162847
-0.180165 -0.128315 -0.412735
0.194144 0.103124 0.395016
-0.131304 0.0823024 -0.420887
0.161849 0.147981 -0.14765
-0.131059 0.106259 0.397981
-0.0503819 0.147981 -0.185128
-0.126118 0.161787 0.40942
0.00184846 0.161787 0.145684
-0.15151 0.103127 -0.418222
-0.1935 0.161787 0.0776925
-0.0444377 0.161787 -0.251275
0.16464 0.147981 -0.00274676
-0.128792 0.161787 -0.216066
-0.104076 0.161787 -0.041096
-0.0355943 0.161787 -0.00342144
-0.164228 0.147981 -0.0376245
0.00361054 0.161787 0.0229719
0.145574 0.161787 0.270709
0.0754467 0.134456 0.400368
-0.134156 0.161787 0.0643446
-0.168304 0.161787 -0.243825
0.189119 0.120427 -0.410893
0.131171 0.00241521 -0.408401
0.144998 0.147981 0.102946
0.131184 0.0797618 0.409618
0.0138277 0.147981 0.0766344
-0.189957 0.0313199 -0.368011
0.144506 0.147981 -0.19221
0.18555 0.147981 0.0475287
-0.181201 0.137938 0.310008
0.022964 0.147981 -0.187923
0.0444384 0.161787 0.129276
-0.17171 0.138051 0.151341
0.130961 -0.00629482 -0.388868
-0.140002 0.161787 -0.0561368
-0.0880823 0.161787 -0.0742527
-0.0268099 0.147981 0.286663
0.00861244 0.147981 -0.208458
0.0904174 0.161787 0.365501
-0.191143 0.147981 -0.241537
-0.0581276 0.161787 -0.358407
-0.130986 -0.161039 -0.391201
-0.0695329 0.147981 -0.321373
0.0676649 0.147981 -0.181936
-0.113807 0.161787 -0.295577
0.0111776 0.147981 -0.0741512
-0.143358 0.0647741 0.419588
-0.0519137 0.161787 -0.37522
-0.111497 0.147981 -0.18198
0.0757758 0.161787 0.423126
0.0711232 0.147981 0.345533
0.194144 0.144275 -0.406014
0.173632 0.103008 -0.368011
-0.194144 -0.0898344 0.408178
0.145561 0.147981 0.130355
-0.132185 0.147981 -0.0157846
0.110408 0.147981 0.0385587
-0.159928 0.0383851 0.416812
0.0647869 0.147981 0.393452
-0.164023 0.147981 -0.216241
0.0595354 0.147981 0.340082
0.171175 -0.0993587 0.414585
-0.151781 0.147981 -0.171003
-0.0466142 0.161787 -0.42798
-0.181201 0.126016 -0.212902
-0.17171 0.120809 -0.297216
-0.126995 0.161787 -0.310362
-0.103618 0.147981 -0.21724
0.153376 0.161787 -0.345309
-0.02073 0.133943 -0.400368
-0.00241283 0.161787 -0.036416
0.159173 0.147981 0.00603832
0.0682683 0.161787 0.159412
-0.0776988 0.161787 0.358817
-0.159607 -0.161787 0.379686
0.181201 0.117802 -0.249142
0.0730216 0.126901 -0.40986
0.0935064 0.130586 0.40986
0.106726 0.161787 0.154906
0.0213639 0.147981 -0.320688
0.137275 0.147981 -0.0790279
0.102169 0.161787 -0.17467
0.00545682 0.147981 -0.0398048
-0.194144 0.124293 0.372519
0.168099 -0.082565 -0.415217
-0.00215944 0.161787 -0.135838
-0.191292 0.161787 -0.392976
-0.0971771 0.161787 0.256343
-0.130982 0.130021 0.390775
0.00470599 0.161787 0.204009
-0.111294 0.142894 -0.400368
-0.156689 0.161787 -0.0838914
-0.0653681 0.161787 -0.394808
0.0952015 0.147981 0.238193
-0.088802 0.161787 -0.408863
-0.132923 -0.0706543 0.421336
-0.0707921 0.147981 -0.0210914
0.109847 0.132772 0.400368
-0.181201 0.127864 -0.204604
0.047998 0.161787 -0.28792
0.139553 0.161787 -0.0627256
-0.0385417 0.147981 -0.366082
0.062394 0.147981 0.32627
0.0285762 0.147981 -0.411273
0.17171 0.135888 0.14533
-0.00258652 0.147981 0.399381
-0.0452171 0.147981 0.150138
0.0366196 0.147981 -0.189237
0.131193 0.0965695 -0.410502
-0.145215 0.161787 -0.157835
0.183325 -0.0250554 -0.368011
-0.170619 -0.161787 -0.413064
0.154712 0.147981 -0.36478
0.103943 0.161787 0.198384
-0.0689866 0.161787 -0.323845
0.180756 0.0835872 0.412614
-0.0230221 0.147981 0.295966
0.177461 0.113467 0.241849
0.184658 0.0256112 0.368011
0.158467 -0.0974114 0.417057
-0.148309 -0.0358588 0.368011
-0.0561357 0.147981 0.0807069
0.181201 0.136351 -0.00758529
0.1383 0.161787 0.28825
-0.0700071 0.147981 -0.00845688
0.0383302 0.147981 -0.133791
-0.181201 0.130939 0.211127
-0.111219 0.161787 0.14061
0.182315 0.147981 -0.194883
0.194144 0.134904 0.373098
0.135595 -0.140434 -0.368011
0.166197 0.161787 -0.0984229
-0.194144 0.156535 0.0544807
0.126773 0.118488 0.40986
-0.128659 0.147981 0.0197636
0.193176 0.161787 0.152139
-0.131241 -0.0109247 0.41493
-0.108542 0.161787 -0.158855
-0.169105 -0.0404312 0.368011
-0.0665613 0.161787 -0.340489
-0.149228 -0.0322655 0.418605
0.160231 -0.00395982 -0.416761
0.113573 0.147981 0.296795
0.0691721 0.161787 0.168572
0.0990981 0.161787 0.0585752
0.188447 0.147981 -0.357741
-0.0254063 0.161787 -0.382302
-0.0179787 0.147981 0.200621
-0.0865654 0.142986 -0.40986
0.0363313 0.147981 -0.115278
0.170607 -0.0136519 0.368011
-0.0336193 0.161787 0.0589643
0.158732 -0.0712832 0.368011
-0.176499 0.159158 0.368011
0.194144 0.159887 0.109742
-0.173373 0.0680943 -0.368011
-0.109248 0.161787 0.121284
0.194144 -0.0620534 -0.402288
0.0814067 0.147981 0.147338
-0.139068 -0.0470795 -0.368011
0.12007 0.147981 -0.147029
-0.143479 0.161787 -0.23838
0.0683257 0.161787 -0.219142
0.179548 -0.0904975 0.412863
0.149987 0.0160661 0.418478
0.172801 0.113467 -0.199616
0.0065655 0.161787 0.360455
-0.173018 0.161787 0.315447
-0.0446936 0.147981 -0.00126134
-0.146069 -0.0669568 0.419134
-0.0796588 0.147981 0.138625
0.192118 -0.106251 -0.410276
-0.180551 0.113467 0.178346
0.153813 -0.0099368 -0.417836
0.0159631 0.161787 -0.169
-0.13093 -0.0584016 -0.385964
0.139849 -0.0432084 -0.368011
0.130881 -0.0387954 -0.381355
0.168533 -0.0511588 0.368011
-0.0969379 0.147981 0.281305
0.00796623 0.161787 -0.311154
-0.0445495 0.147981 0.0681278
0.000410885 0.147981 -0.349734
0.138557 0.147981 0.192796
0.032765 0.147981 -0.369769
-0.140203 -0.00766676 -0.368011
-0.174083 -0.101446 -0.413986
0.156732 0.161787 -0.143148
0.110333 0.161787 -0.297122
0.125661 0.147981 0.272009
0.179426 -0.103732 0.412888
0.17171 0.132611 0.181318
-0.164949 0.0537333 -0.415865
0.194144 0.0946289 0.371899
0.066199 0.161787 -0.239591
-0.0701515 0.137264 -0.40986
-0.177202 -0.10001 -0.413345
0.17171 0.136292 0.259411
0.0778713 0.138545 -0.400368
-0.15637 -0.0352495 0.368011
0.0141855 0.142945 -0.400368
-0.17171 0.124817 -0.281484
0.194144 0.109832 -0.400488
0.0803037 0.161787 -0.135067
-0.0221489 0.147981 0.323418
-0.00267982 0.147981 -0.337014
-0.135807 -0.159049 -0.368011
0.168 0.159771 -0.366717
0.126407 0.161787 0.326473
0.0293547 0.161787 -0.407457
0.175927 0.0862978 0.413608
0.155642 0.00717634 -0.368011
0.158998 0.0546668 0.416968
0.0702145 0.147981 0.225473
-0.176383 0.158149 0.366717
-0.0280736 0.147981 0.349225
-0.17171 0.116813 0.0693334
-0.17171 0.143217 0.319185
0.0661504 0.147981 0.134744
-0.16404 0.147981 0.267602
0.0629581 0.161787 -0.221639
0.159341 0.161787 -0.109394
0.194144 0.154261 -0.197718
0.147964 -0.080326 -0.368011
-0.102812 0.161787 0.0989231
0.181201 0.116515 0.24925
-0.0267426 0.161787 -0.198271
0.158016 0.147981 -0.358365
0.17171 0.135422 0.239861
0.0655745 0.161787 -0.160885
0.15779 0.147981 0.210507
-0.0651327 0.161787 0.0215753
-0.110664 0.161787 0.142507
0.0997147 0.161787 -0.0228783
-0.130748 0.0590605 -0.368927
0.17171 0.115988 -0.245887
0.0464163 0.147981 -0.419759
0.000103196 0.161787 0.379237
0.150709 0.147981 0.242118
0.181201 0.123855 0.0652243
-0.0480999 0.147981 -0.395639
-0.0896036 0.161787 0.0237069
0.180208 -0.0502798 -0.368011
-0.124011 0.161787 0.225724
-0.135955 -0.140759 0.368011
-0.130976 0.0819508 -0.390224
0.182744 0.146866 -0.412204
0.0151495 0.147981 0.208227
-0.0668072 0.161787 -0.11132
0.107982 0.147981 0.365837
0.0948101 0.147981 -0.228685
-0.186433 0.161787 0.111709
-0.194144 0.141183 -0.379421
0.030517 0.161787 0.221649
0.194144 -0.0136945 0.377053
-0.194144 -0.0738072 -0.368408
0.130942 0.161787 -0.304203
-0.17171 0.122645 -0.358287
-0.130925 0.0924095 -0.385447
0.178908 0.161787 0.188584
-0.034563 0.147981 -0.131534
-0.0728342 0.147981 0.143907
0.0430557 0.147981 0.422519
0.130956 0.110009 -0.3884
0.181577 0.147981 -0.0489494
0.131022 0.00239267 0.394524
-0.194144 0.124442 -0.372599
0.182565 -0.141612 0.412242
0.120596 0.147981 0.208879
0.131062 0.137288 0.398232
-0.194144 0.149773 0.194656
0.194144 0.132952 0.403933
0.060121 0.161787 -0.307487
0.186297 -0.0815983 -0.411473
0.179855 0.161787 -0.347487
0.0728474 0.161787 -0.335507
0.134762 0.161787 -0.32401
0.0768746 0.161787 -0.133311
-0.163925 0.147981 0.311276
-0.188565 0.161787 -0.342114
0.17171 0.133162 0.213654
0.107626 0.161787 -0.0376295
-0.0672604 0.161787 0.2411
-0.0887537 0.161787 -0.29964
0.0370228 0.161787 0.227228
0.130653 0.161787 0.0968711
-0.0624847 0.161787 -0.0594636
0.0588201 0.161787 -0.222953
0.18483 0.0596172 -0.411775
-0.0954204 0.147981 0.00630694
0.190579 0.139218 -0.410592
-0.166312 0.147981 0.2631
-0.103937 0.161787 -0.14609
-0.0103673 0.161787 -0.373037
0.177916 0.161787 0.349948
-0.0870002 0.161787 0.400316
-0.181201 0.140898 -0.316656
-0.0673892 0.147981 0.253808
0.031611 0.147981 -0.353307
0.181201 0.140806 -0.226253
-0.188068 -0.160851 -0.368011
-0.178647 -0.0881686 0.368011
0.0020327 0.147981 -0.16868
-0.194144 0.140044 -0.385704
-0.0693561 0.147981 -0.200246
-0.0264214 0.147981 0.373547
-0.194144 0.155153 -0.319449
0.0145405 0.161787 -0.345402
0.175908 0.161787 -0.194371
0.166917 -0.0309415 -0.368011
-0.147091 0.15186 0.368011
-0.186564 -0.143856 0.368011
-0.165054 -0.0912158 -0.368011
-0.16842 0.147981 0.181241
0.16811 0.161787 0.19911
-0.193516 0.161787 -0.114144
0.17307 0.113467 -0.223276
0.181201 0.128673 -0.140615
-0.181201 0.142665 0.134856
0.020437 0.147981 -0.391833
0.174475 0.113467 0.0165563
0.17171 0.120444 0.149191
-0.0137928 0.161787 0.0157075
-0.0608283 0.147981 0.245306
-0.17919 -0.0765321 0.368011
-0.0635529 0.161787 0.278786
0.0435374 0.161787 0.0495061
0.0199621 0.161787 -0.0658352
-0.0730704 0.161787 0.36711
-0.145882 0.147981 0.219497
0.194144 0.152138 -0.153534
0.00399035 0.147981 0.0795921
0.174896 0.161787 0.079019
-0.177049 0.109353 -0.368011
-0.0463631 0.161787 -0.208286
-0.17171 0.128378 0.172592
0.052372 0.161787 0.374967
-0.11693 0.161787 -0.207799
0.194144 0.151195 -0.20083
0.0321446 0.161787 -0.0488693
-0.101517 0.147981 -0.370296
0.0832755 0.147981 0.240448
0.131094 0.142995 -0.401273
0.0585731 0.147981 -0.070919
0.0590153 0.147981 0.231007
0.194144 0.158563 0.0408331
-0.16371 -0.0505697 0.416121
-0.0811066 0.161787 0.419332
-0.023494 0.161787 -0.102065
-0.092732 0.147981 0.353761
0.0822036 0.161787 0.329593
0.099277 0.142963 -0.40986
0.0354353 0.147981 0.101789
0.0612622 0.147981 0.26686
-0.0988267 0.161787 -0.31938
0.017911 0.147981 -0.286088
-0.181201 0.138433 -0.276588
0.192642 0.147981 0.0540283
0.150631 0.0122728 0.368011
-0.17171 0.129577 -0.279431
-0.152615 0.147981 -0.356757
-0.165526 0.147981 0.231891
-0.0350354 0.147981 -0.288467
0.188999 -0.0977142 -0.368011
0.17171 0.133501 -0.365747
-0.0164087 0.147981 -0.18334
-0.086056 0.161787 -0.183455
-0.157194 0.147981 0.362706
0.132692 0.0326109 0.368011
0.00264874 0.147981 -0.299849
0.0499705 0.113467 -0.40231
0.194144 -0.0771838 -0.37596
0.181201 0.135892 -0.262274
-0.194144 -0.140908 -0.387848
0.0501415 0.147981 0.42763
0.00762031 0.161787 0.372126
0.109229 0.147981 -0.0672875
-0.161389 0.0834218 0.368011
-0.0866651 0.161787 -0.167745
-0.16577 -0.149993 0.415697
0.0132124 0.124094 0.400368
0.0816778 0.161787 0.135847
0.130995 -0.0311206 0.39196
-0.00143222 0.161787 -0.0651002
0.194144 0.138055 0.370781
0.175266 -0.082733 -0.368011
0.147073 0.161787 0.0352772
-0.139509 -0.133097 0.420233
0.036875 0.161787 -0.259661
0.160072 0.161787 -0.0773478
-0.0491452 0.147981 0.187805
0.181603 0.147981 0.185405
-0.0258725 0.161787 0.301238
0.181571 -0.142421 -0.368011
-0.10058 0.161787 0.334108
-0.115921 0.147981 0.0175871
-0.131122 0.0687306 -0.403911
0.138577 -0.0965899 0.368011
-0.033011 0.147981 -0.38193
-0.161735 -0.102292 0.368011
-0.13088 -0.0452347 -0.381303
-0.136644 0.161787 -0.0155711
0.00463923 0.161787 -0.116021
0.0662958 0.147981 -0.286996
0.0870948 0.161787 0.40003
0.181201 0.123903 0.130323
0.121248 0.147981 0.385531
0.131054 -0.110701 -0.397523
0.173768 0.161787 -0.3572
-0.168741 0.0132817 0.368011
0.0988036 0.161787 -0.348672
0.0102977 0.15875 0.431241
0.181201 0.13909 0.223227
-0.181201 0.145792 -0.304372
-0.194144 0.077403 -0.396829
0.0032632 0.161787 0.245159
0.0979158 0.161787 -0.101708
0.0947425 0.161787 0.151997
-0.184797 0.0244531 0.411783
-0.131279 0.0652177 -0.418518
0.133084 0.147981 -0.189117
0.181365 0.161787 -0.154377
-0.181201 0.119096 0.127859
0.181376 0.151592 0.366717
-0.0964832 0.147981 -0.294326
0.17171 0.127058 -0.34572
0.0566925 0.147981 -0.336046
-0.0615493 0.161787 -0.0252039
-0.133479 -0.0536566 -0.368011
-0.097827 0.161787 0.341025
0.134496 0.147981 -0.0667745
0.194144 0.0138981 0.397136
0.159358 0.137561 -0.368011
-0.110827 0.147981 0.206668
0.117228 0.147981 -0.235885
0.181201 0.142453 0.0420067
0.105719 0.147981 0.411638
-0.0607789 0.147981 0.313856
0.0413746 0.161787 -0.0980225
0.17171 0.139075 -0.209503
-0.0231138 0.147981 -0.332498
-0.148736 0.147981 -0.238275
0.143408 -0.0351938 -0.368011
-0.194144 0.149984 -0.0674456
-0.100608 0.161787 0.290259
-0.194144 -0.0543402 -0.385444
0.0402906 0.161787 -0.0362724
0.177015 -0.0901471 0.413384
-0.145483 0.0947613 -0.368011
0.13085 0.0904896 0.378432
0.174518 -0.0477108 0.413897
-0.17171 0.144783 0.225538
0.0943639 0.161787 -0.263726
0.111449 0.147981 0.378984
0.148113 0.147981 0.231746
0.194144 0.0626922 -0.389976
-0.153893 -0.161787 -0.415276
-0.109377 0.147981 0.251777
0.161624 0.0126457 -0.416527
-0.188137 -0.114928 -0.368011
0.172522 0.113467 -0.342837
-0.00180752 0.147981 -0.0323688
0.141018 -0.161787 -0.3785
-0.179189 -0.161787 -0.396735
-0.158437 0.0258614 0.368011
0.132266 -0.0762757 -0.368011
-0.115601 0.147981 0.232882
0.131214 0.121101 0.412497
0.123631 0.147981 0.141713
0.154915 -0.0960771 -0.417651
-0.148663 -0.108309 -0.368011
-0.141421 0.145929 -0.419912
0.151332 -0.122816 0.418252
-0.194144 -0.0866082 0.403252
-0.134631 0.147981 0.212177
0.0893332 0.147981 0.204829
-0.153141 0.161787 -0.397331
-0.186912 0.147981 -0.0525235
-0.101539 0.161787 -0.326521
0.180354 0.161787 0.316045
-0.0953159 0.147981 0.348822
0.130936 0.0102519 -0.386504
0.0560309 0.161787 -0.377474
-0.17171 0.143156 -0.144437
0.175392 -0.105371 0.413718
0.157363 -0.0209695 -0.417241
0.00944598 0.161787 -0.196054
-0.0153803 0.147981 0.0334978
0.17171 0.139157 -0.275288
0.162379 0.0474641 -0.416394
-0.150418 0.161787 -0.100579
0.0240549 0.161787 -0.0624193
0.131186 0.0725395 0.409853
0.17171 0.114969 0.294476
-0.169185 0.161787 0.320793
-0.0569619 0.161787 0.268658
-0.0465883 0.161787 -0.408915
0.153692 -0.0911448 0.368011
-0.0197676 0.12811 0.400368
0.0286659 0.161787 0.0775256
0.0270661 0.161787 0.273894
0.178554 0.161787 0.371275
0.156198 0.161787 0.142353
-0.0372749 0.161787 -0.0909329
-0.0998294 0.133067 0.40986
-0.119797 0.147981 -0.243127
0.173325 0.0253134 0.414143
0.181201 0.139023 0.290372
0.0334223 0.147981 0.288618
-0.0731887 0.161787 -0.262234
0.108749 0.147981 0.34208
-0.146 0.10604 0.368011
-0.12013 0.161787 -0.146923
-0.194144 0.106085 -0.402636
0.109744 0.147981 -0.241823
-0.17406 0.113467 -0.301121
0.194144 0.131065 -0.393718
-0.000819832 0.161787 0.320675
-0.0804521 0.147981 0.139727
-0.190697 0.0772572 -0.410569
-0.17171 0.142244 0.30672
-0.181367 0.161787 0.209221
0.0402551 0.147981 -0.296457
0.17115 -0.148353 0.368011
0.154723 -0.0760748 0.368011
0.130758 0.031306 -0.368011
0.0686443 0.161787 -0.271453
0.179888 0.0120656 -0.412792
0.117376 0.161787 -0.374695
-0.143479 0.147981 0.043401
0.0203183 0.147981 -0.16709
0.179357 0.161787 -0.187724
0.0172411 0.147981 -0.230169
-0.0599034 0.161787 -0.179866
-0.17171 0.144303 -0.0317561
0.194144 0.0848711 0.407972
-0.054661 0.161787 0.13702
0.194144 0.154072 -0.175914
-0.00163317 0.147981 0.0569305
-0.177991 -0.123544 0.368011
0.159343 0.161787 0.0554779
0.194144 0.106947 -0.39841
-0.136385 0.148236 0.368011
-0.0617217 0.147981 0.308401
0.102564 0.161787 -0.219817
-0.0690707 0.147981 -0.182092
0.0271933 0.161787 0.283142
0.130792 -0.113152 -0.373085
-0.13915 0.147981 -0.347599
-0.194144 0.123553 0.399564
0.181999 0.161787 0.246191
0.194144 0.160943 -0.214052
0.0778109 0.161787 -0.265548
-0.116341 0.147981 0.161767
0.194144 -0.0310455 0.400407
0.11339 0.161787 0.076744
-0.128353 0.161787 -0.314833
-0.162275 0.147981 -0.0330008
0.0633706 0.147981 0.0785204
0.181201 0.141997 0.0142668
-0.153804 0.161787 -0.276341
0.0511115 0.12732 0.400368
0.134456 0.161787 0.2307
0.164624 0.147981 -0.113
0.103387 0.161787 0.385325
0.0125523 0.161787 -0.396967
-0.0577333 0.161787 0.281844
0.162315 -0.0133398 0.416408
-0.0594108 0.15628 -0.429346
0.193644 0.161787 0.265208
0.162923 -0.0044995 -0.416282
0.0828681 0.147981 -0.154224
0.155663 -0.0671535 -0.368011
-0.130948 -0.077012 -0.387598
-0.178163 -0.109305 0.368011
-0.0742946 0.147981 -0.0760116
-0.0832229 0.147981 0.293496
0.13748 0.127697 0.420573
-0.0125775 0.161787 -0.0621967
0.183848 0.146271 -0.368011
0.150221 0.0106085 -0.368011
0.158944 -0.026182 -0.416976
-0.0815297 0.147981 -0.365821
-0.153184 -0.121117 -0.368011
0.17171 0.119565 0.0128692
0.181201 0.1338 -0.0188263
-0.129587 0.161787 0.011205
0.181201 0.136582 0.0702587
0.087011 0.147981 -0.324927
-0.0205141 0.161787 -0.219012
0.17171 0.146284 0.0837976
0.100906 0.161787 -0.399818
0.0805651 0.161787 -0.00220721
0.0367052 0.161787 0.228661
0.163078 0.135444 0.416251
-0.188434 0.147981 0.251041
0.130917 -0.0784605 -0.384698
-0.0167188 0.161787 -0.0401895
-0.145495 0.0701782 -0.368011
-0.194144 0.150551 0.30917
-0.142055 0.147981 -0.107176
0.159329 -0.0668902 0.416913
0.183375 0.147981 0.0581558
0.194144 0.0724012 0.396367
-0.0549235 0.161787 -0.382181
-0.17171 0.121775 0.264
-0.194144 -0.141781 0.380927
-0.0925954 0.161787 -0.111549
0.161867 -0.023355 -0.368011
-0.131188 0.072773 0.410029
-0.0894633 0.161787 0.151004
0.181201 0.142632 -0.276247
-0.194144 0.107701 0.394614
-0.112374 0.161787 0.0551985
0.194144 0.154559 -0.0785565
-0.176999 0.113467 -0.30822
0.138321 -0.0321738 0.420432
0.111315 0.147981 0.00227876
-0.187766 -0.131311 0.368011
0.194144 0.0660274 0.402052
0.0221603 0.161787 0.262651
-0.192384 -0.0638973 -0.410222
-0.157714 0.161787 0.379556
0.122209 0.147981 0.415647
0.135071 0.0745528 -0.368011
0.163586 -0.048606 0.416146
-0.10632 0.161787 0.239922
0.12834 0.161787 -0.412713
0.166737 0.147981 0.15262
0.0633796 0.161787 0.249453
0.0876369 0.121272 0.40986
0.143853 -0.153744 -0.368011
0.17171 0.141011 0.11403
0.170857 -0.152279 -0.368011
-0.0393197 0.145404 -0.40986
-0.194144 -0.121153 -0.397887
0.194144 -0.0231466 0.375249
-0.191 0.147981 -0.0276606
0.181231 0.147981 0.161775
-0.0920585 0.133048 -0.40986
0.073225 0.161787 -0.260438
-0.14702 0.161787 0.0494941
0.0804958 0.161787 -0.190588
0.0945175 0.161787 0.185185
0.00380607 0.161787 0.312
0.194144 -0.155359 0.390179
0.108145 0.147981 0.03169
0.0638516 0.147981 0.231792
0.0130245 0.161787 -0.17595
0.0118008 0.161787 -0.342908
-0.0507018 0.11989 0.400368
0.0420191 0.161787 0.0645327
-0.0668865 0.147981 0.369943
0.16386 0.147981 0.280184
0.194144 0.0299421 0.395212
-0.166778 0.0864019 0.415489
-0.169831 0.0755267 -0.368011
-0.0643104 0.161787 -0.136637
-0.121848 0.147981 -0.364548
-0.0292401 0.147981 -0.377801
0.0852341 0.128842 -0.400368
-0.0440385 0.161787 -0.262259
0.130922 -0.0177377 -0.385225
-0.1886 0.11574 -0.368011
0.0945922 0.160702 0.426307
-0.194144 0.0469623 0.397637
0.147705 0.161787 -0.204461
-0.162386 -0.0940275 0.368011
0.0644098 0.147981 -0.0554095
-0.0515178 0.161787 0.0706947
-0.164851 0.048241 -0.415885
0.102064 0.161787 0.103706
0.191963 0.147981 0.226268
-0.120027 0.147981 -0.217557
0.050468 0.161787 -0.212919
-0.0468061 0.135036 0.40986
0.0973096 0.113467 -0.40321
-0.13114 0.0424473 0.405569
-0.0625579 0.161787 0.130182
0.16724 0.128579 0.368011
-0.0610829 0.147981 0.249999
-0.181201 0.12721 0.345785
-0.0604666 0.161787 0.40721
0.145785 0.147981 0.343213
0.0491853 0.147981 -0.0578879
0.10755 0.161787 -0.364448
0.17171 0.119408 -0.0910211
-0.091544 0.161787 0.131241
-0.191443 0.161787 0.140384
0.0756288 0.161787 0.00709392
0.171576 0.0405335 0.414503
-0.181201 0.136263 -0.316312
0.181201 0.126955 -0.336108
0.181201 0.128227 0.0313602
-0.0874438 0.161787 -0.220433
-0.0544122 0.161787 0.399985
0.005952 0.161787 0.42547
0.13091 0.113806 -0.384051
-0.194144 -0.11809 -0.379378
-0.191984 0.0382501 -0.368011
0.159434 0.161787 -0.265842
-0.175999 0.113467 0.217816
-0.111126 0.161787 0.0777318
0.182208 0.161787 -0.127027
0.181201 0.140893 0.163636
-0.0600751 0.147981 0.207481
0.0443437 0.147981 -0.228244
-0.194144 -0.126368 -0.405921
-0.17171 0.137539 0.164654
0.131265 0.0709252 -0.417187
0.151234 0.147981 -0.359483
-0.103066 0.161787 -0.218759
0.172129 0.113467 -0.1333
0.0414838 0.161787 0.164298
0.180303 -0.109794 0.368011
0.150002 0.161787 -0.281123
0.17965 0.056943 0.368011
0.085499 0.147981 -0.212942
-0.194144 -0.125414 0.387638
-0.0802557 0.147981 -0.033239
-0.067152 0.147981 -0.19807
-0.16996 0.161787 -0.0328939
0.107396 0.161787 0.36589
-0.0896389 0.147981 0.199523
-0.181201 0.143727 -0.194273
-0.00279507 0.161787 -0.155623
-0.17171 0.122603 0.0586585
0.13985 -0.112354 0.420176
-0.0774545 0.161787 -0.203524
-0.135911 -0.0768958 0.420836
0.0657616 0.147981 0.364877
-0.00801659 0.147981 -0.212483
0.129393 0.161787 -0.073276
0.127468 0.161787 0.0258586
-0.181201 0.125875 0.177899
-0.104209 0.142471 0.40986
0.0731099 0.147981 -0.0828485
-0.183398 -0.0204746 -0.41207
0.137799 0.145522 -0.368011
0.176011 0.161787 -0.0519963
-0.100114 0.161787 0.116099
-0.0858273 0.161787 0.0867206
0.174805 0.160139 -0.413837
0.0117795 0.147981 0.23302
-0.0370742 0.161787 -0.306122
0.00956131 0.147981 0.0227308
0.0448141 0.147981 -0.182135
-0.175067 0.149728 0.368011
0.0291767 0.161787 0.30459
-0.08772 0.147981 0.110204
0.166084 0.0927618 -0.415631
-0.0461228 0.161787 -0.0766554
0.179456 0.136931 -0.41288
0.194144 -0.0639527 -0.394359
-0.0728767 0.161787 0.135428
-0.0532939 0.161441 0.429685
0.16972 0.0606035 -0.368011
0.168686 0.147981 0.0414039
0.0553857 0.161787 0.0261592
0.100341 0.147981 0.37743
0.181201 0.130981 -0.347498
0.169411 0.161787 0.373579
-0.174618 0.161787 -0.167192
0.0557861 0.147981 -0.212704
0.159429 0.0216339 -0.416895
-0.0561191 0.161787 -0.166187
-0.17171 0.145954 -0.0203623
-0.190179 -0.0547312 -0.368011
-0.131093 -0.00684466 -0.4012
-0.101245 0.147981 0.30721
-0.18847 -0.161787 -0.389202
-0.131054 -0.1443 -0.397505
0.17171 0.130884 0.272617
0.188863 0.161787 -0.143782
0.134855 -0.0288386 -0.368011
-0.0447598 0.147981 -0.0248373
-0.187082 0.147981 0.134643
-0.163963 0.161787 0.160523
0.194144 0.151965 -0.179556
-0.0660272 0.147981 0.0323418
0.147961 -0.106871 0.368011
-0.0607473 0.147981 -0.0683806
-0.0668383 0.142616 0.40986
0.194144 0.156234 0.341793
-0.0567901 0.161787 0.222673
0.130756 0.100052 -0.369669
-0.182951 0.130517 0.368011
-0.00107172 0.161787 0.210044
-0.138853 0.147981 -0.273536
0.131067 0.0500782 -0.398775
-0.0934932 0.147981 -0.187167
-0.194144 -0.145607 -0.392436
0.194144 -0.146566 0.385723
-0.131115 -0.0828674 0.403176
0.13095 0.0494778 -0.387847
-0.110777 0.161787 -0.162013
-0.181201 0.139398 0.228695
-0.0859183 0.161787 -0.206701
-0.112436 0.147981 0.0435319
0.0546152 0.147981 0.197655
0.180694 0.113467 0.0354976
-0.13112 0.138443 -0.403694
0.17171 0.144807 0.215002
-0.191878 -0.133034 0.368011
0.185787 0.147981 0.0463326
-0.184234 -0.136062 -0.411898
-0.144234 0.161787 -0.296297
0.131085 0.0132775 -0.400399
0.0786705 0.161787 0.0968302
0.181201 0.138331 0.103747
-0.139207 0.161787 0.0134734
-0.127539 0.161787 0.324506
-0.0371037 0.161787 0.317196
-0.147423 -0.124013 0.418907
-0.170332 0.000562783 -0.368011
-0.0592876 0.161787 -0.242121
-0.16093 0.147981 0.242672
-0.127575 0.147981 0.201248
-0.0376815 0.161787 0.192408
-0.181201 0.130603 -0.218352
-0.110812 0.161787 0.326796
-0.16307 -0.0256097 0.416252
-0.181201 0.122906 0.140183
-0.17171 0.114979 -0.0532535
-0.101017 0.161787 0.249549
-0.131127 0.00704585 0.404352
0.00722918 0.161787 0.0532274
0.190902 -0.125546 -0.410526
-0.109854 0.161787 -0.162121
0.134349 0.124297 -0.368011
-0.133111 0.161787 0.245011
-0.17171 0.129273 -0.077953
-0.179451 0.161787 -0.173103
0.100656 0.161787 0.385404
0.149665 -0.0706343 0.368011
-0.031685 0.161787 -0.396847
0.029522 0.147981 0.394618
0.181201 0.120735 -0.0158266
-0.109448 0.147981 0.313671
-0.194144 0.153285 0.00418782
0.00507659 0.139107 -0.40986
0.143606 0.0082926 -0.368011
0.0650543 0.161787 0.341535
0.0436765 0.147981 0.366051
-0.144306 0.161787 0.182369
-0.0833739 0.161787 0.375417
0.0171728 0.147981 -0.0672179
0.194144 0.155471 -0.345985
-0.150146 0.157038 -0.41845
-0.181476 0.161787 0.27167
-0.194144 0.109709 -0.368746
0.177516 0.161787 0.0664654
0.184226 0.147981 0.203626
0.181201 0.137063 -0.24838
0.181201 0.125199 -0.330196
-0.0718196 0.147981 0.233542
-0.130872 0.000458598 -0.380481
0.125739 0.147981 -0.189162
0.0949119 0.147981 0.196924
-0.0627919 0.147981 -0.160918
0.00298413 0.118943 0.400368
0.165835 -0.0678973 0.415684
-0.194144 0.157662 -0.26568
0.12466 0.147981 -0.25892
-0.093372 0.147981 0.168737
0.157919 -0.122091 0.417149
-0.17171 0.129797 0.204367
-0.161234 0.0150371 -0.368011
-0.116297 0.161787 -0.157483
-0.17171 0.13537 0.153221
-0.162083 0.157057 -0.366717
0.162152 0.161787 0.204863
-0.17171 0.11585 0.16376
0.189109 0.161787 -0.055617
-0.168525 0.0538717 -0.368011
0.00705178 0.161787 -0.211307
0.181201 0.138032 0.342317
-0.130994 -0.111004 0.368011
-0.0574974 0.147981 -0.325079
0.130839 0.120884 0.377403
0.0669225 0.161787 0.375444
-0.151124 0.161787 -0.239836
-0.130849 0.0910438 -0.378345
-0.181201 0.114339 0.266747
-0.0826669 0.161787 0.125519
-0.0723237 0.147981 -0.022748
0.0706935 0.161787 -0.0945039
-0.0226094 0.147981 -0.251495
0.127508 0.147981 0.341305
0.131485 0.161787 0.326006
0.190818 -0.14385 -0.410543
-0.14559 -0.0956418 -0.368011
-0.0327938 0.161787 -0.128526
-0.02408 0.161787 0.213404
0.0316805 0.161787 -0.0381554
0.0477781 0.147981 0.243178
0.131026 0.147981 -0.156387
0.0283914 0.147981 -0.389282
0.194144 -0.0841086 0.393126
-0.194144 0.0294474 0.387944
0.170001 0.0364682 -0.414826
0.17171 0.126384 0.330138
0.0253426 0.161787 0.0302927
-0.138076 0.161787 -0.165121
0.178429 0.000617169 0.368011
-0.0729801 0.147981 -0.218855
-0.153156 0.147981 -0.154351
-0.131184 -0.0917978 0.409628
0.102824 0.161787 -0.0258153
0.116038 0.133883 -0.40986
0.0649461 0.161787 0.255116
0.052713 0.161787 -0.4102
0.0860709 0.113467 -0.401448
0.0206437 0.147981 -0.0563464
-0.164928 -0.161787 -0.372664
-0.153433 0.147981 0.126308
-0.00214364 0.147981 -0.136158
0.18111 0.113467 0.132611
0.0479948 0.147981 -0.0180964
-0.181201 0.135117 -0.359672
0.0285985 0.113467 -0.402816
0.188432 0.161787 0.107182
-0.0403663 0.161787 -0.334479
-0.181391 0.161787 -0.0953055
0.139259 -0.0959391 -0.420274
-0.17171 0.11751 0.0493283
-0.0337653 0.128439 0.40986
-0.150623 0.161787 0.343099
-0.0699138 0.161787 0.159722
0.131016 -0.00958399 0.393966
-0.148546 -0.161787 -0.396675
-0.0236601 0.147981 0.27256
-0.194144 0.0385696 -0.398162
-0.159904 0.161787 -0.0682185
0.181201 0.126054 0.344657
0.0404356 0.147981 -0.372944
-0.17171 0.144072 0.170207
-0.131127 0.0707337 -0.404317
-0.131136 -0.100448 0.405127
-0.184232 0.161787 -0.110861
-0.174288 0.161787 -0.0691008
-0.109226 0.147981 -0.0116101
-0.192337 -0.025007 0.368011
0.0223484 0.161787 -0.0955471
0.178363 0.161787 0.0152355
-0.0748009 0.147981 -0.3259
-0.184469 0.161787 -0.0345606
0.169229 0.161787 0.349167
-0.0173126 0.161787 -0.356434
0.0383617 0.161787 0.348874
0.094437 0.161787 -0.104749
-0.129305 0.147981 0.207666
-0.0839212 0.147981 -0.276327
0.0367546 0.161787 -0.0101115
0.155793 0.0246805 -0.417504
-0.101806 0.147981 -0.251372
-0.0608526 0.161787 -0.148552
-0.0679646 0.161787 0.0416709
-0.17171 0.120604 0.0159289
-0.0815638 0.147981 -0.14011
0.0577632 0.147981 0.304717
-0.127127 0.161787 0.25507
0.0895622 0.161787 0.266501
0.134377 0.147981 0.0656746
0.077928 0.147981 -0.187077
-0.17171 0.129712 0.152967
0.131146 -0.137332 -0.406094
0.0999084 0.161787 0.114681
-0.143065 -0.161787 0.415808
0.194144 0.15921 0.095957
0.0409476 0.161787 -0.0821122
0.106385 0.147981 0.131173
-0.082643 0.161787 0.287345
0.183297 0.0692045 -0.368011
0.17171 0.122268 -0.0305635
-0.122287 0.147981 0.203859
0.0320234 0.161787 -0.297254
0.171542 0.147981 0.258924
-0.189371 -0.0769583 0.368011
-0.184623 0.147981 -0.164102
0.189777 -0.1298 0.410758
0.129871 0.117299 0.40798
0.184943 -0.0861329 -0.411752
-0.0860922 0.146592 -0.400368
-0.0985368 0.147981 -0.0579489
0.08776 0.132219 -0.40986
-0.160095 -0.0553202 -0.416783
-0.00497576 0.147981 -0.100683
0.0165426 0.147981 0.0186968
0.0471751 0.161787 -0.323983
0.133792 -0.116519 0.421191
-0.13077 -0.0885974 -0.370975
-0.0188318 0.161787 -0.0923069
-0.0680106 0.147981 0.139322
-0.171218 -0.0220208 0.368011
0.0449994 0.147981 0.323121
-0.192654 0.161787 0.273758
-0.174892 0.113467 -0.218635
-0.131054 -0.0653685 0.39755
-0.159625 -0.133554 0.416863
-0.097579 0.161787 0.317749
-0.065056 0.147981 -0.320949
-0.181178 0.161787 -0.0899273
-0.141521 0.0110124 -0.419896
-0.112085 0.161787 0.256867
-0.150219 0.161787 -0.00920372
0.118674 0.147981 0.177411
-0.0243099 0.147981 -0.107001
-0.183196 0.147981 -0.132939
0.143252 0.147981 0.162044
0.163817 0.11357 -0.368011
-0.0756391 0.147981 0.145213
-0.186244 0.161787 0.365171
-0.0169367 0.147981 -0.0637624
-0.181201 0.134309 -0.241444
-0.122014 0.147981 -0.327094
0.0479126 0.161787 0.328472
0.168071 0.0086909 0.415224
0.0431735 0.147981 0.254501
0.149819 -0.0806251 -0.418505
-0.17519 0.161787 0.122067
0.0148765 0.161787 0.155104
-0.158278 0.161787 0.39199
0.131938 -0.0461289 -0.421501
0.0876843 0.161787 0.17685
-0.194144 0.00650701 -0.388714
0.180616 0.122425 0.368011
-0.151019 0.0653986 0.368011
-0.00497048 0.147981 0.0865216
0.194144 0.15516 -0.0187039
0.0647832 0.161787 0.182272
-0.102235 0.161787 0.405956
-0.0607171 0.161787 -0.131588
-0.130864 0.076341 -0.379783
0.0818496 0.161787 -0.0915898
-0.131071 0.0251729 -0.399072
0.163015 0.161787 0.320763
0.0406075 0.122748 0.40986
-0.0890011 0.147981 0.169048
-0.149231 0.147981 0.0897742
0.194144 -0.123016 -0.368574
-0.145159 0.161787 0.29028
-0.0669094 0.147981 -0.153149
0.184397 0.0154627 -0.368011
0.0823022 0.161787 0.193744
-0.0529924 0.147981 -0.125552
-0.0391817 0.147981 -0.296349
0.00935833 0.161787 -0.00619891
0.17171 0.124575 0.090466
0.0841476 0.161787 0.386545
-0.01137 0.161787 -0.324585
0.0908483 0.147981 -0.150268
-0.147364 0.0629428 -0.368011
-0.194144 -0.0861531 -0.396669
0.175328 0.161787 -0.157357
-0.158528 -0.00560432 0.417047
-0.130859 -0.112167 -0.379264
0.0780901 0.161787 -0.0689092
-0.181201 0.119113 -0.364807
0.101567 0.147981 0.197728
0.153031 0.0653544 -0.417967
-0.0516753 0.147981 -0.299094
-0.194144 0.0641646 0.40378
-0.180618 -0.0598889 -0.368011
0.0630254 0.147981 0.0488388
0.0131707 0.147981 -0.123152
0.171429 0.0381412 -0.414532
0.0594088 0.147981 0.298607
0.132494 0.147981 0.330932
-0.0772143 0.147981 0.348639
-0.157163 0.147981 0.148563
-0.146646 0.147981 0.191045
-0.193971 0.161787 0.167044
0.086103 0.147981 -0.07062
0.00804146 0.161787 -0.267741
0.0489001 0.147981 0.175337
-0.0273045 0.161787 -0.0063894
0.137755 -0.161787 0.381687
-0.156767 -0.161787 -0.413329
-0.130961 -0.0615059 0.38883
0.143033 0.0842331 -0.419642
-0.148604 0.147981 0.189584
-0.170393 0.161787 -0.136747
0.00565198 0.161787 -0.231931
0.189325 0.161787 -0.345152
-0.092207 0.161787 -0.349162
-0.17171 0.11532 0.210069
-0.0797464 0.147981 0.266263
0.136571 0.147981 0.0795995
-0.194144 -0.0181312 -0.386752
0.0479373 0.147981 0.238995
0.130988 -0.0184803 -0.391359
0.0720388 0.147981 0.395633
-0.130965 0.0914556 -0.389163
0.0628548 0.147981 0.160154
-0.0569694 0.161787 0.426229
0.109081 0.161787 -0.0331784
-0.0687326 0.161787 0.318758
0.155 0.118689 0.417638
-0.194144 0.0722053 0.399077
-0.185578 0.146113 0.411622
-0.139198 0.147981 0.276562
0.165656 0.147981 -0.29968
-0.17171 0.129228 -0.154926
0.0658246 0.147981 0.270522
-0.104906 0.161787 -0.372932
0.100066 0.147981 -0.200935
-0.181201 0.143154 -0.0380666
-0.182395 0.153579 0.366717
0.1811 0.0632562 0.412543
0.189438 0.161787 -0.405251
-0.0237498 0.161787 -0.32223
-0.0537492 0.146688 -0.40986
-0.181201 0.11518 0.115357
0.0131006 0.13155 0.400368
-0.131123 -0.018199 -0.403978
0.149649 0.0413038 -0.418534
0.161369 0.147981 -0.189635
-0.0907 0.161787 -0.287507
-0.183617 0.0974668 0.368011
-0.0379812 0.147981 0.00365966
-0.17171 0.141699 -0.0289695
-0.0978573 0.161787 -0.316479
0.105446 0.161787 -0.276072
