ply
format ascii 1.0
comment Created by Open3D
element vertex 1631
property double x
property double y
property double z
end_header
-0.0729284 -0.11596 -0.321138
-0.167031 0.134456 0.118549
-0.011381 -0.11784 -0.0290939
-0.249371 0.0187172 0.050041
0.203359 -0.11784 0.0394362
0.249371 -0.0954115 -0.229359
0.222722 -0.11784 0.156722
-0.249371 -0.0576849 -0.23614
-0.0904733 0.0944891 -0.32349
-0.0798812 0.0109881 -0.32349
0.202011 -0.0737968 -0.32349
-0.164679 -0.115123 -0.26606
-0.164679 -0.0147815 -0.0572837
0.123792 0.0135577 0.272059
0.199065 -0.11784 -0.0678434
-0.130925 -0.0506829 -0.321138
-0.249371 0.0506788 -0.218506
0.116296 -0.11784 -0.310687
0.247659 0.0102488 -0.0351388
-0.249371 -0.0413804 -0.205246
0.207248 0.0152075 -0.256611
-0.167031 -0.0044867 0.137734
-0.167031 -0.0983175 -0.230171
-0.0836808 -0.0327927 -0.321138
0.09378 -0.11784 0.278975
-0.0718085 0.012908 -0.162882
-0.167031 0.114016 -0.0851803
0.21947 0.0132779 -0.405829
0.152405 -0.009472 -0.405829
-0.164679 -0.093893 0.194799
0.0438104 0.100829 -0.405829
0.184739 0.00236541 -0.321138
-0.212931 0.145646 0.382524
-0.226558 0.0746399 -0.321138
0.0470247 -0.0348915 -0.405829
-0.203207 0.145646 0.0909712
-0.167031 -0.0390849 0.351545
-0.157462 0.0906061 -0.32349
-0.249371 0.113128 0.271827
-0.146235 0.0132829 0.019836
-0.167031 0.0688123 0.245792
0.0365116 -0.11784 0.0609715
0.164136 -0.11784 0.246647
-0.0909646 -0.11784 0.094932
0.165291 -0.11784 -0.101262
-0.153645 0.012489 -0.1473
0.198551 0.0704627 -0.32349
0.249371 -0.0659722 -0.216006
-0.054276 -0.11784 -0.276728
0.23195 -0.010762 0.403449
-0.128435 -0.11784 0.283062
0.23987 -0.11784 0.177949
-0.167031 -0.0763445 0.128203
-0.065117 0.0109521 -0.185529
-0.167031 -0.0553878 -0.315583
-0.142383 0.0607965 -0.405829
0.143233 -0.11784 -0.362729
-0.0409966 0.0132642 -0.139801
-0.167031 0.0496624 0.213757
-0.00527695 -0.0827634 -0.32349
0.17837 0.013033 -0.129485
-0.139734 -0.11784 0.241681
-0.00638285 -0.11784 -0.00688284
-0.0589161 0.0105523 0.350424
0.0584954 -0.11784 0.017336
-0.170162 -0.11784 0.093519
-0.0152492 0.110932 -0.32349
-0.10945 -0.0067017 -0.405829
-0.12287 0.0692688 -0.405829
0.163338 0.0137468 -0.160482
0.216326 -0.11784 -0.131059
0.251507 0.00958749 -0.206857
-0.249371 -0.110924 -0.285044
-0.165122 0.0824198 -0.405829
0.0146188 0.0146635 -0.0532293
-0.208724 -0.11784 0.271802
0.217786 0.0141089 -0.0881359
0.0568733 0.145646 -0.357793
0.0093165 0.12638 -0.32349
-0.164679 -0.104564 0.380071
0.157818 0.0119049 -0.301506
0.139438 -0.11784 0.169394
-0.0926369 -0.11784 0.348752
-0.167031 0.00343598 0.0209378
-0.164679 -0.0412951 -0.00811043
-0.249371 -0.0358422 0.133465
-0.153416 -0.11784 0.387399
-0.150709 -0.11784 -0.204953
-0.164679 -0.108339 -0.119861
-0.0206708 0.0125774 0.102872
0.049412 -0.11784 0.136138
-0.191533 -0.0299653 -0.405829
-0.249371 -0.0895115 0.160184
-0.241283 0.0191095 -0.321138
0.220168 0.0900142 -0.32349
0.11938 -0.11784 0.312467
-0.0132174 0.0142547 0.0105
-0.111276 0.0145615 -0.194646
0.249371 -0.0676396 0.0679415
-0.167031 -0.045942 0.0562961
0.0132967 0.015016 -0.0647107
-0.0921427 -0.11784 0.0731686
-0.237489 -0.0165521 -0.405829
-0.167031 0.057867 -0.201785
-0.197459 0.145646 0.0680147
0.241962 0.0109088 0.209628
0.0354358 -0.11784 -0.132466
-0.0259729 0.0541794 -0.405829
0.250154 0.00934094 0.154132
0.157328 -0.11784 0.209033
0.0267589 0.0136315 0.353258
-0.167031 -0.104225 0.103929
0.0756762 -0.11784 -0.0336683
0.238518 0.0119929 -0.239793
-0.249371 -0.0621983 0.26316
-0.167031 0.129844 0.381032
-0.234143 0.145646 0.195185
0.108013 -0.11784 -0.0782283
-0.00382438 -0.110734 -0.32349
-0.0837458 -0.11784 -0.39102
-0.000681261 0.0157456 0.246479
-0.247143 -0.104972 0.403449
0.170961 -0.0642161 -0.405829
-0.0628319 0.0102737 0.0428049
-0.00549776 -0.11784 0.317872
-0.206959 -0.11784 0.330198
-0.168787 -0.11784 -0.320692
0.0710779 0.0366757 -0.32349
0.148543 0.09169 -0.32349
0.109222 -0.116753 -0.403747
-0.167031 0.0396949 0.377983
0.116413 0.134688 -0.32349
-0.0870328 -0.0441929 -0.32349
-0.167031 -0.00685594 -0.293973
0.23889 -0.00133369 -0.405829
-0.167031 0.00943131 0.250445
-0.164679 -0.0843516 -0.130537
-0.164679 -0.0470823 -0.116496
0.249371 -0.0159744 0.0981708
0.249371 -0.0242412 0.0330876
0.0841854 -0.0858624 -0.405829
0.137242 0.0121968 0.368987
0.146455 0.12373 -0.32349
0.206686 -0.0779694 0.403449
-0.195768 -0.11784 0.0193998
0.116697 -0.11784 0.300534
-0.0132029 0.113835 -0.32349
0.106817 0.0142186 0.116748
-0.223783 -0.11784 0.32275
-0.249371 0.0246161 0.329191
-0.164679 -0.0887448 0.345558
-0.167031 0.0855293 0.207307
-0.0835936 -0.0155817 0.403449
0.0494865 0.0672341 -0.405829
0.190763 0.11175 -0.405829
0.150958 -0.11784 -0.163307
-0.167031 0.119561 0.190821
-0.231211 -0.11784 -0.00413045
-0.175435 0.145229 0.0539752
-0.167031 -0.0457732 -0.0516802
-0.112241 -0.11784 0.402169
0.210715 -0.077013 -0.321138
-0.164679 -0.0579018 0.123449
-0.164679 -0.0696524 -0.0550909
0.182858 0.0108615 -0.214819
0.132166 0.0119559 0.00739842
-0.247032 0.141884 0.13732
0.044499 0.0103132 -0.18538
-0.0400396 -0.11784 0.322197
0.249371 0.00919491 0.15752
0.109999 0.014541 0.020384
0.101996 0.0141978 0.0712047
0.144202 -0.00605669 -0.405829
0.249371 -0.0669866 0.241297
0.111282 0.0102372 -0.405829
-0.147482 0.0129052 0.014545
0.215346 0.0152977 0.0427583
-0.167031 0.119869 -0.196488
-0.0816879 -0.0605468 -0.405829
-0.0866611 0.0135052 0.21901
-0.0810214 0.0138986 0.258143
-0.164679 -0.00441004 -0.265349
-0.114223 -0.117042 0.403449
-0.164679 -0.0991978 -0.0376474
-0.167031 -0.0280624 0.150056
0.104186 -0.11784 0.220448
-0.221908 0.0280469 0.403449
0.0353747 -0.11784 -0.241476
0.00236799 0.0262488 -0.405829
0.196777 0.0104413 0.297905
0.159214 0.0115151 0.0798389
0.165555 -0.0514276 -0.32349
-0.127087 0.00906812 0.404168
-0.139274 0.0794232 -0.405829
-0.117614 -0.11784 0.0295556
-0.164679 -0.115248 0.308813
-0.138254 -0.11784 -0.254075
-0.189626 -0.0185878 -0.405829
-0.167031 -0.0121766 0.379958
-0.0101897 -0.0984452 0.403449
-0.0868728 0.103168 -0.405829
0.189727 -0.0103327 -0.405829
-0.167031 -0.0542619 -0.109432
0.242189 -0.11784 0.351713
-0.197498 -0.11784 0.398267
-0.167031 0.123324 -0.217023
-0.113804 0.0161312 -0.0606139
-0.228294 0.12268 -0.321138
-0.167031 0.0144319 -0.0747085
-0.00668838 -0.0226726 0.403449
-0.0428205 0.013786 0.137113
0.0245531 -0.11784 0.28878
-0.216757 -0.0132245 -0.405829
-0.249371 -0.091319 -0.381363
-0.248647 -0.11784 0.321351
-0.228853 -0.11784 -0.18137
-0.0386996 -0.11784 -0.21664
0.0409678 -0.11784 0.250345
-0.22134 -0.11784 -0.387762
-0.167031 0.088973 0.242807
-0.167031 0.116012 0.315287
-0.114359 -0.00140755 -0.321138
0.0537452 -0.11784 0.00247066
-0.0205136 0.0101651 -0.115677
0.0111798 -0.0910434 0.403449
0.108962 -0.00694278 0.403449
-0.164679 -0.11269 0.165912
-0.183586 -0.11784 0.146892
-0.0807669 -0.0350632 0.403449
-0.0495484 -0.11784 0.0219058
-0.0776093 0.00225185 -0.405829
0.0396947 -0.11784 0.181486
0.191399 0.0117713 -0.00535696
0.208556 -0.11784 -0.1372
0.249371 -0.0126216 -0.30368
0.233625 0.0113146 0.394128
0.210312 0.0454956 -0.405829
-0.249371 -0.0199215 -0.34759
-0.249371 0.110913 0.0292324
0.202248 -0.0232528 0.403449
0.0128466 -0.11784 -0.152465
0.0423937 0.0698779 -0.32349
-0.121112 -0.11784 0.263515
-0.24907 0.123359 -0.321138
0.0513017 -0.11784 -0.0834365
0.153056 0.0119312 0.125799
0.249371 -0.0331881 -0.239857
-0.192856 0.119998 -0.32349
0.249371 -0.009907 0.272201
-0.125053 0.0155259 -0.16873
-0.0106033 -0.0744235 0.403449
0.244332 0.105208 -0.32349
-0.075394 0.0120777 0.281133
0.185442 0.0156329 -0.405829
0.0601434 -0.0793668 0.403449
-0.249371 0.0035835 0.266553
-0.0217771 0.0156129 -0.268862
-0.172903 0.104117 -0.321138
-0.00501951 -0.0281304 -0.405829
0.237607 -0.11784 0.031308
0.207409 0.111708 -0.405829
0.0115028 -0.11784 -0.288502
-0.199013 -0.103362 0.403449
-0.167031 0.0892494 -0.229605
0.197299 0.105341 -0.32349
0.180142 0.0138368 -0.136248
-0.1844 -0.11784 0.310654
0.249371 0.0749938 -0.39315
0.151372 -0.11784 0.36576
0.188665 0.00529772 -0.32349
-0.247151 0.141595 0.211274
0.0244831 0.0129619 0.32491
-0.164679 0.00922163 0.0579306
-0.0454792 -0.0937926 -0.405829
0.170431 -0.104564 -0.321138
0.0313295 -0.11784 0.120531
-0.193157 0.145646 -0.235138
-0.224827 -0.11784 -0.244249
-0.0591332 0.00949323 -0.219198
-0.249371 -0.0100061 -0.245332
0.16081 -0.11784 0.179692
-0.167332 0.111679 0.405104
-0.167031 0.0872418 0.401579
-0.167031 -0.00601151 -0.0184578
-0.0311056 -0.0806792 -0.405829
-0.02788 0.0130985 0.180732
-0.233203 0.145646 0.123644
0.249371 -0.0629349 -0.34619
0.0167625 -0.11784 0.234095
-0.0918771 -0.11784 -0.169763
-0.00848978 0.0122295 -0.00440229
-0.167031 0.0606964 0.309757
-0.249371 0.0270139 -0.225617
0.249371 -0.0494349 -0.201666
0.0437522 -0.11784 -0.128936
0.249371 0.000233524 -0.403531
-0.249371 -0.0424676 0.397979
-0.115676 0.0139807 -0.0954536
0.249371 -0.0429554 -0.383132
-0.167031 0.0721107 0.0806667
0.0609833 0.0371083 -0.32349
0.0127777 0.0558905 -0.32349
-0.167031 0.120914 0.0714947
0.149274 -0.0756456 -0.405829
-0.249371 0.11431 -0.393888
-0.168607 0.0229408 -0.32349
-0.164679 -0.0368009 0.0243055
0.12523 0.0140239 -0.156769
-0.167031 -0.0230141 0.313121
-0.167031 0.0316848 0.228902
-0.249371 0.0621714 -0.0570956
-0.132279 0.145646 -0.391539
-0.249371 -0.0186341 0.179979
-0.248934 -0.0279759 -0.323536
-0.249371 0.0604356 -0.126962
0.0431563 0.00960391 0.17936
0.0889343 0.0933943 -0.32349
-0.184345 -0.11784 0.187103
0.249371 0.0464895 -0.371921
-0.244466 0.141053 -0.403834
-0.0415644 -0.11784 0.138523
0.249371 0.101102 -0.383362
0.135186 -0.11784 -0.0990089
-0.055336 -0.0501698 -0.321138
-0.15449 -0.11784 -0.354335
-0.249371 0.021123 0.190169
0.0487385 0.011003 0.180063
0.20869 0.0147143 -0.144492
-0.178847 0.145646 0.262612
-0.224399 0.111838 -0.321138
0.214946 0.0152504 0.147865
0.156763 0.0112918 0.00280987
0.0259614 0.136568 -0.405691
-0.0579511 -0.11784 0.111835
-0.241921 0.0494433 -0.405829
0.142999 -0.11784 0.110015
-0.101824 0.0416798 -0.32349
-0.164679 -0.0659791 -0.314101
-0.182737 -0.11784 0.314501
0.0704046 0.0135369 -0.29934
-0.249371 0.0337641 0.401377
-0.170204 0.143063 0.0152733
-0.0762979 -0.11784 -0.154494
0.0661111 0.144274 -0.329587
-0.164679 -0.0937034 0.0700049
-0.209151 -0.0233913 -0.32349
-0.221548 0.145646 -0.341992
0.134894 0.0289746 -0.32349
-0.249371 -0.0714618 -0.307618
-0.210817 0.140203 0.403449
-0.239936 -0.11784 0.242431
-0.198548 -0.11784 -0.00216065
-0.249371 0.100685 -0.0659297
0.0768387 0.0127516 0.00203354
0.145682 -0.11784 -0.198899
-0.249371 -0.0830662 -0.176134
0.249371 -0.0895976 -0.338335
-0.164679 -0.0859437 0.157758
0.182116 0.0110451 0.199905
-0.110888 -0.11784 -0.196593
0.147736 -0.11784 -0.249775
0.126594 -0.11784 0.177261
-0.205243 0.145646 0.151526
0.23056 -0.11784 -0.174288
0.205281 -0.11784 -0.181002
-0.164679 -0.0492803 -0.251668
-0.249371 0.0204972 0.256273
-0.208953 -0.11784 -0.196156
-0.167031 0.00878803 -0.123748
-0.238483 -0.11784 0.239102
-0.169167 0.141393 0.354847
0.249371 -0.0979187 -0.122959
0.198156 -0.11784 -0.0159795
-0.167031 -0.0816371 0.39805
0.132257 0.0111845 0.186692
-0.133172 0.118617 -0.405829
0.249371 -0.105131 0.0639662
-0.0597777 -0.11784 0.18259
-0.167031 0.0857051 -0.0311415
-0.0828288 -0.11784 0.0154308
0.146215 -0.11784 -0.0355204
-0.249371 0.0390262 0.146748
0.0665594 -0.0795327 -0.405829
-0.177002 -0.11784 0.0477708
0.226556 -0.021404 -0.321138
0.191471 -0.11784 0.208047
-0.249371 0.0451958 0.358214
-0.154743 -0.11784 -0.239334
-0.209546 -0.11784 -0.0155898
0.154951 -0.0693743 -0.405829
-0.119132 0.00359529 -0.321138
0.249371 -0.0479762 0.0991809
0.0260944 0.0118051 0.182823
0.132344 -0.11784 -0.0967385
-0.249371 -0.0479589 0.00222693
-0.127677 -0.0487047 -0.405829
0.0252929 -0.11784 0.0826517
-0.138623 -0.0616175 0.403449
0.205354 0.0124951 0.39457
-0.164679 -0.0456989 0.311151
-0.167031 -0.023436 0.00738357
0.249371 -0.0262132 -0.152349
0.217795 0.011548 0.0985666
-0.176902 -0.095683 -0.405829
-0.129299 -0.11784 0.0286826
-0.167031 -0.0791264 0.0473613
0.115721 -0.11784 -0.34233
0.204959 0.0505616 -0.405829
0.0222839 -0.0436487 -0.32349
0.0465922 0.0102773 -0.205533
-0.00709414 -0.11784 0.16932
-0.250894 -0.0794531 -0.405552
-0.0705615 -0.11784 -0.199225
0.0143127 -0.117486 -0.40198
0.243734 0.0105571 -0.10313
0.179456 0.0151689 0.148812
0.249371 -0.0188446 -0.00494026
0.156704 -0.0952519 -0.321138
0.0801354 -0.11784 0.274546
-0.164679 -0.00332699 0.16502
-0.249371 0.0798475 0.199182
0.18156 0.0149554 -0.28108
-0.00458408 -0.11784 0.335723
0.106328 0.145646 -0.368873
0.249371 -0.051239 -0.0358905
-0.214647 0.145646 0.236249
-0.0955033 -0.0123989 0.403449
-0.221021 0.145646 0.0677108
0.0833576 0.0142953 0.172653
-0.229896 0.0310004 -0.32349
0.246345 0.010101 0.288696
0.12743 0.145646 -0.342994
-0.241385 -0.11784 -0.175714
-0.019272 -0.11784 0.363979
0.0964707 0.0844252 -0.32349
0.249371 -0.0319401 -0.294768
0.131254 0.0131996 -0.25829
0.177345 0.0143908 -0.0824051
0.1981 -0.11784 -0.298283
0.0544487 -0.0941777 0.403449
-0.134803 0.014297 0.227825
-0.0715811 -0.11784 0.344939
0.0989092 0.0121095 0.202507
-0.249371 0.035024 0.00597224
-0.0862191 -0.11784 0.35434
-0.249371 -0.00745249 -0.128156
-0.131054 -0.11784 -0.133364
0.0101776 0.0150983 0.252296
0.185749 0.0151015 -0.256378
0.151382 0.0114544 -0.142562
0.249371 -0.0327752 -0.36183
-0.249371 -0.0273882 0.365727
-0.000191691 0.014062 0.0719525
-0.106739 0.14048 -0.325248
-0.249371 0.0233915 -0.197809
0.212875 -0.000551295 -0.321138
-0.167031 -0.071021 0.0779276
-0.249371 0.0736099 0.296218
0.0354958 -0.11784 0.154817
0.249371 -0.0572932 -0.0877162
-0.139251 -0.00915489 -0.32349
-0.0719172 -0.11784 0.34179
-0.249371 0.0764106 0.129078
0.188012 -0.140663 -0.343935
-0.0646356 -0.11784 -0.331393
-0.167031 -0.1016 0.190637
-0.0568156 0.00677632 -0.32349
-0.0370249 -0.11784 0.0617916
-0.164679 3.84236e-05 -0.282927
0.240129 -0.0734035 0.403449
-0.164671 -0.0693781 -0.405829
0.249371 -0.0506567 -0.235831
0.118606 0.0117897 0.396093
-0.108307 -0.0564059 -0.405829
-0.135678 0.0783328 -0.405829
0.249371 -0.0103126 -0.122259
-0.164679 -0.0558948 0.0702864
-0.167031 -0.00184478 -0.21602
-0.0626054 -0.11784 0.237626
-0.167031 -0.0239864 -0.030552
-0.221127 0.145646 -0.139952
0.156677 -0.11784 -0.149116
-0.167031 -0.0639136 0.372222
-0.024365 0.0133882 -0.304049
-0.222176 -0.11784 0.0924974
0.205127 0.0113464 0.399498
0.249371 0.143651 -0.355472
0.0170927 0.0116995 0.292642
-0.16739 0.0653566 0.403449
-0.140381 -0.11784 -0.197034
-0.167031 0.0848521 -0.133913
-0.249371 0.0268831 -0.118155
-0.249371 0.01114 -0.201558
-0.195366 -0.11784 -0.0944477
-0.213532 0.145646 -0.275649
0.0994287 0.145646 -0.370061
-0.249371 -0.00437622 -0.367454
-0.249371 0.00156952 -0.194586
0.0594731 -0.11784 0.111117
-0.138349 -0.11784 0.0736956
0.236742 -0.0552358 -0.405829
0.249371 -0.074006 0.307367
-0.193068 0.145646 -0.376005
0.146143 -0.11784 -0.107906
-0.0390077 -0.0869384 -0.321138
0.195377 -0.11784 -0.0632202
0.249371 -0.117657 0.288883
0.003679 -0.11784 0.309017
-0.164679 -0.0822061 0.0387272
-0.0702333 -0.11784 0.0706399
-0.222505 -0.0417808 -0.32349
-0.00254837 0.0141929 -0.32349
-0.0116735 -0.11784 -0.191709
-0.00969078 -0.0872375 -0.321138
-0.164679 -0.0945575 0.368506
-0.195825 -0.11784 0.322851
-0.249371 0.00893064 0.0834334
-0.249371 0.110499 0.2764
-0.0957924 -0.11784 0.238053
-0.0980778 -0.0202951 -0.32349
0.0097232 -0.0358352 0.403449
-0.167031 0.0147148 0.0387018
0.041842 0.00935346 0.294499
0.0230379 -0.0515891 -0.32349
0.23299 0.0122567 0.07472
0.092986 -0.11784 0.171698
-0.0386602 0.145646 -0.368449
-0.249371 -0.0346098 -0.0773382
-0.0704913 -0.11784 0.125759
-0.156536 -0.11784 -0.0320248
0.00743065 -0.00431912 0.403449
-0.134592 -0.11784 0.0744555
-0.164679 -0.034992 0.216963
-0.249371 -0.0095593 0.046498
-0.0792824 0.0117352 0.288429
-0.0795065 -0.11784 -0.20507
0.249371 -0.0697296 -0.301155
0.0817556 -0.11784 -0.0876213
-0.164679 -0.00463392 0.358171
-0.08728 0.0134649 0.174527
-0.0238596 0.00688616 0.403449
0.155039 0.00937683 0.299442
-0.167031 0.0996372 0.14022
0.220539 0.0111999 0.295292
-0.249371 0.0093549 0.310996
-0.167031 -0.0867595 -0.0431955
-0.164679 -0.0556242 -0.194278
0.249371 0.0852898 -0.372966
0.229408 0.125441 -0.32349
0.107565 0.0151108 -0.258282
-0.252109 -0.0823571 -0.405621
0.0475732 0.0117806 -0.275036
0.068146 -0.11784 0.0727857
0.0376954 0.00978249 0.198918
0.249371 -0.0182687 0.285634
0.00709475 0.0142472 0.377805
-0.167031 0.074488 0.398405
-0.0206344 -0.11784 -0.154372
-0.00908061 0.00174128 0.403449
0.0374207 0.0109743 0.217229
0.199847 0.143844 -0.328549
0.233562 -0.11784 -0.168385
0.24498 0.0308007 -0.32349
0.174067 0.145646 -0.341357
0.24974 0.00913146 -0.0749214
0.0908478 0.0821907 -0.32349
-0.0120438 -0.01504 -0.32349
-0.167031 0.0299361 -0.151571
0.0565383 -0.0788521 -0.321138
-0.127892 -0.0297716 -0.405829
-0.154144 -0.11784 -0.347466
-0.172441 -0.0950277 -0.32349
0.249371 -0.0601422 0.156757
0.249371 -0.0602661 -0.0145925
-0.167031 0.133713 0.16372
-0.0531187 0.135395 -0.32349
-0.0022172 0.0142094 -0.299528
-0.167031 -0.0556348 0.189736
0.240345 -0.11784 -0.169877
0.00321834 0.0636228 -0.32349
0.192496 -0.11784 -0.223133
-0.198223 -0.11784 -0.237828
0.134277 -0.0408133 -0.321138
-0.164679 -0.0463509 -0.0607384
0.229203 -0.0939932 0.403449
0.202477 -0.117858 -0.36561
-0.249371 0.0295564 0.011646
-0.249371 0.105081 0.288513
0.0141397 0.0111947 -0.405829
0.250291 0.0090313 0.328389
0.1401 -0.0957912 -0.321138
0.0294597 -0.029063 -0.321138
0.0708525 -0.11784 -0.298632
-0.249371 0.104604 0.394983
0.154868 0.0122827 0.160987
-0.18463 0.11341 0.403449
-0.249371 0.111109 -0.368929
-0.201081 0.145646 -0.0253439
0.0283628 -0.0627244 -0.32349
0.127377 0.145646 -0.334909
0.246538 -0.11784 0.146404
0.148282 0.0102204 0.219355
0.217529 0.0141133 -0.13996
-0.245571 0.143322 -0.317217
0.192455 0.0131029 -0.101773
-0.249371 0.100267 0.276786
-0.194329 0.139213 -0.324723
0.0480221 0.0117948 0.259352
-0.164679 -0.0394699 -0.129591
0.127483 -0.114459 -0.40528
0.0986554 0.0202557 -0.405829
-0.164679 0.00133243 0.0945602
0.0174602 -0.11784 0.0966735
0.00877315 -0.11784 0.115807
0.0728314 -0.11784 -0.0806466
-0.0548498 0.145646 -0.341898
-0.164679 -0.0192761 -0.235509
0.23435 0.0111624 0.29151
-0.167031 -0.00602595 0.0666141
-0.167031 -0.0602984 0.0798838
0.249371 -0.00415712 -0.361791
-0.175817 0.124567 -0.405829
-0.0644116 0.0364884 -0.405829
-0.249371 0.0381432 -0.307634
-0.169464 0.14211 -0.160507
-0.166942 0.0580656 -0.32163
-0.249371 -0.0861839 0.0639433
-0.122536 -0.11784 -0.368395
0.0543129 -0.11784 0.296529
-0.0427235 0.00136819 -0.321138
0.0474515 0.0338998 -0.405829
0.0234719 -0.11784 -0.013561
0.174779 -0.11784 0.19223
0.0719755 0.014414 0.368987
0.249371 -0.000739359 -0.397375
0.135927 -0.11784 -0.109851
-0.0451779 0.012025 0.00527413
-0.20554 -0.0150197 0.403449
-0.249371 0.05687 -0.278057
-0.131527 -0.11784 0.31663
0.0822536 -0.11784 0.0174111
0.235129 -0.0983523 -0.32349
-0.167031 -0.111623 0.0581852
0.146195 -0.11784 0.22279
-0.000742642 0.124218 -0.405829
-0.0523349 0.0102743 -0.00627286
0.103585 0.0157673 -0.269673
-0.164679 -0.0787497 -0.0158583
0.242286 -0.11784 -0.330169
-0.249371 0.118168 0.143055
0.155484 0.000191402 -0.32349
-0.247372 0.141063 0.396292
0.249371 -0.00734607 -0.318768
-0.0417322 0.0119371 -0.230044
0.20832 0.0145888 0.223993
-0.167031 0.0863554 -0.153518
-0.167031 0.129233 0.188986
-0.167031 -0.0664243 0.28749
-0.0512927 -0.11784 -0.0124853
-0.236369 0.140002 0.403449
-0.162751 -0.022622 0.403449
-0.164679 -0.0846761 0.376826
0.0611493 0.0139837 -0.0655809
-0.221028 -0.11784 0.176015
0.0534526 0.0117578 0.111829
-0.191577 -0.11784 -0.259361
-0.131525 0.0144682 0.268128
-0.167031 0.013257 0.173769
0.180299 -0.11784 -0.259857
-0.236817 0.145646 0.341943
0.0744545 -0.11784 0.0616852
0.242969 -0.11784 -0.0476523
0.144605 -0.11784 -0.0354316
0.225529 0.145646 -0.386529
0.249371 -0.0596984 -0.0878638
0.147379 -0.11784 0.285334
0.00170373 0.13539 -0.405829
-0.0931173 -0.11784 0.19407
-0.164679 -0.104625 -0.30001
-0.249371 -0.105774 0.230337
0.100217 -0.11784 -0.382076
0.0339776 -0.041595 0.403449
0.00581573 0.0147484 0.334486
0.118315 -0.11784 0.367105
-0.249371 0.115874 -0.0164233
0.241955 0.0480279 -0.405829
-0.240307 0.0372296 -0.32349
-0.182571 0.075081 -0.321138
0.122677 -0.11784 0.334303
-0.233598 -0.11784 0.0209172
-0.13396 -0.11784 -0.202348
0.00414017 0.000894516 -0.405829
-0.249371 -0.0959432 -0.337679
-0.0883359 0.0149084 0.0384881
0.203214 -0.126617 0.321077
-0.167031 -0.112865 0.136198
0.249371 -0.036625 -0.0352787
0.249371 -0.107486 0.373872
-0.249371 0.0241283 0.0260581
0.130651 -0.11784 0.265315
-0.164679 -0.013644 0.388328
0.134071 0.1389 -0.404726
-0.196506 -0.11784 -0.370164
-0.20679 -0.11784 -0.0504492
0.249371 0.00526332 0.38741
-0.0446188 -0.11784 -0.0482739
-0.00354549 -0.11784 0.227908
0.0386236 0.113472 -0.32349
-0.249371 -0.0656479 0.0356328
0.0499693 0.0523703 -0.32349
0.167745 -0.11784 0.374865
-0.210641 0.0134951 -0.321138
-0.167031 -0.0136029 0.26174
0.0988651 0.0128816 -0.0213606
0.0545019 0.0110884 -0.000521753
-0.0228487 0.0744918 -0.405829
0.0810228 -0.0706444 -0.321138
-0.167031 0.0331843 0.00904293
-0.109237 -0.11784 -0.015225
-0.205484 -0.12935 0.322017
-0.105845 0.0142859 0.277724
-0.225414 0.145646 -0.316645
0.0908656 -0.11784 0.116816
-0.249371 0.0910009 -0.305423
-0.164679 -0.081092 -0.0487738
-0.249371 -0.104886 -0.144194
-0.167031 -0.0416395 0.386711
-0.100719 -0.11784 -0.31457
-0.0888607 -0.11784 -0.342046
0.200276 -0.135507 0.345885
-0.125693 -0.0360499 0.403449
-0.038341 0.0133555 0.323263
0.227338 -0.0568977 0.403449
0.15419 -0.11784 -0.0514006
0.028876 -0.11784 0.356344
-0.23357 0.145646 0.053129
-0.0365487 0.0587595 -0.32349
0.204153 -0.11784 -0.118324
0.125181 -0.11784 0.397397
-0.139895 0.0138134 0.0657887
0.222735 -0.117741 -0.401363
-0.164679 -0.00460439 -0.0417498
-0.167031 -0.0315598 -0.196251
0.219263 0.142267 -0.325988
-0.164679 -0.0596534 -0.145461
-0.249371 -0.0739453 0.334241
0.131842 0.0495686 -0.405829
0.221231 -0.0620156 -0.321138
-0.249371 0.0253482 -0.0234653
-0.249371 -0.00296845 0.095939
-0.000405322 0.0154434 -0.157343
0.0745667 -0.0493023 -0.405829
-0.117221 -0.0461139 0.403449
0.0888522 0.0111875 0.29631
0.0207192 0.145646 -0.39509
0.0981785 0.0123025 -0.0177354
-0.249371 0.0396179 -0.182406
0.158459 0.0123427 0.324156
0.0611553 -0.11784 -0.394274
-0.167031 0.0914921 0.264853
-0.0707586 -0.11784 0.249962
-0.164679 -0.110978 -0.0667335
0.249371 -0.0650904 -0.266736
-0.0811622 -0.103481 -0.32349
0.0392038 -0.11784 0.0738379
-0.114719 -0.11784 -0.0410955
0.178422 0.0101309 -0.216603
-0.0784288 -0.11784 0.343472
-0.095729 -0.11784 -0.147987
0.166538 0.0139989 -0.259363
0.0121541 0.0135917 0.321397
0.249371 -0.0303261 0.126658
-0.120979 0.145646 -0.378314
0.249371 -0.115215 -0.121523
0.205786 0.00906033 -0.405829
-0.249371 0.0555594 -0.25945
-0.167031 -0.0780181 0.253712
-0.164679 -0.0430604 0.347661
-0.206352 -0.0362012 -0.32349
0.189684 -0.00755829 -0.405829
0.0938199 0.0152779 -0.081593
0.249371 -0.095152 0.25448
0.0383968 -0.0838884 -0.405829
-0.0562178 -0.0411048 -0.405829
0.234668 -0.0342781 0.403449
-0.167031 0.0361767 0.37971
-0.0550639 0.0121188 0.25279
-0.207988 0.145646 0.365513
-0.161237 -0.11784 0.339552
0.111624 -0.0712686 -0.405829
0.249371 -0.00265112 0.336413
-0.110224 0.0159789 -0.0591113
-0.249371 0.0933649 0.297737
-0.167031 0.0386704 0.246959
0.0540197 -0.11784 -0.150994
0.143397 0.046862 -0.405829
0.163085 -0.0283618 -0.321138
0.0232351 -0.00157308 -0.321138
0.202054 -0.11784 0.306097
0.235386 -0.11784 0.331853
-0.249371 0.00509249 0.175272
-0.167031 0.000457469 0.091755
-0.167031 0.116918 -0.225605
0.105934 -0.00611043 -0.32349
-0.167031 -0.0404912 -0.205382
-0.249371 -0.0129112 -0.00632169
0.133674 -0.11784 -0.259024
-0.249371 -0.0387094 -0.0775474
-0.221128 0.00895223 -0.321138
-0.123212 0.015312 -0.17598
-0.167031 0.0168026 -0.0837558
0.0724965 -0.11784 -0.205252
0.078417 0.0147627 -0.0788919
-0.014479 -0.11784 0.356851
0.0271577 0.0132574 -0.0507731
-0.0880647 0.145646 -0.369726
0.0249212 0.129992 -0.32349
0.0222602 -0.11784 0.347622
-0.167031 0.0661084 -0.079466
0.00357783 0.00641522 -0.321138
-0.164615 0.131059 -0.405829
0.169471 -0.11784 -0.132592
-0.0210171 0.0128717 0.391274
0.0748039 -0.11784 0.227977
0.0570143 -0.11784 0.381335
-0.116471 0.0138895 0.281797
0.220427 -0.11784 0.208139
-0.164679 -0.113684 0.183503
-0.249371 -0.00996492 0.0483988
0.0229871 0.012925 0.115464
-0.233404 0.145646 0.147673
0.249371 -0.038177 -0.0130765
0.0470488 -0.0945874 0.403449
0.0485617 0.145646 -0.346509
-0.0328789 0.0139797 -0.29496
-0.164679 -0.0264381 -0.190854
0.146781 -0.108369 -0.321138
0.215674 0.0148238 -0.28181
0.244131 -0.11784 -0.179914
-0.167031 -0.0822665 -0.146148
0.0551864 -0.11784 -0.0935975
-0.249371 0.0241638 -0.0515197
0.114557 -0.0517603 -0.32349
0.039463 0.0108376 -0.0602014
-0.246627 -0.113447 -0.32349
-0.164679 -0.0232212 0.2249
0.0171561 0.130142 -0.405829
0.179026 -0.11784 -0.321134
-0.249371 0.133321 0.081675
-0.178643 0.145646 0.355158
0.187222 0.0143643 0.324219
0.249371 -0.0184898 0.391995
-0.167031 0.0774127 -0.198257
-0.244853 -0.11784 -0.306742
-0.249371 -0.0615603 -0.151368
-0.249371 -0.0398757 0.0878542
-0.249371 0.0658692 -0.330978
-0.164679 -0.0401826 0.324829
-0.164679 -0.0477074 0.302883
-0.164679 -0.0378301 0.300301
-0.0692652 0.0115826 -0.0323083
-0.156815 -0.0331235 -0.321138
-0.0723473 -0.114591 -0.32349
0.0808125 0.0169604 -0.405829
0.249371 -0.111213 0.276994
-0.0499189 -0.11784 -0.350558
0.249371 -0.0391746 -0.0788505
-0.0376204 -0.0999985 -0.405829
-0.0731885 -0.11784 0.0450196
0.249371 -0.0716136 0.339216
0.238599 0.0129033 0.0451518
0.249371 -0.0848925 -0.11575
-0.00548334 -0.0956512 0.403449
0.0293714 -0.11784 -0.0846763
-0.0555343 0.0922148 -0.32349
-0.0847254 0.0141178 -0.15147
-0.117291 0.0153685 -0.0483614
-0.0382359 0.0128239 0.318055
-0.249371 0.0403933 -0.13409
-0.167031 0.0469305 0.0432557
-0.249371 -0.00642159 0.375927
-0.137831 0.0141374 -0.0418214
0.202332 -0.0791365 -0.405829
-0.233147 -0.11784 -0.196341
0.109211 -0.0266998 0.403449
0.0279396 -0.11784 0.254962
-0.232763 0.145646 -0.294067
-0.120787 -0.11784 -0.353691
-0.056876 0.145646 -0.337325
0.241979 -0.11784 -0.241157
-0.249371 -0.0271204 -0.106393
0.185845 -0.0855742 -0.32349
-0.167031 0.104744 0.249406
-0.00102085 0.0107183 -0.318622
-0.112908 -0.11784 -0.0639381
-0.221256 -0.0387449 -0.321138
-0.164679 -0.00341148 -0.300349
0.0697412 0.121022 -0.32349
0.00383268 -0.0824408 0.403449
0.249371 -0.0184969 -0.143274
-0.167031 0.10031 -0.0985951
-0.0194582 -0.11784 0.246172
-0.167031 0.0986506 -0.118521
0.0152748 -0.11784 0.13189
-0.167031 -0.0172612 0.132776
-0.248992 0.13715 0.0628616
-0.249371 0.129173 0.249612
-0.167031 0.010001 -0.106212
0.141312 -0.037135 0.403449
0.026872 -0.11784 0.273111
-0.249371 -0.110453 0.291176
0.0273403 -0.11784 -0.151292
0.0688258 -0.0188661 0.403449
0.025565 0.0105218 -0.317061
-0.167031 0.0522337 0.150451
0.240344 -0.11784 -0.228486
0.0225317 -0.0860583 -0.405829
-0.040481 0.0134265 0.271709
-0.123314 -0.11784 -0.14723
0.0242652 -0.11784 -0.127295
-0.167031 -0.0159965 0.299387
-0.166081 0.117226 -0.32349
-0.249371 0.108022 -0.3846
0.0954298 -0.11784 -0.0062288
-0.249371 0.0300636 0.383007
-0.00297219 -0.11784 0.111579
-0.0569484 -0.11784 -0.0883825
-0.0326157 -0.11784 -0.334416
0.101588 -0.11784 0.306401
-0.249371 0.0516486 -0.274903
-0.100276 0.0145295 0.0648917
0.104215 -0.0924611 -0.32349
0.249371 0.0272338 -0.32697
-0.0568665 -0.11784 -0.273757
0.113591 0.0120061 0.307687
0.0836028 -0.0788718 -0.321138
0.0891122 -0.11784 -0.379368
0.0231611 0.012027 -0.02406
0.00376449 -0.0451441 -0.32349
0.0900445 0.0147718 0.325555
-0.194558 -0.11784 -0.332368
0.109599 -0.11784 -0.279738
-0.054562 0.0117989 0.371907
-0.189004 -0.11784 0.391976
-0.249371 -0.0379467 -0.375298
-0.249371 -0.0431442 -0.333337
-0.249371 0.0425949 0.367849
-0.104235 -0.11784 0.343619
0.204436 0.0131488 -0.230732
-0.0744524 0.00218186 -0.321138
0.0324377 -0.11784 -0.295783
0.249371 0.139841 -0.352154
0.169071 -0.11784 0.0953289
-0.249371 0.144038 -0.366067
0.218693 0.0114963 -0.119581
0.0440253 0.0175661 -0.32349
-0.167031 0.0961846 -0.0335347
0.159092 -0.0131205 0.403449
-0.229668 -0.11784 0.0753058
0.244925 -0.11784 0.363614
0.035849 -0.11784 0.201518
-0.0646486 -0.11784 -0.270869
0.0736126 0.068408 -0.32349
-0.161285 -0.111136 0.403449
-0.0660595 -0.11784 0.238669
-0.222507 0.00940143 0.403449
-0.164679 -0.056518 0.302076
-0.0320723 -0.0401129 -0.321138
-0.0294682 -0.11784 0.0753724
-0.249371 -0.0356269 0.285263
-0.164679 -0.110492 -0.00616464
-0.209257 -0.117729 -0.401392
-0.188088 -0.0527885 -0.405829
0.0515393 -0.11784 -0.210274
0.101409 -0.11784 -0.167549
0.0691076 -0.0501862 -0.405829
-0.164679 -0.0266386 0.291133
-0.199585 0.145646 0.220911
-0.0975067 -0.11784 0.254031
-0.249371 0.116863 0.104119
-0.164679 -0.0206126 0.320983
0.12344 0.145646 -0.347549
0.0905303 0.145646 -0.356938
0.138683 -0.0310971 0.403449
-0.211276 0.145646 0.214725
0.00933131 -0.11784 -0.350917
0.249371 -0.0865613 0.289756
0.086157 -0.11784 0.148355
-0.00322635 -0.0155645 -0.405829
0.0659363 -0.11784 -0.252652
-0.0328428 0.0148074 -0.1723
-0.167031 0.0624301 -0.257825
0.0476825 -0.10018 -0.32349
0.20877 0.0153811 -0.0697996
-0.201987 0.145646 0.389455
0.200317 -0.11784 -0.0834223
-0.249371 0.0302159 -0.25375
0.00850072 -0.11784 0.218037
-0.167031 0.0281303 -0.186459
0.0838109 -0.11784 -0.110466
-0.127989 0.0149829 0.0289343
-0.167031 0.0129603 0.217872
0.225433 -0.11784 -0.341208
-0.206097 0.106747 -0.405829
-0.0840421 0.0115998 -0.106433
-0.164679 -0.0950527 0.391117
-0.0158919 0.0123634 -0.10623
-0.0280283 0.0955963 -0.405829
0.249371 -0.110323 0.0481911
-0.0427039 -0.11784 -0.159162
0.107795 0.0095397 0.406062
-0.248173 -0.11784 0.00700916
-0.164679 -0.00157361 -0.0587345
-0.167031 0.0689447 0.378094
0.249371 -0.0298787 -0.303218
-0.0173189 0.0413323 -0.405829
-0.228433 0.0274085 -0.321138
0.0720318 0.0928872 -0.32349
-0.167031 0.0614169 -0.111463
0.249371 -0.0284752 0.258311
-0.0157568 -0.0825795 -0.321138
-0.118968 0.0149612 -0.248687
0.0950586 -0.09737 0.403449
-0.0738645 0.0132075 0.044565
0.160716 0.0106961 -0.119565
0.249371 -0.117029 0.283555
0.109416 0.0144676 0.225457
-0.167031 -0.0206218 0.261334
-0.0818496 0.0142239 0.0380266
-0.249371 0.0739711 -0.205429
-0.249371 -0.0585672 -0.154091
0.132309 0.128091 -0.405829
0.249371 -0.0379594 0.193165
0.181749 0.0147581 0.128191
0.201697 -0.112409 -0.405829
-0.169321 0.141764 0.151309
0.0229851 0.0133139 0.121792
-0.167031 0.114295 -0.13806
0.0684606 0.0141663 0.229203
-0.167031 -0.110077 0.265118
-0.087389 0.0693262 -0.405829
-0.249371 0.036704 -0.11425
-0.0539157 0.124227 -0.32349
-0.0371115 0.0231531 -0.405829
-0.168758 -0.11784 0.14568
-0.0736843 -0.11784 -0.391014
0.0680962 -0.11784 0.19996
-0.167031 -0.0528422 -0.124157
-0.164679 -0.0855706 0.209317
-0.198916 0.145646 0.166502
0.249498 0.00922149 0.21598
-0.164679 -0.0655609 0.151923
-0.167031 -0.0941684 0.372568
-0.046513 0.0107639 -0.016373
0.110073 0.0143958 0.0175542
-0.0581466 -0.0237931 -0.405829
0.249371 -0.078319 -0.303211
0.123911 -0.11784 0.339315
0.243302 -0.11784 0.170671
0.230654 -0.101871 0.403449
-0.220064 0.0165906 -0.32349
-0.167031 0.0635721 0.355366
-0.249371 0.05076 -0.16344
0.249371 -0.115736 -0.349976
-0.249371 0.0138472 -0.0370909
0.249371 -0.0956101 0.056606
-0.0927924 -0.11784 0.333102
0.231975 0.0264128 -0.405829
-0.138351 0.014244 -0.286773
0.104762 0.0151182 -0.179555
-0.0591104 0.00159782 0.403449
-0.167031 -0.10915 -0.140886
0.178056 0.0100542 0.0937559
0.098893 -0.11784 -0.0445796
0.219081 -0.11784 -0.000630958
0.144623 0.00976713 0.384706
-0.0632741 0.00995388 0.387887
-0.249371 -0.115487 -0.218363
0.042279 -0.0717747 -0.321138
-0.249371 0.103963 0.190471
0.0178653 -0.11784 -0.186839
-0.178077 -0.11784 0.197788
0.180217 -0.11784 0.206553
-0.140653 0.0128822 0.110745
-0.249998 -0.0450201 -0.405715
0.170329 -0.11784 -0.123125
-0.246721 0.142633 -0.237963
-0.167031 0.0933625 0.00296494
-0.167031 0.0313018 0.278227
-0.0601392 -0.11784 -0.272185
0.197857 0.145646 -0.366743
-0.167031 0.0124153 0.25546
-0.175759 0.0328857 0.403449
-0.249371 -0.098383 -0.215748
-0.024952 -0.11784 -0.00828949
-0.0349188 -0.107982 0.403449
0.200802 0.0116626 -0.222456
0.18627 0.0149109 -0.183107
-0.167031 0.0131308 0.105148
-0.12432 0.145646 -0.369726
-0.167031 0.0482402 -0.0123305
-0.247918 0.139745 0.325759
0.249371 -0.00786027 -0.401557
-0.00273422 0.0144234 0.323288
-0.167031 0.0978077 -0.24674
0.146873 -0.11784 -0.118313
0.192287 0.103916 -0.32349
-0.186817 0.145646 -0.27063
-0.249371 -0.0785859 -0.332777
0.0620863 -0.11784 -0.0657171
-0.249371 0.0414785 -0.168204
-0.00383714 0.010651 -0.215046
0.241948 -0.11784 0.359295
-0.0486928 -0.11784 0.252469
-0.0461869 0.0130276 0.162548
-0.249371 -0.0634624 0.21706
-0.167031 -0.0827713 0.160828
0.0262504 0.0137048 -0.0636389
-0.166873 -0.00303053 -0.32349
-0.164679 -0.0739759 0.0325866
-0.138787 -0.11784 0.313024
-0.0701426 -0.11784 -0.346654
0.203077 -0.0476147 -0.405829
0.0945672 -0.0800858 0.403449
-0.183759 0.145646 0.0655694
-0.249371 0.101729 -0.256953
0.0706009 -0.11784 0.131983
0.25214 0.0090686 -0.248462
0.0498925 0.0107833 0.0811292
0.0383074 0.0834075 -0.32349
-0.248742 0.137755 0.303895
-0.205079 0.0232449 0.403449
-0.167031 -0.0220074 -0.0168285
0.127212 -0.11784 -0.390488
-0.0054411 0.0157345 0.344651
0.22096 0.0146867 -0.259992
0.126254 -0.11784 0.108021
0.249371 -0.109538 -0.112532
0.249371 0.127548 -0.380323
-0.0990705 -0.11784 0.354872
-0.249371 -0.0974649 0.306058
-0.164679 -0.00376018 0.328793
-0.233947 0.145646 0.279116
-0.167031 -0.102821 0.0094984
-0.0303947 -0.11784 0.307003
-0.173737 -0.0101406 -0.321138
-0.167031 0.031682 -0.192388
-0.0847315 -0.11784 -0.298974
-0.00981435 -0.11784 -0.0216258
0.123858 0.0139913 0.261671
0.249371 0.000297185 0.318882
0.212328 0.011048 -0.221477
0.249371 -0.0692727 0.176922
0.209293 0.0963296 -0.32349
0.0219623 -0.11784 -0.386737
0.192503 0.0392829 -0.405829
-0.167031 -0.0599099 0.380839
-0.168532 0.13986 -0.25336
0.103209 0.0538161 -0.405829
-0.188603 -0.11784 -0.056949
-0.181559 0.145646 -0.0411927
0.22941 0.012639 -0.198988
-0.249371 -0.100772 -0.315973
-0.167031 0.0443273 0.340022
0.119012 -0.11784 -0.0628566
0.159125 0.0129257 -0.048008
-0.070308 0.0121311 -0.0839198
-0.167031 0.124977 -0.236369
0.00779077 -0.0773638 -0.405829
-0.249371 -0.115432 -0.208205
-0.164679 -0.0790971 0.358106
-0.167031 0.0182593 -0.039776
-0.164679 -0.0898308 0.148149
0.249371 -0.117678 0.328872
-0.0805569 0.0132366 0.16944
-0.00705151 -0.11784 0.349943
-0.167031 -0.00437372 0.319633
-0.116964 -0.11784 -0.359766
0.145893 0.00944558 0.230638
-0.167031 0.121903 0.387911
0.249371 -0.0907371 0.167651
0.0502603 0.0123058 0.135745
-0.245789 -0.11784 -0.306119
-0.167031 0.0691794 -0.209536
-0.167031 -0.112026 0.215173
-0.233865 0.145646 -0.136918
-0.249371 -0.100113 -0.0828935
-0.00879283 0.115557 -0.405829
-0.00545455 -0.11784 -0.291199
0.177034 -0.11784 -0.224235
0.105811 -0.11784 0.0930465
-0.246916 0.142163 0.000560775
-0.249371 -0.0828666 -0.21974
-0.0427635 -0.11784 -0.093962
-0.167031 0.023804 -0.284132
-0.167031 -0.0726293 -0.153365
0.203966 -0.0422823 0.403449
-0.167031 0.00832686 0.361901
-0.0784333 -0.11784 0.0577242
-0.114141 -0.11784 0.184839
0.229316 0.0947316 -0.405829
-0.249371 0.0999275 -0.183451
-0.0333599 -0.11784 0.397267
-0.249371 -0.0157459 -0.374939
-0.251849 -0.0253312 -0.323074
-0.167031 0.0957135 0.095474
-0.246515 0.0700113 -0.32349
0.0479931 0.011848 0.153443
0.224093 -0.0429467 -0.405829
-0.0541795 -0.11784 -0.187152
-0.249371 -0.0772879 0.087977
0.0306836 -0.11784 0.214543
-0.249371 0.0866011 -0.220247
-0.249371 0.0713848 -0.135999
0.0963651 -0.0828529 -0.405829
0.249371 -0.0344093 -0.162763
0.133985 0.0131458 0.350066
-0.173321 -0.11784 -0.0931425
0.0460594 0.0596702 -0.32349
-0.203216 -0.11784 -0.395037
-0.24712 0.14167 0.172633
-0.164679 -0.0801684 -0.0821364
-0.213155 -0.11784 0.162548
-0.249371 0.0394304 -0.189485
0.164293 -0.11784 0.350037
0.0435547 0.00953688 -0.106049
-0.194165 0.145646 0.0552189
-0.244661 -0.0663387 0.403449
-0.197609 -0.145105 -0.342291
-0.178287 0.145646 0.349044
0.0296904 -0.11784 0.02612
0.0393617 -0.0441679 -0.405829
-0.241422 -0.11784 0.0760861
0.0125859 0.00752115 -0.32349
-0.167031 -0.0661849 0.0691806
0.249371 -0.00774168 0.0479785
0.0813582 -0.117523 -0.401889
-0.0126764 -0.0810138 -0.321138
0.160636 0.114084 -0.32349
0.0964222 0.135184 -0.32349
-0.164679 -0.0961341 0.293881
0.135447 0.0125409 0.262493
-0.230143 -0.11784 0.198738
0.249371 -0.0324421 -0.0770325
-0.167031 0.129765 0.0743562
-0.249371 -0.0508197 -0.278676
-0.249371 -0.0668767 0.293496
0.250959 0.145935 -0.385268
0.249371 -0.0584165 -0.0681987
-0.167031 0.132479 0.134817
-0.167031 0.125144 -0.258479
0.249371 -0.0871358 0.258982
-0.0159529 -0.11784 0.0557748
-0.0946065 -0.0927898 -0.321138
0.0896834 -0.020226 0.403449
-0.144035 0.0122791 0.1817
0.0833675 0.0195616 -0.32349
0.249371 -0.10493 -0.23413
0.142215 -0.0164951 -0.321138
0.15458 0.0114941 -0.0951209
0.0848358 0.0131199 0.18292
-0.249371 0.0548345 -0.129248
-0.167031 -0.104083 0.3157
0.182414 0.00906923 -0.405829
-0.164679 -0.0605544 0.122164
-0.249371 0.131179 -0.0580051
-0.0925845 -0.11784 -0.146658
-0.167031 0.0707526 -0.0501068
-0.230528 0.145646 -0.12285
-0.211015 -0.12628 -0.3558
-0.157447 0.0564622 -0.32349
0.249371 -0.0705561 -0.15839
0.0983658 -0.00648881 -0.405829
0.249371 0.0016376 0.194493
-0.249371 0.0425443 0.246192
0.174727 0.0133759 0.00935039
-0.234441 -0.106075 0.403449
-0.167031 0.0478729 -0.191256
0.0842804 0.015091 -0.254448
0.23719 -0.0783949 -0.32349
0.203367 0.0139351 0.319003
-0.167031 -0.00819044 -0.0252965
-0.249371 -0.064583 0.380572
0.020262 0.0134062 0.11784
0.13283 -0.11784 -0.172374
0.0405985 0.0252936 -0.32349
0.00134987 0.145646 -0.334352
-0.135773 -0.11784 -0.291131
-0.167031 -0.110757 -0.0145297
-0.140973 -0.11784 -0.0940095
0.119771 0.0148781 0.246083
-0.193598 0.104216 -0.32349
-0.208007 -0.0250211 -0.405829
0.0338801 -0.11784 -0.103409
-0.194071 0.0605431 0.403449
0.147855 0.0105282 0.266348
-0.0447712 -0.000684558 -0.321138
0.0677688 0.0132555 -0.093826
0.0827056 -0.0357531 -0.405829
0.0535921 0.0120329 0.0115404
-0.0764285 0.118535 -0.32349
-0.249371 -0.103086 0.247744
-0.145675 -0.0819186 -0.321138
0.207028 -0.11784 0.00816969
-0.164679 -0.0130258 0.311236
-0.249371 0.107487 -0.351922
-0.167031 0.0808694 0.0770287
-0.167031 -0.0899734 0.374515
0.249371 0.00148096 -0.0451571
-0.157905 0.0122981 0.349751
-0.141861 -0.11784 0.0846685
-0.009618 -0.0225273 -0.321138
0.0871812 0.0125908 0.394117
-0.249371 0.0035918 -0.0728947
-0.167116 0.0946691 0.403915
-0.200465 0.145646 0.226948
0.234673 -0.11784 -0.327643
-0.249371 -0.0890554 -0.34696
-0.141067 0.0141327 0.0269741
-0.0942722 0.0110514 0.192647
-0.167031 0.121288 -0.155851
0.0889894 0.0147392 0.118769
-0.210793 0.145646 0.0321416
-0.249371 0.0245206 -0.357531
0.0232704 -0.0684821 -0.321138
0.175264 0.0237679 -0.32349
-0.140647 -0.0499384 0.403449
-0.0648459 0.0108377 0.275188
0.249371 -0.0119583 -0.178057
-0.249371 0.0597333 -0.123403
0.153132 0.0526635 -0.405829
0.0635328 0.0131497 0.0699802
0.249371 -0.00124536 0.045542
-0.167031 0.0495502 -0.270998
0.210503 -0.11784 0.111517
-0.167031 0.0195548 0.158251
-0.249371 -0.112591 -0.182977
0.247996 0.0100754 -0.177972
0.0831851 0.0141168 -0.0919594
0.209011 -0.0396065 -0.405829
0.138762 0.145646 -0.355684
-0.189899 0.145646 0.0464177
0.238707 -0.11784 0.0740259
0.248717 -0.11784 0.345579
-0.167031 0.0309135 -0.261014
-0.00962907 0.013144 -0.125755
-0.21007 -0.134946 -0.350066
0.0357636 -0.028163 -0.321138
0.134927 0.145646 -0.353205
-0.142552 -0.11784 -0.332596
-0.213418 -0.11784 0.0274903
-0.249371 0.134955 -0.107102
-0.167031 -0.0377516 -0.235698
-0.107285 0.0157068 0.254372
-0.167031 0.000897438 0.315403
0.0492365 0.0120802 0.0522902
-0.0511881 0.0126218 0.258026
-0.249371 -0.0151696 -0.120873
-0.0231569 -0.0537678 -0.32349
-0.167031 0.110342 0.343049
-0.209095 0.145646 0.376349
-0.10711 -0.11784 0.0339221
0.201522 0.0155211 0.0524999
0.200152 0.0153841 0.232957
0.240568 -0.0490007 -0.32349
0.248195 0.145646 -0.378239
-0.117989 0.0130658 -0.12616
-0.249371 -0.0350475 0.0109541
-0.0104059 0.0134248 0.389647
0.153851 -0.11784 0.359357
0.212025 -0.11784 0.115863
0.0832133 -0.11784 0.371532
-0.164679 -0.0291625 -0.136729
-0.167031 0.0853129 0.185878
0.207172 0.00594738 -0.405829
-0.204216 -0.0204598 -0.405829
-0.0776836 0.0109251 -0.0165651
-0.144254 0.0139601 -0.155584
0.0454038 0.00996706 0.0854271
0.0452515 -0.0741287 0.403449
-0.167031 -0.042538 0.0184474
-0.214369 0.136148 -0.405829
-0.0529527 0.0123777 0.359738
0.249371 0.0389754 -0.368291
0.0290945 -0.11784 -0.186885
0.0320622 0.130928 -0.405829
0.209786 -0.118828 -0.358765
-0.0457313 0.0349271 -0.32349
-0.141152 0.0150826 -0.32349
0.249371 0.043409 -0.405283
-0.167031 0.063201 -0.29693
0.226456 -0.11784 -0.3555
0.200208 -0.11784 -0.390393
0.150914 0.00961556 -0.0122313
0.0329648 -0.11784 -0.178396
-0.167031 0.114767 -0.0180677
0.0324974 0.00906706 0.404172
-0.167031 -0.0566126 -0.297488
0.0829836 -0.11784 -0.12166
0.249371 -0.0687542 0.0464313
-0.167031 -0.0389613 0.0493144
-0.249371 -0.00715678 0.265558
-0.11808 0.0144081 0.0120619
0.161834 0.0131429 -0.184072
-0.100483 -0.099801 -0.321138
-0.0143592 0.0128992 -0.125009
0.091531 0.0150315 0.166886
0.0727187 -0.0476877 -0.32349
0.117646 0.0197637 -0.32349
-0.0030505 -0.066746 0.403449
0.0975199 0.0157231 -0.0700906
-0.167031 0.0470324 0.200306
0.108961 0.145646 -0.357559
-0.0600659 -0.11784 0.184518
-0.249371 -0.077039 0.38171
0.233168 -0.111814 -0.405829
-0.167031 0.0744369 -0.238025
-0.0682494 0.00957005 -0.113252
-0.13442 -0.11784 -0.252917
-0.167031 -0.0251181 -0.161178
-0.117227 0.0122173 0.0862585
-0.249371 -0.0869814 -0.24003
0.0302332 0.111693 -0.32349
0.249371 0.00147908 -0.0273345
-0.167031 0.117463 -0.0384694
0.239014 -0.0451194 0.403449
-0.146953 -0.0821149 0.403449
-0.164679 -0.0201442 0.109397
0.151756 -0.10861 0.403449
-0.167031 0.0318624 -0.193559
0.16143 0.145646 -0.37369
-0.0971286 -0.0193027 -0.321138
-0.107316 -0.11784 0.16769
-0.164679 -0.000542204 0.0189176
0.168595 -0.0764401 -0.32349
-0.249371 0.0929364 0.401799
-0.105569 -0.11784 0.340719
0.209245 0.0148055 -0.0432622
-0.167031 -0.0367837 0.18722
-0.0877932 -0.0195943 -0.32349
-0.172533 -0.0113221 -0.321138
-0.164679 -0.0811518 -0.258387
-0.0828818 0.0241665 -0.405829
-0.0113299 -0.11784 -0.30875
0.217751 -0.11784 -0.246958
-0.167031 -0.00876907 -0.0430625
-0.164679 -0.0921159 0.320135
-0.249371 -0.0235822 -0.0769419
0.0317272 -0.11784 -0.266765
-0.164679 0.00842014 -0.0222614
-0.167031 0.0754202 0.280391
-0.164679 -0.0548266 -0.30183
-0.0875674 0.0497368 -0.32349
0.15002 -0.11784 0.353053
0.215447 -0.11784 0.308426
0.172793 -0.11784 -0.028245
0.249511 0.0232144 -0.405855
-0.236391 -0.11784 0.0608428
-0.167031 0.055016 -0.259247
-0.164679 -0.0778663 0.0494662
-0.164679 -0.0978274 0.129548
-0.167031 0.0929862 0.21646
-0.0126604 0.0441183 -0.32349
-0.177703 -0.028159 -0.321138
-0.107294 0.0350558 -0.405829
-0.167031 0.109951 -0.291186
-0.224824 -0.0447989 -0.321138
0.067008 -0.0616197 -0.405829
-0.247466 -0.11784 0.115835
0.221182 -0.0858396 -0.405829
-0.249371 0.075867 0.257895
-0.167031 0.0571319 -0.0813933
-0.22016 -0.101269 -0.32349
-0.13607 0.00987174 0.298748
-0.196556 0.145646 0.173044
0.182073 0.0129638 0.286062
-0.164679 -0.037259 -0.00885762
0.22502 0.0120375 0.0827516
0.130202 0.0108044 0.305628
0.249371 -0.101561 -0.336113
-0.15689 0.0114332 0.112964
-0.20211 0.00309565 -0.32349
0.218831 0.0150729 0.354472
0.206692 0.0156476 0.141062
0.202083 -0.00596453 -0.32349
0.104833 -0.0909391 0.403449
-0.0613223 -0.11784 -0.143523
0.04069 -0.0132572 0.403449
-0.031189 -0.11784 0.038796
0.12112 0.0146919 -0.169674
-0.164679 -0.0112121 0.080894
-0.0209285 0.115294 -0.405829
-0.167031 -0.106198 -0.0564446
0.0975594 -0.019987 -0.32349
-0.197392 -0.121413 -0.34005
0.0196256 -0.11784 0.0458742
0.0282523 0.0110949 -0.0190982
0.249371 -0.0942834 -0.324065
-0.210644 0.145646 -0.234576
-0.173771 -0.0302868 -0.321138
-0.249371 0.0527278 0.0186874
-0.171629 -0.11784 -0.336213
0.0658142 -0.041064 -0.32349
-0.249371 -0.114916 0.243007
0.214463 0.0127833 0.183645
-0.249595 0.0645006 -0.405788
0.10183 0.0130555 -0.101512
0.171734 0.0148676 -0.163773
0.179227 0.0139473 0.0693653
-0.0417073 0.0123338 0.212566
-0.164679 -0.116184 0.295953
0.0478443 -0.11784 -0.225942
0.135636 -0.11784 -0.100425
0.249371 -0.0174653 -0.119454
-0.207933 0.145646 -0.213081
-0.209904 0.145646 0.180408
0.214351 -0.0616973 -0.32349
-0.151284 0.0868106 -0.32349
0.0758982 0.103781 -0.32349
-0.167031 0.0949995 -0.164358
0.164723 0.0132232 0.0649335
-0.0990961 -0.11784 0.0572051
-0.10495 0.0144038 0.0692263
0.0953466 -0.11784 0.202598
-0.164679 -0.0274118 -0.17344
0.118084 -0.0889512 -0.321138
-0.167031 -0.101508 0.082309
0.249371 -0.0638943 -0.0645868
-0.249371 0.0308743 0.284874
0.249371 -0.113597 0.182256
-0.249371 -0.0136498 -0.27799
-0.000209823 0.0149024 0.0603668
0.0232299 -0.0694165 -0.32349
-0.167031 -0.0580588 0.282105
-0.212967 -0.11784 -0.2422
-0.181323 -0.11784 0.122435
0.17636 0.0206227 -0.32349
-0.249371 0.0903721 -0.0113072
0.214286 0.0869128 -0.405829
-0.160349 -0.11784 0.103951
-0.135151 -0.11784 0.191582
0.132095 -0.11784 0.29659
0.0357924 0.0117771 0.227449
-0.0347713 -0.11784 -0.204516
0.170642 0.0146576 -0.0576279
0.0288582 0.0123577 -0.240865
0.162163 -0.11784 -0.0369286
0.181047 0.112209 -0.405829
0.207552 -0.116565 -0.32349
-0.249371 0.0625197 0.255534
-0.249371 -0.00469742 -0.198465
-0.167031 -0.00845008 0.257619
-0.0990951 -0.11784 -0.357856
-0.249371 0.070116 0.0149371
-0.0341517 -0.11784 -0.0383352
-0.216067 -0.11784 0.260413
-0.206633 -0.0162329 -0.321138
0.203291 -0.11784 0.0585609
0.249371 -0.0879325 -0.243127
-0.167031 -0.030119 0.126955
0.222602 -0.11784 0.281085
-0.249371 -0.0105835 -0.160322
-0.0671168 0.00878347 0.403449
0.144077 0.00979094 0.291247
-0.167031 -0.0569849 -0.193999
-0.0660416 -0.11784 0.221686
-0.167031 -0.102797 -0.213518
0.236399 0.0129712 -0.0505712
-0.237395 0.0979328 -0.321138
0.165466 -0.11784 -0.0713487
0.249371 -0.00415633 -0.234059
-0.117165 0.0138396 -0.132035
-0.180492 -0.0288438 -0.405829
0.0116303 0.140029 -0.404258
-0.249371 -0.1055 -0.131132
-0.198607 0.0195018 -0.32349
-0.167031 0.127621 -0.191479
-0.249371 -0.072287 0.370334
-0.0426117 0.00699225 -0.321138
0.00257099 -0.11784 -0.275622
-0.249371 -0.059859 -0.288467
-0.0460659 -0.102649 -0.32349
-0.218859 -0.11784 -0.0102571
-0.247165 0.141563 0.0840415
-0.123063 -0.11784 -0.151668
-0.128201 0.0143418 0.0664152
-0.167031 0.0343872 -0.28877
-0.239415 0.145646 -0.158666
-0.167031 0.130336 0.378687
-0.0719496 0.0261218 -0.405829
-0.167031 0.0649534 0.341487
0.141792 -0.0556563 -0.32349
-0.22102 0.145646 0.366699
0.0139024 -0.0714687 -0.405829
-0.164679 -0.0871961 0.382571
0.249371 0.141391 -0.378769
-0.0377359 -0.11784 -0.381873
-0.249371 -0.0545061 -0.26209
-0.132135 0.0127648 -0.204387
-0.249371 0.0168004 -0.0435699
0.249371 -0.0241338 0.0229836
-0.167031 -0.0404014 0.317759
0.146186 0.140899 -0.325421
0.155687 -0.11784 -0.0754587
-0.249371 -0.100671 0.0845892
-0.0466571 0.100785 -0.32349
0.245548 0.0441764 -0.405829
-0.164679 -0.0836595 0.327295
0.0167119 0.014509 0.258476
0.150054 0.0102535 0.393113
-0.249371 -0.0383521 -0.131773
0.186253 -0.0621134 -0.32349
0.0847348 0.0135514 0.109862
-0.164679 -0.0166727 -0.256214
-0.00157357 0.00957293 0.405508
-0.167031 0.00250361 -0.210991
-0.180931 -0.11784 0.115145
0.212304 -0.11784 0.0755627
0.129806 0.0121778 -0.235271
0.249371 -0.111909 -0.360614
0.184332 -0.11784 -0.0256052
-0.0800696 0.0128118 -0.0923629
0.130392 -0.11784 0.369065
-0.167031 -0.0202011 0.295708
0.145167 -0.00359325 -0.405829
-0.164679 -0.0245563 -0.287197
-0.240698 0.145341 0.178243
-0.139612 0.0131618 -0.133788
0.249371 -0.0901478 -0.0168273
0.0216921 0.0141843 -0.170107
-0.0280142 -0.00114098 -0.405829
