ply
format ascii 1.0
comment Created by Open3D
element vertex 1580
property double x
property double y
property double z
end_header
0.0822424 0.00639333 -0.305665
0.0251064 -0.0142806 0.371325
-0.0678723 -0.0142327 0.335895
-0.0777959 0.0413635 0.125545
-0.0388918 -0.0136072 0.176477
0.043 -0.0101019 0.418663
-0.131268 0.0160821 -0.452458
-0.0272671 0.0212855 -0.213838
-0.0511516 0.0196097 -0.288713
0.102762 0.0207538 -0.192584
-0.0749327 -0.0241127 -0.147837
-0.00376822 -0.0124827 -0.114262
0.0390439 -0.0140517 0.313784
-0.131267 0.02746 -0.403051
-0.0254483 -0.0120857 -0.225208
0.0625492 0.0349393 -0.322167
-0.077071 0.037062 -0.252605
-0.0788756 0.0473798 -0.362474
-0.0708383 0.0174612 -0.225579
-0.0328734 -0.0130619 0.0327967
-0.00702096 -0.0124173 -0.132464
0.104985 0.0193685 0.233603
-0.0311486 0.0415123 -0.35756
-0.0666925 -0.0145018 0.407796
-0.131256 0.0916772 -0.0953413
0.0237444 0.0233338 -0.123186
-0.0226434 0.0618769 0.46871
-0.0749696 -0.0250941 -0.315475
-0.0892017 0.0805451 0.432852
0.0469034 0.0191638 0.341449
-0.131261 0.0536947 -0.269292
-0.0883249 -0.109945 0.336634
0.0445763 -0.0480443 0.216654
-0.131176 -0.0267012 -0.219283
-0.131227 0.0161543 -0.272172
-0.128774 -0.0435281 -0.353179
0.0788911 -0.0118703 -0.257076
-0.131074 -0.0300056 0.220244
0.00873923 -0.013029 0.0342045
0.0971476 -0.0413059 0.468248
0.112146 -0.0135708 0.20368
-0.131183 0.0846369 0.200885
-0.030911 -0.0144222 0.395362
-0.0826826 -0.0448043 0.467382
0.06614 -0.0135105 0.412181
-0.124366 0.111484 0.0529339
0.0456093 0.0209718 -0.230923
0.0174092 0.0215516 0.265454
-0.0973597 -0.0760822 -0.3193
0.0700475 -0.00806787 0.421019
0.1069 -0.0132804 0.125039
-0.00161959 -0.0462228 -0.279469
-0.0318794 0.0207808 -0.236491
0.0962357 0.00437312 -0.305676
-0.0748457 0.00227384 0.344315
0.019355 -0.0141936 0.34675
-0.0752596 0.0130342 0.224887
0.083565 -0.0138394 0.268135
0.0057048 0.0395058 -0.327207
-0.0647686 0.0185502 -0.0368912
0.0155579 0.0246425 0.0825302
0.131189 0.0088581 0.322715
-0.0748778 -0.0345341 0.0527753
-0.0767951 0.0334103 -0.19038
-0.100253 0.107924 -0.307245
-0.131115 0.0660259 0.427269
-0.0833356 0.0650273 0.228121
0.0180075 -0.0128897 -0.000625074
0.0943871 0.0648281 0.435816
-0.089341 0.0820158 0.0805156
0.103715 -0.0492563 0.304271
-0.0711654 -0.0126284 -0.0919052
0.052144 -0.0130121 0.040274
-0.129059 0.10834 0.208185
-0.0552176 -0.0462383 -0.288424
-0.0755748 0.0250383 -0.45193
-0.0749432 -0.0344018 -0.236142
-0.131183 0.010188 -0.0987272
-0.0348356 -0.013731 0.210413
0.103377 0.0300982 0.429554
-0.0984497 0.102418 0.339822
0.0770883 -0.0133378 0.133062
0.0443323 -0.0118251 -0.277552
0.0119082 -0.0121847 -0.189731
0.039366 -0.0457224 -0.402657
-0.123686 -0.0484096 0.305509
-0.104575 0.110728 0.142647
-0.131133 -0.0127152 0.0265706
-0.0590513 -0.0131415 0.0476232
-0.0773167 -0.0308802 -0.468574
-0.106318 -0.0489193 0.412695
-0.0772452 0.0393407 -0.255907
-0.00251036 -0.014341 0.380641
-0.0454972 0.0261041 0.468581
-0.0837935 0.0667717 0.313233
0.0217536 -0.0459828 -0.337647
-0.0754308 0.022678 -0.41157
0.0918048 -0.0117891 -0.275532
-0.130792 0.104003 0.393427
0.0084409 0.0799344 0.466278
-0.0369203 -0.0119466 -0.265023
-0.0535503 -0.0468311 -0.130236
-0.131106 -0.0260574 0.0937778
-0.131185 0.0397385 0.0101843
0.0527508 -0.0133148 0.121011
0.0921879 -0.047395 0.0554533
0.124788 0.0179802 0.0443086
-0.131244 -0.00815747 -0.447812
-0.131173 0.036345 0.048052
-0.074879 -0.0335827 0.0513296
0.0799013 -0.0137183 0.235014
-0.131156 -0.00720412 -0.0516103
-0.105214 0.11029 0.329056
-0.131045 0.102924 0.422399
0.0587698 -0.0468251 -0.104402
-0.107405 -0.0485469 0.313271
-0.0377917 0.0184149 0.36115
-0.0936471 0.093724 -0.193867
-0.101502 0.107506 0.36139
-0.0141956 -0.04825 0.257017
0.127228 -0.0413478 -0.326552
-0.0648013 -0.0135247 0.148215
-0.131232 0.00825445 -0.323997
-0.126714 0.111441 -0.101258
0.0287716 -0.0127242 -0.0420292
0.0619161 0.0303995 0.468573
0.072325 -0.0139437 0.293166
-0.0748245 -0.0248597 0.327522
0.120076 -0.0126691 -0.0344405
0.0597136 -0.0471986 -0.00475045
-0.131233 0.0152313 -0.300439
0.129833 0.0135239 0.228635
0.0114734 0.0191625 0.339932
0.0631221 0.0547314 0.434009
-0.0217433 0.0513116 0.468671
0.0616047 -0.0475142 0.0797063
-0.113556 0.112625 -0.181661
0.0151361 -0.0141816 0.342523
0.0953199 0.0171341 0.407075
0.0323925 0.0185364 0.360439
-0.0696116 -0.0462355 -0.292683
-0.131152 0.00161592 0.00180641
0.0169526 -0.0142129 0.351294
0.0279819 -0.0129287 0.0122064
-0.0841579 0.069267 -0.0194815
-0.023962 -0.01233 -0.159823
-0.0748262 0.00543738 0.441776
-0.0719202 0.0163074 -0.202125
0.0284499 0.0419391 -0.456646
0.0771898 -0.0462289 -0.2586
-0.131087 -0.0221018 0.192208
-0.131132 0.0835395 0.423185
-0.0665752 -0.0477667 0.115586
0.0133411 -0.0141759 0.340574
-0.0589283 -0.0134012 0.116766
0.0962286 -0.0118864 -0.248554
0.128243 -0.0381101 0.348888
0.0709217 0.0415627 -0.346054
0.0179067 0.0243269 0.115666
-0.0996128 0.104613 0.334722
0.00310739 -0.0477175 0.119532
0.126219 -0.0442174 0.0155467
0.0425145 -0.014179 0.34853
-0.00630777 0.0216753 0.468556
-0.0749324 -0.0234967 -0.143986
-0.114232 -0.0484842 0.462861
-0.0749874 -0.00240211 -0.301143
0.088484 -0.0939575 -0.373096
-0.0748924 -0.0233513 0.0331067
0.0839014 -0.0477721 0.153811
-0.13121 0.0840239 0.0785709
0.0859561 -0.0482192 0.273329
-0.102598 0.109905 0.0502644
0.0516372 0.0230523 0.15025
0.0947176 -0.0118265 -0.264878
-0.0693251 -0.0144357 0.389569
0.0652527 -0.108312 -0.350627
-0.0885663 0.0808083 -0.152874
-0.130891 0.107157 -0.369843
0.0532732 0.0232033 0.131827
0.105645 -0.0473452 0.0454636
-0.0494206 -0.012384 -0.151652
-0.0398524 -0.0458191 -0.396236
-0.0318382 -0.0468911 -0.108946
-0.0801341 0.0514414 0.136373
-0.0893382 0.0823986 -0.0420439
0.00749912 0.00132962 -0.468688
0.0987954 -0.013977 0.308548
0.0858685 -0.0135564 0.412971
0.1281 -0.024084 -0.230557
-0.131159 -0.012542 -0.0859592
-0.0750279 0.0100446 0.17639
0.131206 0.00952862 -0.173782
-0.0890637 -0.105975 -0.327603
0.0502676 -0.0132708 0.108698
-0.131148 -0.012598 -0.0405361
-0.0434823 0.0203924 0.10586
-0.0434019 -0.0480854 0.206076
-0.0409011 -0.0137182 0.411735
-0.0416464 -0.0466883 -0.165337
0.0480575 0.0218245 -0.315554
0.0926394 0.0211773 -0.222194
-0.0749725 -0.0207973 -0.310155
-0.0748766 -0.0253995 0.0946268
0.0908023 -0.0137435 0.244435
-0.074884 -0.0189264 0.0878943
0.0549015 -0.0122971 -0.149352
0.0759023 -0.0486063 0.373886
0.0376927 -0.0316932 0.468345
-0.0858301 0.0728417 0.18729
0.0422241 -0.0488823 0.439095
-0.0250472 0.067145 0.468731
0.0651715 -0.0118523 -0.265225
-0.131289 0.103952 -0.185483
-0.131177 0.0612767 0.130721
0.116196 -0.0483332 0.311041
0.0959098 -0.0126415 -0.0476754
-0.0753186 0.0141728 -0.263457
-0.131284 0.0674724 -0.312945
0.0597612 0.0168893 0.413169
0.0853321 -0.013082 0.066979
0.0733665 -0.0119783 -0.229698
-0.106969 0.111607 0.0587105
0.0847799 0.0220258 -0.0633136
-0.101172 -0.0474441 0.0213336
0.0679705 0.0207361 -0.242474
-0.0611512 0.0178455 0.256465
-0.0761795 0.0251319 0.121793
-0.0750178 -0.0446298 -0.0217093
0.0865078 -0.0126477 -0.0483275
0.0920477 -0.0139584 0.301895
-0.0725787 0.0149043 0.0532284
-0.0408259 0.0249574 0.428685
-0.0101856 0.0226462 0.140939
0.0777941 -0.0131796 0.0911498
-0.13127 0.0948725 -0.14314
0.0313068 -0.0130322 0.0405419
-0.0274936 -0.0129594 0.00683552
-0.0813803 0.0563346 0.315035
-0.0689379 -0.0265798 -0.468776
0.067495 0.0213149 -0.315315
0.121896 -0.0463751 -0.0977834
-0.0603583 -0.0137593 0.21173
0.0970359 -0.012881 0.0163351
0.110294 -0.0126032 -0.0543251
-0.131193 0.0240073 -0.087076
-0.130463 -0.0431211 0.384654
-0.111231 -0.0458986 -0.392453
0.0194587 -0.014195 0.347186
-0.0533959 -0.0468687 -0.120204
0.0702761 -0.0474455 0.0635479
0.0631459 -0.0138081 0.254828
0.0361147 -0.0138009 0.246315
-0.0519641 0.0662571 0.436131
-0.0748129 -0.018037 0.405837
-0.13111 0.041573 0.348091
-0.020953 -0.0118828 -0.278125
0.100831 -0.0485181 0.356496
0.0744408 0.022365 0.0926963
0.101768 -0.0470483 -0.0344936
0.112552 0.0657432 0.435974
0.0310399 -0.0142104 0.354122
0.122118 -0.0479126 0.320509
0.0703221 -0.0435716 0.467645
0.0649269 0.0230203 -0.0149818
-0.0709494 0.0159949 0.200826
0.0319169 -0.0463286 -0.243116
0.0709898 -0.0474273 0.0588618
-0.0536683 0.0261918 -0.31759
-0.0714828 0.0042125 -0.301632
-0.0749263 -0.000838255 -0.0246958
-0.0741655 0.0113205 0.281925
0.0155284 0.0415475 -0.355536
-0.0778049 -0.0357945 -0.468724
0.112393 -0.0127924 -0.00345427
-0.130181 -0.0436175 0.194571
-0.0748354 -0.0118307 0.331957
-0.0623718 -0.048961 0.434465
0.13022 0.0138281 -0.283204
-0.0754015 0.0149213 0.182071
0.089912 -0.0466809 -0.135204
-0.0986444 -0.0708533 0.38257
0.114682 -0.0130494 0.0655066
-0.0748664 -0.0200733 0.161093
-0.074863 -0.0441585 0.0777402
-0.0564535 -0.0136448 0.182191
-0.0227898 0.0750362 0.468625
-0.0983111 -0.0487403 0.367013
-0.131075 -0.0258336 0.231854
-0.131101 0.00362184 0.234688
0.0704668 0.0213675 -0.214004
0.0408367 -0.0464222 -0.216033
-0.0444191 -0.0136746 0.193065
0.131227 0.00221055 -0.109436
0.0514723 -0.0129954 0.0356641
0.0483566 -0.0130651 0.0535027
-0.0764527 0.0290217 -0.304662
0.0434996 -0.047059 -0.045879
-0.075016 0.00543217 -0.395951
-0.131186 0.0269626 -0.0441072
0.100896 -0.0550169 -0.387328
-0.0747854 -0.0338828 0.464119
-0.0145026 -0.0487072 0.37862
0.0939494 0.000585331 0.423581
-0.131079 -0.037021 0.167615
-0.052881 -0.0472129 -0.0284629
0.0500838 0.0204221 -0.255972
0.128192 -0.0394682 0.118913
-0.131073 0.0242928 0.443179
0.0397381 -0.0480975 0.229621
0.025935 -0.046426 -0.218643
-0.0749063 -0.0154762 -0.135316
-0.13116 0.0316839 0.0901875
0.000908352 -0.0125268 -0.101393
-0.0807132 0.0552457 -0.334264
-0.126718 0.112748 -0.443995
-0.0347734 0.0190727 0.340302
-0.122606 0.0747327 -0.468383
-0.0750044 0.00561597 -0.344188
-0.0765393 0.0301165 -0.255057
-0.0604782 0.015747 0.468546
0.115855 0.0418032 -0.399108
0.0644155 -0.0129894 0.0372537
0.0793293 0.0215614 -0.205585
-0.131222 -0.0338449 -0.454266
-0.079603 0.0506279 -0.399899
-0.131123 0.0708783 0.408725
-0.0255738 -0.012548 -0.102185
0.12803 0.0172385 -0.37177
0.0555186 0.0232092 0.117174
-0.0296751 -0.0121238 -0.216115
0.128093 -0.0274314 -0.273523
0.0860392 0.0417543 -0.393366
-0.0177577 -0.0123771 -0.145783
-0.131191 0.00127654 -0.171324
-0.0789396 0.0460249 0.227927
0.0550418 -0.0042981 0.422355
0.111672 -0.0482263 0.281471
-0.114953 0.11207 -0.0341744
-0.126762 -0.0461376 -0.0870955
-0.131154 0.0296157 0.108128
-0.0749659 0.00889529 -0.16104
-0.131239 0.0466074 -0.19902
0.105179 -0.014056 0.33113
0.0366914 -0.0118678 -0.268058
0.0229622 0.0212744 -0.216334
0.0274339 0.00985623 -0.310032
-0.0609 -0.0121225 -0.224053
-0.0673947 -0.0136723 -0.468727
0.0921786 -0.0471075 -0.0210955
0.00843064 -0.0134353 0.142263
0.119002 0.0174641 0.364953
0.0432894 0.0240366 -0.0884236
-0.131298 0.09239 -0.275854
-0.0766576 0.0398263 -0.421353
0.107521 -0.0467918 -0.101387
-0.101576 0.0932114 0.468846
-0.0960429 -0.0457305 -0.433484
0.120253 -0.0139333 0.30208
-0.0742982 0.0119658 -0.052127
-0.0528503 0.082152 0.460769
-0.131087 0.00362214 0.299513
-0.131077 0.000467971 0.329269
-0.0640858 -0.0138931 0.246412
0.0563615 -0.0485999 0.367416
-0.106392 0.110786 0.2521
-0.00926343 -0.012517 -0.106465
-0.0780958 0.0418657 0.413005
-0.0748437 -0.00724137 0.313825
-0.074914 0.00853288 0.0666745
-0.0276337 -0.0488733 0.419631
-0.0312732 -0.0483564 0.281165
-0.101553 -0.0478413 0.126934
-0.0748304 -0.0222005 0.311846
-0.0663544 -0.0126989 -0.0139693
-0.0901156 0.0829262 0.40726
0.00837713 -0.0486049 0.356992
-0.0764352 0.0288993 -0.44433
-0.105783 0.11185 -0.0632923
0.0222811 0.0415762 -0.361531
-0.0222164 0.0414839 -0.347821
0.0872567 -0.0129395 0.0295145
0.129881 0.0148492 -0.235671
-0.0892121 0.0202093 0.468569
-0.131056 0.00730984 0.44706
-0.0398786 -0.0126365 -0.0821347
0.061476 0.0216471 0.229969
-0.0980477 0.104207 -0.426312
-0.0216514 0.0225106 -0.062188
-0.0748548 -0.0236763 0.197925
0.0072565 -0.0486373 0.365356
-0.0305254 0.0214619 0.0964158
-0.131229 -0.0117974 -0.396019
-0.0749838 0.00387577 -0.260042
0.121054 -0.0123416 -0.121329
0.128193 -0.0314059 0.151942
-0.107214 0.111207 0.178143
-0.040548 -0.0456745 -0.434899
0.106586 -0.0459315 -0.33061
-0.097647 0.10206 -0.0111305
-0.0765718 0.0305825 -0.310722
-0.131192 -0.00516589 -0.203391
-0.117913 -0.00277304 -0.468675
-0.076941 0.0354589 -0.379654
-0.0753628 0.0213717 -0.453842
0.104188 -0.0136915 0.411246
0.125572 -0.0127891 0.257151
-0.0852267 0.0724261 -0.159586
-0.0796228 0.0483238 0.464617
-0.0914729 -0.0972043 -0.367527
0.0695984 -0.0129878 0.0380613
-0.131131 0.0166128 0.155896
0.128248 -0.0388904 0.366311
0.114092 0.0180118 0.337006
0.128226 -0.0290214 0.308685
0.0314535 -0.0459634 -0.340431
-0.031588 -0.0137759 0.223147
0.0103365 -0.0129062 0.0019075
-0.10576 0.0885796 -0.468334
-0.129829 0.108152 0.0619333
-0.0811766 0.0574671 -0.41309
-0.114428 -0.0474043 0.00751017
-0.0804984 0.0543697 -0.353314
-0.131313 0.0702752 -0.431442
-0.0749744 0.00357483 -0.219788
-0.120897 -0.0475531 0.0455279
0.124079 -0.0121695 -0.0103455
0.0503088 -0.048351 0.299669
-0.085137 0.070273 0.44661
0.0259757 0.0239919 0.1688
0.0766127 -0.0410826 0.4683
-0.0749998 -0.00164464 -0.353996
0.0315176 -0.0123767 -0.133859
0.121241 -0.0463453 -0.151757
0.0273722 0.0325016 0.430017
0.0433308 0.0212006 -0.315267
-0.0344491 -0.047947 0.171419
-0.0751836 0.0123214 -0.14743
-0.0426641 0.00731364 0.46851
-0.13105 -0.0315662 0.318499
-0.0949678 0.0969275 -0.156153
-0.106753 0.112698 -0.245133
0.0110594 -0.0473031 0.0111834
-0.131135 0.0890824 0.430493
0.113522 0.0185397 0.24593
-0.0179683 -0.0123833 -0.14417
0.044933 0.0255663 0.468558
-0.0748999 0.00510822 0.116039
-0.131093 -0.00152075 0.251122
-0.131107 -0.0393596 -0.0864071
-0.00514571 -0.0130538 0.0374096
-0.010184 -0.0479042 0.165974
-0.0748665 0.00760047 0.27272
-0.131233 0.00633441 -0.337796
-0.131204 0.0883173 0.123655
-0.0748654 -0.0304325 0.124505
0.0912986 -0.0139944 0.311288
0.0456919 -0.0127421 -0.0331247
-0.131124 0.0585181 0.354753
0.0588271 -0.0133991 0.144913
0.0298745 -0.0129766 0.0254142
0.125291 -0.0433057 -0.446217
-0.131101 0.0539553 0.43666
-0.0919375 -0.0925242 -0.371166
0.128242 -0.0388332 0.340629
0.0146504 0.0246604 0.0266507
-0.0868843 0.0746698 0.446654
0.0502175 -0.0119578 -0.240792
0.0838202 -0.0483948 0.319531
-0.131103 0.0152081 0.273917
-0.130873 0.0235204 0.461508
0.0639299 0.022655 0.128969
-0.0739813 -0.00708959 0.000539772
0.0740748 -0.0143504 0.401882
-0.017649 0.0202603 0.304307
-0.131169 -0.030875 -0.207929
-0.131235 0.00253327 -0.363046
-0.131264 0.0593148 -0.25794
-0.0750127 -0.00283835 -0.41488
-0.131326 0.0980525 -0.37691
0.127347 -0.0406801 -0.375238
-0.0840026 0.0675497 0.358825
-0.0430177 -0.0126505 -0.0791592
-0.00610403 -0.057629 -0.348972
0.0318527 0.021318 -0.214711
-0.0122288 -0.0691247 -0.344958
-0.130929 0.103438 0.40503
0.0206454 -0.0120448 -0.224855
-0.0748909 -0.00601877 0.110117
-0.0867509 0.0760165 -0.0825654
-0.0748033 -0.0185886 0.446469
-0.0150121 -0.0128639 -0.0155366
-0.0999655 0.106046 0.0979757
0.0923874 0.0735698 0.438392
0.105478 -0.013328 0.137408
0.0285978 -0.0143467 0.389768
-0.0743018 0.0103897 0.335118
0.128104 -0.0309711 -0.237467
-0.040871 -0.0472697 -0.0103945
-0.0472981 0.0205684 -0.0795786
-0.131208 -0.013627 -0.310022
0.0393563 0.0415775 -0.357696
-0.0767742 0.0330534 -0.0783855
-0.131244 0.0241397 -0.312407
-0.0217984 0.0216465 -0.19772
-0.0749916 -0.011026 -0.355728
-0.0748764 -0.00571915 0.175237
-0.0760835 0.0236563 0.415456
-0.0156481 -0.0129405 0.00469826
-0.0749382 -0.0356121 -0.218815
0.027176 -0.0455207 -0.459308
-0.0555343 -0.0125442 -0.110518
0.0717788 -0.047656 0.119932
-0.0773195 0.0403033 -0.244592
0.0948979 0.0181075 0.376606
0.0649529 -0.111953 0.342675
0.0951471 -0.0131934 0.0990643
0.0574811 -0.0127189 -0.036465
-0.0728362 -0.0146227 0.357683
0.118759 0.0416424 -0.355565
-0.0643492 -0.0483278 0.26547
-0.104927 0.112687 -0.341113
-0.0749081 -0.00747434 0.0285938
-0.0505058 0.0203944 -0.131341
0.0763264 0.0222433 -0.13569
-0.0902476 0.0856313 -0.339114
0.044979 -0.0127594 -0.0286931
-0.074822 -0.0423818 0.266386
0.0454064 -0.0133118 0.118398
0.127825 -0.0408299 0.045425
0.0491455 0.0754967 0.468529
0.0474437 -0.0475526 0.0864774
-0.131118 0.0423719 0.316419
-0.038439 0.0164814 -0.313104
-0.0750326 0.00997554 -0.450753
0.123714 -0.0130839 -0.167039
0.00804547 -0.01317 0.0715654
0.106453 -0.0139139 0.293547
-0.0986765 0.103872 0.0311632
-0.122765 -0.0490195 0.43535
-0.0477408 0.0205469 -0.205197
0.0245495 -0.0118631 -0.272272
0.102101 0.0200047 0.172111
0.0717262 0.0716554 0.437534
-0.0749423 -0.0163805 -0.158581
-0.0748885 -0.020366 0.0631058
0.0395875 -0.0129697 0.0259324
-0.0579503 -0.0141437 0.31464
0.075327 0.0213191 -0.216388
-0.0748766 -0.0434412 0.020888
0.0514344 0.0416699 -0.37936
-0.0391779 -0.0121854 -0.20203
0.0730656 -0.0137346 0.237688
0.10513 0.0753707 0.468503
-0.0943382 0.0941711 0.212466
-0.0847097 -0.0456684 -0.447268
-0.0567812 0.0189906 0.0829981
-0.0860288 0.0736615 0.0866702
-0.0770877 0.0370983 -0.0112625
0.0403204 -0.0126861 -0.0493698
-0.0562195 -0.0109854 -0.295138
0.128746 0.0144428 0.275372
-0.0900713 0.0838441 0.083519
-0.00391153 0.0215489 0.259636
0.128223 -0.0349746 0.272603
-0.0610026 -0.0144223 0.388055
-0.111773 0.113337 -0.370791
-0.0302863 -0.0488232 0.405633
-0.0748266 -0.00324234 0.40622
0.0771463 0.0205593 0.262386
0.0209092 0.00271478 -0.468686
0.0907667 -0.0143152 0.396603
-0.0136018 -0.0120034 -0.244219
-0.0748513 -0.0401957 0.146915
-0.131068 0.000714904 0.369178
-0.13082 -0.0396061 -0.368953
0.0747681 0.0320994 0.468576
0.0583679 -0.0121411 -0.190025
0.00903284 -0.047121 -0.0377778
0.120024 -0.0486508 0.396507
-0.0805748 0.0540691 -0.125088
-0.0234272 -0.0467454 -0.145665
-0.0754293 0.0301987 0.430558
-0.131296 0.0980158 -0.245964
-0.0522676 -0.0487639 0.384484
0.0464294 -0.0138301 0.256611
-0.131272 0.0939775 -0.156574
-0.0128138 0.0197005 0.322033
0.0875805 -0.0485437 0.360072
-0.0795545 0.0481271 0.428973
-0.112401 0.110637 0.347819
0.11597 -0.0403022 0.468294
-0.0538302 -0.047134 -0.0496889
-0.0675975 -0.0122501 -0.0456213
-0.131329 0.103699 -0.362959
-0.0791974 0.0475253 0.0881437
-0.0570925 -0.0486172 0.34427
0.0632252 -0.0484668 0.33367
-0.0799592 0.0799336 0.444495
0.128471 0.00936487 0.418356
0.128045 0.00054126 -0.372763
0.130107 -0.00724674 -0.102533
-0.0749214 -0.0316143 -0.128412
-0.0163831 -0.0559722 0.344594
0.0479714 -0.0133326 0.124579
0.0630595 -0.0135954 0.198241
-0.0749937 -0.0068524 -0.34791
-0.0774661 0.0408247 -0.195282
-0.131194 0.0792248 0.131015
-0.131226 0.0957256 0.0554148
0.110879 -0.0460062 -0.30968
0.0285656 -0.0125174 -0.0971455
-0.0731093 -0.0481629 0.321393
-0.0438264 0.00817141 -0.309268
-0.0293752 -0.0483122 0.269866
0.112095 -0.04861 0.38373
-0.119342 0.0921318 0.468846
0.0809489 0.0143445 0.426724
-0.0348863 -0.0478554 0.146943
-0.0286025 -0.0124683 -0.124136
-0.0911821 -0.0484036 0.279116
-0.131317 0.0733977 -0.437615
-0.0325169 -0.0120551 -0.235092
-0.0254076 0.0207863 0.234275
-0.00544663 -0.0123773 -0.142721
0.0238484 -0.0132404 0.0941382
-0.0193262 0.00967298 -0.468651
-0.131265 0.0448111 -0.32452
0.0595725 -0.0124258 -0.113944
-0.0408764 -0.0121414 -0.214158
-0.125394 0.0209241 -0.468068
0.0975386 -0.0463883 -0.211216
-0.05918 -0.0469546 -0.0987544
-0.131135 0.0514353 0.276913
0.111798 0.0418454 -0.411341
-0.131216 -0.00686036 -0.31831
-0.0491159 0.0176143 0.3857
-0.111028 -0.0473956 0.00602379
-0.13104 -0.0218595 0.403375
0.0575645 -0.0127758 -0.0212855
0.0884069 0.0125451 -0.468664
0.0961442 -0.0128105 -0.00263473
-0.0570731 -0.0237394 -0.468768
-0.131052 0.00299614 0.448427
-0.0462782 0.0202242 0.0676114
-0.0198323 -0.0142926 0.363569
-0.0151556 -0.0487686 0.394819
0.023744 -0.014318 0.38093
-0.03066 0.0210032 -0.226476
-0.0987514 -0.0456482 -0.456066
0.10546 -0.0130324 0.0587398
0.0220956 -0.0458324 -0.377585
0.015365 0.0235962 0.168193
-0.00146039 -0.0476368 0.096949
0.0152757 -0.0127835 -0.0295633
-0.0223452 -0.0456567 -0.435209
-0.127373 -0.0465808 0.11587
-0.0963229 0.0996385 -0.0746557
-0.0102942 0.0221401 0.191595
0.00538187 -0.011932 -0.258607
-0.0365248 0.0336496 -0.468556
0.0726661 -0.048259 0.280652
0.0039303 0.0222987 0.232336
-0.13115 0.0184065 0.0776001
0.0928727 -0.0472532 0.0178776
0.101643 0.0182746 0.365563
-0.0939538 0.0938737 0.00177434
-0.0748803 -0.0235367 0.0865267
-0.0548725 -0.047782 0.122523
-0.0725986 -0.0469203 -0.0518046
-0.0205814 0.00406867 0.468493
-0.0514297 -0.0479453 0.166823
0.0665514 -0.0457492 -0.388887
0.0971592 0.0211712 0.00187447
-0.123382 -0.045655 -0.460258
-0.131181 0.082039 0.199694
0.0271877 0.0225372 0.23505
-0.074987 -0.0362168 -0.43711
-0.131243 -0.00168884 -0.413785
-0.124317 0.110015 0.441183
-0.0793118 0.0232894 -0.468586
-0.131049 -0.031911 0.323451
-0.104015 -0.0488214 0.387249
-0.131143 0.0480034 0.231236
-0.106665 -0.0460318 -0.355898
-0.0886399 0.0808158 -0.0969052
0.115746 -0.012439 -0.0967145
0.12015 0.0178289 0.231677
0.00659125 0.0510624 0.468663
-0.131252 0.0324039 -0.314843
0.0689484 -0.0482032 0.2649
-0.0668096 0.054845 0.468694
0.0276769 -0.0487919 0.411482
0.00181828 -0.0142628 0.360926
0.0627321 0.0247001 0.468551
0.0212763 -0.0126346 -0.0676962
-0.0757279 0.0268788 -0.379991
-0.0398397 -0.04812 0.216147
0.0282255 0.0245904 0.113579
0.0182491 -0.0458136 -0.383533
0.00350041 -0.0129089 0.000963554
0.10107 -0.011906 -0.242184
0.0201143 -0.0141498 0.335288
-0.0689703 0.0167043 0.288497
0.0521359 0.0137396 -0.31182
-0.131233 0.0874119 -0.00824678
0.116311 0.0199169 -0.244892
0.034573 -0.0140054 0.300362
-0.0410545 0.0195973 -0.289671
-0.0748735 0.00765456 0.243175
0.104769 -0.0142208 0.37483
-0.0433126 -0.0131003 0.0404802
-0.0963134 -0.0488171 0.387919
-0.0749528 -0.0127489 -0.190267
-0.0779878 0.0364806 -0.466917
0.0291594 -0.0462702 -0.259344
0.128258 -0.0344969 0.427704
-0.0749725 -0.0312346 -0.353062
0.0768708 0.0224517 -0.0359885
-0.086824 0.0770958 -0.364112
-0.0814273 0.0562369 0.423989
0.0717278 -0.0130486 0.0547863
0.128089 -0.0239092 -0.278962
-0.131312 0.0682787 -0.437106
-0.0481824 -0.0126419 -0.0827134
0.0225404 0.0249656 0.0447668
-0.0128374 -0.0131926 0.0724711
-0.0496696 -0.0126428 -0.0828306
0.11584 -0.0478303 0.177083
0.0180207 -0.0139222 0.274226
0.0845317 -0.0141324 0.346428
0.081522 -0.0460299 -0.310519
-0.0667609 0.0186259 -0.108523
-0.074814 -0.0358539 0.329699
-0.0932925 0.090987 0.386343
-0.131207 -0.0334471 -0.38638
-0.0850975 0.0294656 0.468603
0.0987734 -0.0130114 0.051459
0.115613 -0.0466459 -0.138248
-0.0207384 -0.048029 0.196597
-0.13118 -0.0331315 -0.26615
-0.0749449 -0.0291816 -0.222592
-0.0168388 -0.0459523 -0.35518
-0.0479265 0.0198093 0.128544
0.0671194 -0.020835 -0.468785
0.131291 0.00682249 0.193565
-0.0753007 0.0204046 -0.377397
0.0424793 0.00680615 -0.305655
-0.120555 -0.0470249 -0.0949591
-0.0634547 -0.0125007 -0.124011
-0.042702 -0.0127387 -0.055622
-0.0816998 0.0598277 -0.448865
0.0999709 0.0278522 -0.468609
0.120117 0.0329861 0.430068
0.0464022 -0.013492 0.166653
-0.0920115 0.0898993 -0.285445
-0.0794821 -0.046856 -0.129906
-0.106432 0.112819 -0.293
0.0892018 -0.0486581 0.390922
-0.0708993 -0.0132271 0.0675062
0.062317 -0.0476046 0.103944
0.0685836 -0.0139062 0.28231
-0.0236428 0.0220606 -0.167817
-0.0528338 -0.0465249 -0.211563
-0.0993953 0.106844 -0.455275
0.107596 -0.0135649 0.200949
-0.119409 0.113159 -0.32516
-0.0748966 -0.040481 -0.0553286
0.0988598 -0.0143124 0.397826
0.105769 0.0205386 -0.0563837
0.0854553 0.0216419 -0.185795
-0.0829752 0.0645227 -0.152832
0.044219 0.0305245 -0.319572
-0.0625955 -0.0303691 -0.468791
-0.0313672 0.0205649 0.205579
0.0912931 0.0189877 0.344641
-0.12464 -0.00847732 0.468091
0.0623263 -0.0132021 0.0933588
-0.0748755 -0.0440539 0.0228048
0.0865744 -0.101704 -0.37076
-0.131061 -0.0173802 0.32672
0.110326 -0.0478108 0.17055
-0.0749993 -0.00262693 -0.355453
0.0594461 -0.0138912 0.276056
0.0962729 -0.0480949 0.242735
0.119969 0.0420143 -0.454307
0.082404 -0.0473907 0.0519239
0.0657045 -0.0124303 -0.111247
-0.0749504 -0.0193668 -0.207751
0.0548094 -0.0140901 0.32785
-0.0474417 0.0821762 0.455732
-0.0228359 -0.0139266 0.265412
0.121218 0.0818376 0.450902
-0.0791426 0.0468527 0.245874
0.0709829 -0.0120051 -0.223149
0.110937 0.0180733 0.340658
-0.0703559 -0.0120262 0.12472
0.118936 -0.0128078 0.00219597
0.0190516 -0.0457909 -0.38939
-0.0754509 0.0158049 -0.135745
-0.005342 -0.0125485 -0.0971333
0.0412829 -0.0124806 -0.103841
-0.131297 0.0629501 -0.389699
0.119948 0.0180745 0.172115
0.0681661 0.0355632 0.430553
-0.131243 0.0647339 -0.144284
-0.012909 0.0225805 0.126544
0.120589 -0.0143237 0.406146
-0.0509986 -0.0137457 0.210405
-0.0957117 0.0970929 0.328589
-0.131147 -0.00170685 0.0108661
0.13084 -0.0056783 0.151484
-0.116613 -0.0473927 0.00388241
-0.127131 0.110018 0.24211
-0.0958309 -0.0482578 0.239193
0.124768 -0.015562 0.337565
0.0504297 0.0232494 0.138793
-0.0352698 -0.0135787 0.169775
-0.0768804 0.0343158 0.0863939
-0.0749979 -0.000959445 -0.343095
-0.0978584 0.10241 0.00682857
-0.0762774 -0.0468827 0.0308476
0.00591298 0.0230681 0.187077
0.120836 -0.047329 0.0773199
0.0253379 -0.0482414 0.264409
0.0748151 0.0222478 -0.160649
-0.110825 0.111406 0.143591
0.06549 -0.0469039 -0.0817905
-0.0762926 0.0305195 0.440593
0.0554432 -0.0138043 0.251947
-0.0527996 -0.0135959 0.170064
-0.073382 0.008654 -0.298933
-0.131211 -0.0173426 -0.335887
0.0853189 -0.106468 -0.340095
0.0289103 -0.0125267 -0.0945612
-0.0749877 -0.0131293 -0.346168
0.0150313 -0.0373663 0.468329
-0.131227 0.053175 -0.12217
-0.0649056 0.0177067 0.182086
-0.0381073 0.0212699 -0.115056
0.130659 -0.00737008 0.371431
0.0127795 -0.000512901 -0.468696
0.128116 -0.0210348 -0.148173
-0.131294 0.0683346 -0.35628
-0.0796731 0.0504565 -0.22829
-0.0627387 -0.0490255 0.451562
-0.131205 0.0787532 0.0792806
-0.119768 0.111138 0.212571
-0.102788 -0.0461826 -0.314815
-0.128416 -0.0439196 -0.343443
-0.0865371 0.0740293 0.373285
0.0455723 -0.0447411 -0.463843
-0.13111 0.0173969 0.250537
0.113813 0.0191606 0.070517
0.123198 0.0204375 0.467773
-0.0835017 -0.0289439 0.468383
-0.075601 0.0174497 0.284939
-0.100501 -0.0487685 0.373965
0.0297171 -0.0128702 -0.00295514
0.00226319 -0.0143436 0.382538
-0.0716431 -0.0475598 0.0592886
-0.131219 0.0795883 0.021084
0.124134 -0.0128174 -0.269514
-0.105644 0.0944308 0.468851
0.0696694 -0.0467714 -0.116033
-0.0579338 0.0186505 0.13883
-0.131286 0.0589281 -0.357214
-0.0581156 -0.0122524 -0.18881
-0.12185 0.112691 -0.201294
0.0313956 -0.0471399 -0.0272925
0.0475647 -0.0486329 0.374028
-0.0330447 -0.0463331 -0.257758
0.117967 0.0196244 -0.18213
-0.0444056 -0.0459096 -0.373254
0.125184 -0.0446817 -0.128148
-0.131131 0.00762133 0.120198
0.130983 -0.00505888 0.133239
0.12571 -0.0127888 0.266774
0.125789 0.0183754 -0.210806
0.0728063 0.0206738 0.270193
-0.0817606 0.0586604 0.0683392
0.0056827 -0.0135376 0.168812
0.106529 -0.0130236 0.0566082
-0.0616834 -0.0459072 -0.37813
0.0293058 -0.0462758 -0.257804
-0.0789839 0.0476846 -0.303365
-0.0762045 0.0256189 -0.0925059
0.0918463 0.0198284 0.26677
-0.0591232 -0.0470008 -0.0864319
-0.0255375 0.0221919 0.0184014
-0.00893877 -0.012827 -0.0238934
-0.0498146 -0.0132185 0.0703644
-0.0751161 0.0148923 -0.445539
-0.0588952 -0.023606 -0.468767
-0.131155 0.00220442 -0.0102003
-0.0223584 0.0211419 -0.315253
-0.0214546 -0.0120174 -0.242411
0.0913227 -0.0833503 -0.324528
-0.0749534 -0.0159115 -0.207037
-0.0786838 0.0461351 -0.212168
-0.00791376 -0.0296543 -0.468801
-0.0590222 -0.0143284 0.363506
-0.0634431 0.0181073 0.119437
0.0765512 -0.0464112 -0.210235
-0.131082 -0.0201995 0.223315
0.12106 -0.0127675 -0.0609255
0.114468 -0.0127415 -0.0164908
0.124648 -0.0133154 -0.265112
-0.0873492 0.0759284 0.418685
0.0621323 -0.0140425 0.317011
-0.0754758 0.0156998 0.437965
-0.0582955 -0.0119321 -0.274113
-0.131086 -0.0229489 0.193155
-0.0763973 0.0282999 -0.307347
-0.028155 -0.0128725 -0.0164432
0.123987 0.0187319 -0.134867
0.0981128 0.0420099 -0.458486
-0.107168 0.113047 -0.319214
0.0489352 0.016497 -0.303245
0.128083 -0.0208517 0.171052
-0.11042 -0.0462363 -0.302386
-0.00979095 -0.0137022 0.208858
-0.0187608 0.0556568 0.468686
-0.0184748 -0.0468118 -0.126793
-0.131136 -0.0108949 0.0203893
-0.0200109 -0.012719 -0.0553236
0.131313 -0.00409916 0.243935
0.0338418 -0.0457749 -0.390032
-0.120463 -0.0467372 -0.171511
0.0333027 -0.0142932 0.408959
0.110427 -0.0111361 -0.293097
-0.0749343 -0.0170383 -0.125978
-0.0852561 -0.107444 -0.349234
-0.0824959 0.0616079 0.152033
0.131304 0.00724795 0.250681
-0.0766602 0.0314823 0.0295106
0.042989 0.0149154 -0.312365
-0.122651 0.0965878 -0.468301
0.118892 0.000592528 0.468447
-0.0749964 -0.00210536 -0.339864
0.0154588 -0.0487469 0.396522
-0.0102507 0.0668086 0.436214
-0.131071 0.0121671 0.40229
-0.0192789 -0.047188 -0.0268556
-0.0196816 -0.0464739 -0.217023
-0.020657 -0.0143737 0.384941
0.128227 -0.0339446 0.294359
-0.131089 -0.0112307 0.228143
-0.0748474 -0.00767024 0.295419
-0.0748868 -0.00901788 0.116227
0.121669 0.0178123 0.189232
-0.0770135 0.0359728 0.196095
-0.0195719 -0.0136221 0.185163
0.0483427 -0.0135795 0.190398
-0.127747 0.112084 -0.401394
-0.110718 -0.0468839 -0.130084
-0.129694 -0.0446837 0.234675
0.0225304 -0.0484504 0.319348
-0.0166848 -0.0128237 -0.0266321
-0.119598 -0.046284 -0.291911
0.0327578 0.0246886 -0.00940191
0.00842592 -0.0484959 0.327999
0.0237043 -0.0465399 -0.188884
0.0366562 -0.0139861 0.295773
-0.0210249 -0.0139802 0.28012
0.0903363 0.0196514 -0.292437
-0.105907 -0.0472425 -0.0334932
-0.0480855 0.00282859 0.423777
0.00324564 0.0242023 0.00232426
-0.0269087 -0.011898 -0.275524
0.0216121 -0.00872138 -0.468729
-0.131186 0.0472901 0.034611
-0.0270763 -0.0144207 0.395902
-0.0756347 0.0182336 -0.171142
-0.0471722 0.0205877 -0.165404
0.104683 -0.0474405 0.0705939
0.079548 -0.0125293 -0.0815099
-0.0894384 0.0838992 -0.434786
0.0372921 -0.0137989 0.246103
0.0923184 0.0214648 -0.127211
0.0885442 -0.0139297 0.293436
0.112584 -0.0463016 0.465939
0.124956 0.0401208 -0.459698
0.112554 -0.0468729 -0.0785649
-0.0547976 -0.0123655 -0.157888
0.122769 -0.0127316 0.0446253
0.0522251 -0.048928 0.453707
0.122469 -0.0459421 -0.170873
0.0888585 -0.0473292 0.0371312
-0.0749494 -0.0215142 -0.211755
-0.0378505 -0.0077967 -0.300321
-0.0822986 -0.0481466 0.212885
-0.131278 0.0295556 -0.443091
-0.131279 0.0755831 -0.259733
-0.0748529 -0.0301374 0.180832
-0.0256605 -0.0142575 0.352779
-0.016504 -0.0116818 -0.291758
-0.0300249 0.0180799 0.371973
-0.0748535 -0.0400238 0.138007
-0.0239853 -0.0134789 0.14597
-0.131236 0.101079 0.0355345
0.12809 -0.0353148 -0.316745
0.0913553 -0.0483479 0.308902
-0.0684352 -0.047335 0.000232577
0.128138 -0.0362736 -0.111104
0.0935925 0.0197083 0.270289
0.00642865 -0.00183787 -0.304251
-0.104278 0.0173691 0.468562
0.124033 0.0169018 0.321257
0.0513255 0.0230618 0.150648
-0.0749812 -0.0109106 -0.308653
0.0747792 -0.0471363 0.465141
-0.131145 -0.0279396 -0.0870483
-0.0829479 -0.0473033 -0.0117142
-0.0813995 -0.0488267 0.461442
-0.0755027 0.0165844 -0.27091
0.109341 -0.0126045 -0.054244
-0.0395149 0.0202139 0.175231
-0.13122 -0.0343242 -0.444803
-0.0994998 0.106903 -0.413964
0.0584576 -0.0139563 0.293127
-0.0749633 -0.0257726 -0.289973
0.0475693 0.0417222 -0.394223
-0.131087 0.0418769 0.450228
-0.0877241 0.0786103 -0.128068
-0.131092 -0.02777 0.149704
-0.0845421 -0.049074 0.459159
0.117446 0.0197694 -0.279118
-0.0966523 0.100096 -0.0150158
0.0182432 -0.045553 -0.452904
0.0658606 0.0558982 0.434218
-0.0835163 0.0669516 -0.185202
0.0781964 0.0204633 0.26663
0.0319498 -0.0136096 0.194381
-0.0485555 -0.0124374 -0.137228
-0.0644475 0.0703224 0.468752
-0.0347908 -0.0474702 0.044449
-0.0334713 -0.0475335 0.0616086
0.114233 -0.0475962 0.11438
-0.0455615 0.0813326 0.464355
0.128215 -0.0387883 0.221633
0.107427 0.0200037 0.0418157
0.092557 -0.0132462 0.112447
-0.0634885 0.0172134 0.354452
0.0885904 -0.047078 -0.029812
0.128225 -0.0255985 0.314513
-0.0538305 -0.0133383 0.101259
-0.0760475 0.0235732 -0.0992391
-0.00875033 -0.0136454 0.194019
0.0139342 -0.0133934 0.132459
-0.0713444 0.0170447 -0.259544
0.0552757 -0.0130981 0.0639734
0.11492 -0.0472888 0.0327288
0.0444461 0.0172924 0.399886
0.128248 -0.0364743 0.375241
0.0480252 -0.014135 0.338157
-0.0749826 -0.0122834 -0.321212
-0.0856898 -0.0490799 0.460463
0.0169177 -0.0130215 0.0342044
0.0959066 0.0162659 0.417382
0.0332256 0.0217633 -0.194621
0.127477 -0.0418144 -0.0235222
-0.0748073 -0.0318049 0.375773
-0.0836451 0.0675266 -0.191798
0.00232085 -0.0128412 -0.0173365
-0.0843258 0.0710863 -0.451212
0.00274009 -0.0118868 -0.271266
-0.104259 0.106184 0.465238
-0.0818427 0.0601193 -0.330931
0.00422461 -0.0483051 0.276185
-0.131098 0.0395197 0.392827
0.0761501 -0.0121934 -0.17174
-0.113425 0.113143 -0.319532
0.00705668 -0.0472711 0.00168754
-0.131083 0.0155138 0.364896
0.1262 -0.0455322 0.340603
0.128026 0.0131566 -0.405369
0.0655202 -0.0460963 -0.296743
0.101073 -0.0470782 -0.0267254
-0.0547865 -0.0124945 -0.123558
0.128086 -0.0360878 -0.339098
0.0463893 -0.0458228 -0.374225
-0.0110933 -0.0138695 0.253085
-0.131265 0.0955475 -0.118617
-0.0434476 -0.0127946 -0.0409151
-0.0998516 0.0539101 -0.468466
0.103698 -0.0141517 0.356235
-0.0310034 -0.0123122 -0.166282
-0.0983561 0.0238624 0.468585
-0.0633625 0.0176592 0.240312
-0.0748055 -0.0195778 0.432577
0.0758442 -0.00729051 -0.30093
-0.131193 0.0833073 0.150501
-0.0484979 0.0204915 -0.23686
-0.00832385 -0.0672682 -0.348302
-0.0749407 -0.0157886 -0.150476
-0.0172593 -0.0464976 -0.210129
-0.0750054 -0.015523 -0.434647
0.122133 0.0178129 0.1745
-0.0748574 -0.0423928 0.109913
0.065985 -0.011904 -0.251265
-0.0250466 0.0221852 -0.149089
0.0797486 -0.046599 -0.159468
-0.131108 0.0281027 0.303454
-0.131151 0.00569467 0.0214093
0.0701668 0.017691 0.388546
-0.0306829 -0.0126431 -0.078135
0.0344381 0.0182205 0.37041
0.021124 -0.0458426 -0.375106
-0.0226837 -0.0477425 0.119883
-0.074914 -0.0175854 -0.038538
-0.0831619 0.0655779 -0.242569
0.0102115 0.0168105 0.416495
0.106894 -0.045537 -0.435527
-0.0448393 0.0310624 -0.468564
0.0197113 -0.00846739 -0.2993
-0.11621 -0.0477526 0.0997671
0.0898377 0.018954 0.349902
0.0573084 -0.0131293 0.0727442
0.0975751 -0.0468844 -0.0791598
-0.131254 0.0895544 -0.0941932
-0.0399509 -0.0130587 0.0302311
-0.00125368 -0.0135408 0.168005
0.0778127 -0.0454763 -0.458778
-0.0296447 -0.0130249 0.0237417
-0.0705503 0.003871 -0.307287
-0.0591952 -0.108936 0.350606
0.100131 -0.0472926 0.0301403
0.0382426 -0.0469413 -0.0784661
-0.0749624 -0.0393305 -0.341662
0.104552 0.0166179 0.415918
-0.00983963 -0.0136811 0.203253
-0.0752512 0.0132798 -0.246368
-0.0757531 0.0196716 -0.0262961
-0.0748547 -0.0120466 0.245925
-0.104638 -0.0456443 -0.458522
0.0338353 0.0230478 0.219343
0.00147569 -0.0461236 -0.305117
0.017116 -0.0143286 0.382147
0.0948874 -0.0133786 0.14829
0.113998 0.0416761 -0.365715
-0.0345184 -0.0141269 0.315879
0.106215 -0.0445241 -0.46445
-0.0681785 0.0396128 -0.327684
-0.0246674 -0.012644 -0.0764238
-0.125183 -0.0474169 0.145027
-0.0795645 0.0492687 0.0315266
-0.08061 0.0538643 0.00404869
-0.131127 -0.00796625 0.0742635
-0.131172 0.0612585 0.154471
-0.123968 -0.0479109 0.190949
0.0594992 -0.0140145 0.308864
-0.131143 0.0291706 0.151974
0.0335724 -0.0139926 0.29675
0.0622571 0.0231425 0.0788218
-0.052161 -0.0138234 0.230791
-0.055353 -0.0134637 0.134286
-0.0744921 -0.0453213 -0.117126
-0.131194 0.075225 0.114374
-0.0505646 -0.0480414 0.192611
-0.0835086 0.0653154 0.394445
0.127651 0.0736443 0.445525
-0.131075 0.00394322 0.353376
0.0800061 0.022258 -0.0113068
0.0618649 -0.0465857 -0.167378
0.00763845 -0.0458226 -0.383718
0.00720513 0.0105805 0.468511
0.0614428 0.0415536 -0.345924
0.0698865 -0.0349468 0.468325
-0.0259269 -0.0463471 -0.252288
0.116826 -0.00898116 0.419911
-0.00106078 -0.0476753 0.107289
0.0767162 0.0416229 -0.360649
-0.00930877 -0.0479269 0.172229
0.0750072 -0.0117553 -0.288629
-0.0842329 -0.0484602 0.295878
0.124539 -0.0475529 0.430041
0.00445305 0.0236706 0.127814
-0.0749852 -0.0297365 -0.403429
0.128016 0.0196839 -0.423909
0.127963 -0.0192152 -0.239933
0.0735814 -0.0124529 -0.103308
-0.0749779 -0.013447 -0.304345
-0.0748266 -0.0225521 0.327073
0.0452971 0.0415589 -0.35128
-0.0466594 0.0414368 -0.341254
-0.0503022 -0.0482582 0.250365
0.00924691 0.0244475 0.0353399
-0.131158 0.0322897 0.100794
0.0111254 -0.0466983 -0.149786
-0.00961519 -0.0487647 0.395137
-0.131339 0.103876 -0.407698
-0.0752747 0.0198153 -0.46453
-0.0711395 0.0168064 -0.0973934
-0.0470398 0.0191441 0.253507
-0.127787 0.110858 -0.10378
-0.0295422 0.020777 -0.236753
0.0902493 -0.00159336 -0.304312
-0.0636918 -0.0131367 0.0451847
0.0683227 0.0200391 0.315009
-0.0793222 0.0476133 0.2515
-0.131167 -0.0146369 -0.13062
0.055651 0.0226308 -0.156258
0.0819449 0.0214033 0.162414
0.128243 -0.011685 0.453274
0.11185 0.0201907 -0.211458
-0.107847 -0.0248866 -0.46876
0.0567342 0.0234354 0.0544381
-0.13123 -0.0132157 -0.403155
-0.0716541 -0.0136371 0.176454
0.114082 -0.0137075 0.240543
-0.0517404 -0.0473909 0.0191998
-0.0748409 -0.0127934 0.303718
0.128177 -0.0267998 0.101771
0.0979863 -0.0488845 0.453341
-0.131145 0.0930397 0.403856
0.00399994 0.00523094 0.425112
0.0868907 0.014632 -0.304491
-0.131188 0.00393523 -0.149185
-0.0943377 0.0949471 -0.0319254
0.0239939 0.0817491 0.463039
-0.0484985 0.0204873 -0.16235
0.0275618 0.0418849 -0.442432
0.0560629 -0.013972 0.296716
-0.07388 -0.00785044 0.132929
0.018294 -0.0130654 0.0462207
-0.0166979 0.0228937 0.00243878
0.0984593 -0.0472664 0.0227379
-0.101906 0.109947 -0.199415
-0.0711109 -0.0481893 0.226956
-0.0450997 0.0207445 -0.168508
-0.0690486 -0.0479225 0.156443
0.0994787 -0.0132551 0.116515
-0.0306815 0.0417053 -0.408826
-0.131319 0.0953815 -0.356051
0.128074 -0.037179 -0.39529
-0.0748328 -0.0441915 -0.0695255
0.0429802 0.0241742 0.0386167
0.0150122 -0.0469532 -0.0809805
-0.0511647 -0.0127755 -0.0478728
-0.0501207 -0.0121351 -0.218085
0.119664 -0.0133441 0.145127
-0.11493 -0.048192 0.217037
-0.0147499 -0.0118905 -0.274546
-0.131045 -0.014625 0.410259
-0.0837242 -0.047949 0.159951
-0.131194 0.0190744 -0.112397
0.100672 -0.0474995 0.0853352
-0.0749404 -0.0334911 -0.220206
-0.131314 0.0913125 -0.349792
-0.0288053 0.0205804 -0.245678
-0.00362732 -0.0138258 0.243267
0.0724919 -0.0126945 -0.03926
-0.0347295 -0.0477329 0.114385
0.0147223 -0.0481217 0.229943
0.110431 -0.0120804 -0.193473
-0.131243 0.0366516 -0.257106
-0.0471639 0.0168567 0.409484
0.106532 0.0679492 0.436374
-0.0276483 0.0220222 -0.156324
-0.0350914 -0.0121883 -0.200262
-0.0645624 0.0134164 0.421124
-0.112471 0.110787 0.307873
-0.131092 0.010079 0.299717
0.131009 -0.00597994 0.354221
-0.131301 0.0504872 -0.458981
-0.0749142 -0.00914405 -0.00533691
0.0365005 -0.045527 -0.455374
-0.0563468 -0.0456004 -0.458466
-0.00501724 0.0356824 -0.322639
0.0176016 -0.0462919 -0.256362
-0.0748165 -0.0281844 0.349075
0.109786 0.0194723 0.111363
-0.093628 0.0942217 -0.365536
0.122574 -0.0125692 -0.468138
0.0594658 0.0419403 -0.449383
-0.0665857 0.050637 0.433322
0.0635787 0.0208519 -0.23706
0.130691 -0.00433112 -0.260447
-0.0184842 -0.0139602 0.275419
-0.0766257 0.0311114 -0.0767732
0.0528874 -0.0139752 0.29679
0.0245927 -0.048301 0.280096
-0.131303 0.0576624 -0.439597
-0.128332 0.111157 -0.315726
0.128024 -0.0395883 -0.0617853
-0.0725394 -0.0481398 0.273936
0.020625 -0.0142662 0.366388
0.0492868 -0.0456172 -0.428239
-0.0285515 -0.0144525 0.403999
-0.0326148 -0.048434 0.301501
0.0107177 0.0213014 0.272985
-0.00130399 -0.014082 0.312049
-0.0992952 0.104959 0.0548106
0.0592898 0.0204888 -0.253319
-0.0715932 -0.0473979 0.0162018
0.0579395 -0.013217 0.0962621
-0.0843575 -0.022841 -0.468758
-0.0792287 0.0489584 -0.381342
-0.0754097 -0.0182198 -0.467109
-0.0750137 0.00701976 -0.379591
0.0523677 -0.0456782 -0.411255
0.128024 0.00908034 -0.428421
-0.13109 -0.0233302 0.17623
-0.113217 -0.0462921 -0.288198
0.119703 0.0761305 0.468288
-0.0439042 -0.00148516 -0.304809
-0.0807263 0.0535487 0.300122
-0.0748981 -0.00114495 0.0989126
0.126288 -0.0452145 0.282837
0.0714289 -0.0472689 0.0168302
0.127388 -0.0139113 0.42103
-0.0794523 0.0498575 0.442034
-0.0803366 0.0538368 -0.413521
-0.131184 0.0661363 0.123205
-0.0748888 0.00235742 0.154252
0.0901795 0.0183995 0.367262
0.11885 -0.0488681 0.454068
-0.0749391 -0.0297288 -0.199158
0.0129878 -0.012207 -0.183559
-0.131102 0.00906074 0.25339
0.0245957 -0.0133906 0.134328
0.00365952 -0.0123754 -0.141013
0.0860431 0.0761142 0.468327
0.023609 -0.047818 0.151282
-0.0884095 0.079337 0.185825
0.131256 0.000230437 0.0113161
0.0312851 -0.0487438 0.399581
-0.036039 -0.0488399 0.408679
-0.004224 0.0209034 -0.23204
0.0988618 -0.0480815 0.239817
-0.10218 0.109785 -0.0567934
0.112118 -0.0478585 0.18368
-0.0857945 0.0742182 -0.273847
0.127714 -0.0421105 0.232376
-0.0749829 0.00390698 -0.255419
-0.0156704 -0.0124255 -0.132398
0.107156 -0.0124846 -0.0866724
-0.0597055 -0.0214163 -0.468758
-0.0640674 -0.0487266 0.371674
-0.131177 0.0126945 -0.0640021
-0.129885 0.107491 0.213461
-0.0203159 0.0158066 -0.30366
0.128155 -0.0212785 0.0252154
-0.0739361 -0.0067121 -0.187461
-0.0703585 -0.0152589 -0.468733
-0.131147 0.0506751 0.224183
0.0408893 -0.0129564 0.0227093
0.022716 -0.0478595 0.162134
0.128107 -0.0333435 -0.235565
-0.0935059 -0.0466151 -0.197436
0.0041855 -0.0139344 0.274088
-0.0937834 -0.0861844 -0.371227
-0.131138 0.0289771 0.174471
-0.0749668 -0.0332751 -0.335646
0.00224023 -0.0134872 0.154561
-0.00289468 -0.0141558 0.331305
-0.0360913 -0.0463791 -0.24627
0.0804445 -0.0140961 0.335745
-0.0749017 -0.0183687 0.0130287
-0.0050311 -0.047241 -0.00927361
0.00914653 -0.0462625 -0.266254
0.0508746 -0.0139922 0.300831
0.103854 -0.013966 0.306789
-0.0615306 0.00461236 -0.305639
-0.131208 0.0159866 -0.187148
0.0143828 0.0289355 -0.318844
0.0699296 -0.0484556 0.332309
0.069502 -0.0139334 0.289765
-0.0239336 -0.0461965 -0.291905
-0.0658182 0.0797147 0.444067
-0.131161 0.0160307 0.0216551
0.0229217 -0.0488587 0.428095
0.0763228 0.0662855 0.468704
-0.119487 -0.048008 0.166941
0.0623598 -0.0481532 0.249973
-0.0871384 0.0763365 0.123518
-0.0749511 -0.034842 -0.272718
-0.12796 -0.0465796 0.281643
-0.079601 0.0491529 0.130596
-0.0933756 -0.0259745 0.468396
0.093447 0.0214432 0.0330182
0.085943 -0.0139298 0.292789
0.0570796 -0.0124215 -0.115705
-0.0474301 -0.0125467 -0.107873
-0.131158 0.0200288 0.0494449
-0.0194946 -0.0476539 0.0970699
-0.0748318 -0.0439573 0.216182
-0.131166 0.016947 0.000860736
-0.0783817 0.0452465 -0.363233
-0.0169715 -0.0465549 -0.194801
-0.131069 -0.0075138 0.33144
0.131276 0.00504468 0.119985
0.0705326 -0.0455476 -0.441593
-0.0748507 -0.0333137 0.177386
-0.030727 -0.0305531 -0.468799
0.0615099 -0.0186219 0.468388
0.0691322 -0.0140653 0.324789
-0.0128901 -0.0478733 0.157095
0.115308 0.0190781 0.0464424
0.0863244 0.0219204 -0.0730571
0.0172705 0.0221847 -0.174919
-0.13119 -0.0364718 -0.321931
0.0728109 0.0415375 -0.33886
-0.098603 -0.0468141 -0.145715
-0.0653807 -0.0127349 -0.0621454
0.130535 -0.00587361 -0.0534162
-0.0335229 -0.0128798 -0.0158251
0.0771839 -0.0478428 0.170978
-0.114659 0.0461676 0.468673
0.0168896 -0.0464435 -0.216195
-0.0749992 -0.017328 -0.414642
-0.045927 -0.0127519 -0.0528817
0.127185 -0.0112508 0.0806767
-0.0595438 -0.0143084 0.358077
-0.131069 -0.0230767 0.268399
-0.131207 0.0209427 -0.16286
0.106127 -0.0131904 0.413387
-0.00133416 -0.0141954 0.34222
0.0296599 0.0164312 0.42712
-0.056376 -0.0139518 0.263954
-0.076514 0.0293082 0.379669
0.128032 -0.004311 -0.449636
0.0881142 -0.0364263 -0.468848
-0.0552084 -0.0465649 -0.201487
0.0716315 -0.0455694 -0.435516
0.0274379 -0.0135367 0.173917
-0.130323 -0.0434679 0.325001
-0.131099 0.0483751 0.424323
-0.0745977 -0.00548431 0.237162
0.0901205 -0.013674 0.225716
-0.0178516 -0.0461952 -0.290773
-0.131085 -0.0333202 0.155523
-0.049778 -0.0123324 -0.165488
0.0535952 -0.0134802 0.16526
0.115344 -0.0454919 -0.445487
-0.0448796 -0.0136802 0.194453
0.126973 -0.0446607 0.316207
-0.0486863 -0.0473651 0.0130823
0.0138081 -0.0121573 -0.196591
0.125207 -0.0450836 -0.0216048
0.0597749 0.0195978 0.328438
0.0963499 -0.0733656 0.313187
-0.117162 0.111392 0.145652
0.0683554 -0.0143683 0.405268
-0.0783897 -0.0485511 0.321508
0.128881 -0.00830962 -0.230743
-0.0512072 -0.0139811 0.272995
0.128078 -0.0279415 -0.344032
0.0784887 -0.0134976 0.17592
-0.130447 0.105312 0.390583
0.0376615 -0.047171 -0.0174721
0.0791169 0.0200222 0.302439
0.0342774 -0.0488107 0.418107
-0.127556 0.110356 0.0802779
-0.074831 -0.00416366 0.38203
-0.0761045 0.0239016 0.455
0.10231 0.020865 -0.0717315
0.0104735 -0.0457456 -0.403519
0.0987251 0.0416271 -0.356393
-0.0501071 -0.012273 -0.181375
0.125627 0.0169407 0.237412
-0.0197822 0.0225753 -0.128028
0.128103 -0.0214888 -0.203428
0.064947 0.0182277 0.371527
-0.0408482 0.0203021 0.150782
0.0193897 0.0248078 -0.000805898
0.0893888 0.0211597 0.141578
0.0266293 -0.045768 -0.393618
0.128048 -0.013732 -0.416974
0.0443737 -0.0466393 -0.15737
0.0750188 0.0168492 0.415737
-0.0243839 -0.0481342 0.223706
0.0277245 -0.0429321 -0.466469
-0.018689 0.0414932 -0.349438
-0.124078 0.0930318 -0.468168
-0.131205 0.0599723 0.00286315
0.0692854 -0.046768 -0.117037
0.128073 -0.0166016 -0.315224
-0.0749986 -0.0296842 -0.461855
-0.0118249 -0.0474239 0.0377488
0.00780356 0.0178184 0.381819
0.0197629 0.0240482 -0.0907084
-0.12342 -0.0476384 0.0775981
-0.0988216 0.103588 0.198892
0.0964554 0.0814354 0.46417
0.00948735 0.0582822 0.43467
-0.0896833 -0.111045 0.341001
0.0338428 -0.0461808 -0.281995
-0.0943772 0.0941451 0.251576
0.0181345 -0.0536969 0.349179
0.0154515 0.0346993 -0.468458
-0.0748669 -0.0143212 0.182984
-0.0803002 0.0529915 -0.164778
0.057683 0.022169 -0.177235
-0.0175387 0.0416438 -0.389255
-0.0748126 -0.0119273 0.432209
-0.0749964 -0.0192933 -0.40973
0.0370869 -0.0458788 -0.36159
-0.101979 0.110646 -0.374837
-0.0757384 -0.0339889 -0.467564
0.118882 -0.0472601 0.0260395
-0.131143 -0.0156792 -0.0281316
0.128254 -0.0344292 0.412586
0.00327691 0.0138897 -0.46864
0.0908334 -0.0137135 0.236446
0.0583881 -0.0123535 -0.133478
0.0299997 -0.0140436 0.309418
-0.131306 0.0728766 -0.390433
0.0766808 -0.0121147 -0.192558
-0.0748754 -0.0165859 0.136079
-0.07493 0.0080804 -0.00474001
0.127807 0.017022 -0.289585
-0.0812094 0.0564606 0.0021801
-0.074809 -0.0143041 0.438626
-0.093519 -0.102162 0.37069
-0.0112812 -0.0132532 0.0889744
0.0943828 -0.0458812 -0.382234
-0.0734493 -0.00875006 0.0713496
0.076994 -0.0143428 0.400521
-0.0741948 -0.0061404 -0.0529899
-0.0840296 0.0674905 0.422388
-0.0186695 -0.046127 -0.309109
-0.0487523 -0.0458333 -0.394621
-0.087329 0.0778648 -0.206302
-0.0577579 0.018254 -0.300752
-0.075641 0.0178446 0.455288
-0.0695371 -0.0478708 0.142567
0.0295497 -0.0134863 0.16098
-0.131134 -0.00931349 0.0385985
-0.131158 0.0459602 0.154292
-0.0106622 -0.0134867 0.151279
0.105289 -0.0116351 0.416739
-0.0219833 -0.045887 -0.373801
0.124955 -0.0157667 0.342773
-0.0134777 0.0216983 0.222996
-0.0974532 -0.0473542 -0.00170317
0.116589 0.00386781 0.46846
-0.0760357 0.0303037 -0.365307
-0.065412 -0.0486273 0.344913
0.0547298 0.0223354 -0.169591
-0.0900605 -0.0483972 0.277706
-0.0740802 -0.00601824 -0.24207
-0.0859225 0.073535 0.0423311
-0.0748244 -0.0292452 0.30988
-0.131268 0.0179211 -0.448205
-0.0391594 -0.0141381 0.317701
-0.060259 -0.012128 -0.222459
0.0168374 -0.0144041 0.402209
-0.0774243 0.0412108 -0.400483
0.0811799 -0.012674 -0.0426055
-0.0825205 0.0633441 -0.437481
0.110324 -0.0142885 0.394266
-0.014385 -0.0488933 0.428177
0.105333 0.0204739 -0.0195317
-0.0749377 -0.0235843 -0.168502
-0.112999 0.0627919 0.468735
0.0978611 -0.0562451 -0.314723
-0.131177 0.048464 0.0817699
-0.131224 0.0713991 -0.0330324
-0.131243 0.0613687 -0.160331
0.0950689 -0.0134532 0.168143
0.00477303 -0.0129337 0.00786391
-0.0766493 -0.0452913 -0.441948
-0.0946382 0.094579 0.321607
-0.0748003 -0.0345088 0.395552
-0.00648951 -0.0487128 0.382076
0.110579 0.0418492 -0.412641
0.0816403 0.0201877 0.277044
-0.131099 -0.012725 0.178439
0.0622954 -0.0457262 -0.396043
0.128056 -0.0169647 -0.393855
0.128143 -0.0107883 0.205562
-0.0394587 -0.0121864 -0.201828
0.0992683 -0.0137795 0.25607
0.1097 0.0198037 0.0251985
0.0235648 -0.0133792 0.13103
0.0860666 -0.0465383 -0.17409
0.103992 -0.0129027 0.0238015
0.019 0.023931 0.15127
