ply
format ascii 1.0
comment Created by Open3D
element vertex 1576
property double x
property double y
property double z
end_header
-0.0864254 -0.0832709 -0.463796
0.0636352 0.0794405 -0.0484813
-0.0366154 -0.098384 -0.119802
0.0135583 -0.0507904 -0.37198
0.0486873 0.0408125 0.144374
0.0875052 -0.0112868 0.358776
0.0696505 -0.00867542 -0.122649
0.0708137 0.0252953 0.280014
-0.0536482 -0.00867542 -0.318357
-0.0381988 -0.0507904 0.369702
0.0479943 -0.0736189 -8.08313e-09
-0.0124932 -0.0259754 -0.232263
0.12232 0.106625 -0.160134
-0.0864254 -0.0998946 0.26571
-0.0394798 -0.0299 -0.46455
0.134645 0.0818423 -0.0747849
0.106036 0.0769437 0.219632
-0.0329214 -0.098384 -0.402711
0.112867 -0.0583802 -0.319779
-0.137018 -0.0937673 -0.273387
0.043872 -0.0142435 -0.0736548
0.0377133 -0.098384 -0.391201
0.0498262 -0.00645933 0.416159
0.0702596 0.024065 0.0641675
0.127276 0.040608 0.347003
0.11458 0.0896611 -0.46455
-0.125911 -0.00867542 0.178568
-0.0569046 -0.00867542 0.352837
0.0572832 -0.00867542 -0.0977227
-0.137017 -0.0859973 0.320632
0.0971328 0.0440961 -0.11424
0.0866017 -0.0199418 0.00309226
-0.0809577 -0.098384 0.341673
0.0897511 0.0484152 0.158763
-0.109951 -0.098384 -0.423409
0.0590147 -0.0507904 -0.126937
-0.0774529 -0.0507904 -0.0840018
0.0595573 0.00641416 0.184468
-0.0431255 -0.0507904 0.0866121
0.0724049 -0.00379423 0.310514
0.139344 0.106145 0.271663
0.0767055 -0.106625 0.178511
0.104377 0.0906443 0.430383
0.110982 -0.0742297 0.176371
0.0751484 -0.106625 -0.07687
0.102443 0.0614775 0.0847123
0.118442 0.104248 -0.46455
0.0852098 -0.0387775 0.0517403
0.03797 -0.00393552 -0.173944
-0.1371 -0.0517411 0.388263
0.0633151 0.0860736 0.10539
0.0523503 -0.0113729 -0.296856
-0.0921401 -0.0507904 -0.0429289
0.0913567 -0.0474174 -0.114125
-0.029821 -0.00867542 -0.301682
0.0887457 -0.00126374 0.0997833
0.096938 -0.098384 -0.253364
-0.00518287 -0.098384 -0.0142755
-0.137018 -0.0979681 0.210171
0.0822777 -0.0154867 -0.232909
0.106036 0.0797997 0.309719
0.0760233 0.00193 0.278722
0.0981359 0.0481449 0.147735
0.136799 0.106625 0.0781497
0.0363607 -0.00691705 -0.141214
-0.118391 -0.0649634 0.467465
0.0863452 0.0484754 0.17204
0.0444044 0.0738266 -0.268799
0.0113621 -0.0353407 -0.00107874
0.0442862 0.0370672 -0.0992309
-0.111046 -0.0499179 -0.462246
-0.137017 -0.0864614 0.353536
-0.135076 -0.0109682 0.0127958
-0.135076 -0.0336078 0.160563
0.060675 0.0532663 -0.0287486
0.0509003 -0.0315973 0.00144652
-0.0795219 -0.0206988 0.233276
0.0881277 -0.0507904 -0.241179
0.0705779 0.0955067 -0.174657
-0.0556203 -0.098384 0.0271117
-0.133469 -0.00867542 0.02182
-0.0712419 -0.00867542 -0.384272
0.0869064 -0.102644 -0.130068
0.052 -0.00867542 -0.18892
0.138063 0.106625 0.140405
0.058507 -0.00522102 0.32211
-0.0309436 0.0260143 -0.416159
0.0850633 -0.0420955 -0.374591
0.0987633 0.0457322 -0.421101
-0.0592055 -0.0507904 0.0343251
-0.0993867 -0.0499179 0.241142
0.127138 0.0398056 0.00103928
0.0864258 0.0773258 -0.0425141
0.0291278 -0.0499179 0.273734
0.0549678 -0.00623113 -0.275409
-0.0404299 -0.0499179 -0.0836136
-0.0719827 -0.098384 0.37192
0.0624766 0.0120937 0.0384236
0.0850172 -0.0221144 -0.416159
-0.135076 -0.0285037 -0.364477
0.0321449 -0.098384 0.0496174
0.0591839 0.0558082 -0.233093
0.0910616 0.0739965 -0.330473
0.097373 0.0397837 -0.40918
0.104851 0.070431 0.269245
0.0106468 -0.0507904 -0.362022
0.0279447 -0.0499179 -0.0429634
0.0555694 0.0662834 -0.384133
-0.0755683 -0.098384 0.0574436
-0.0936161 -0.0499179 0.123937
0.0869064 -0.102893 0.371287
0.00391605 -0.0232756 0.462419
0.00364518 -0.0507904 0.250726
-0.135076 -0.0377184 -0.20758
-0.0346041 -0.098384 -0.220539
0.0843855 0.0487642 0.238625
-0.0875749 -0.0772486 0.464549
0.0188747 -0.0211292 0.233276
-0.0392796 -0.098384 -0.30813
0.0708147 -0.00160822 -0.311961
0.0742401 0.00419971 -0.416159
-0.0129743 -0.0499179 -0.232977
0.121941 0.106625 0.311081
-0.137016 -0.060151 0.336227
0.0976241 -0.106625 -0.443789
0.105197 0.0736798 0.0948457
-0.0490535 -0.0313486 0.416159
0.116651 -0.0290547 0.444343
0.0540624 -0.098384 -0.322167
0.0353625 -0.0499179 0.23768
0.0291902 -0.098384 0.300504
-0.0376074 -0.0507904 0.0556736
0.0896111 0.00492336 -0.121683
0.118578 -0.0152828 -0.0115738
-0.077941 -0.0507904 -0.44314
-0.0205789 -0.00867542 0.193095
-0.015843 -0.0507904 -0.4132
0.0596949 0.0639161 -0.162883
-0.121278 -0.106625 -0.0281158
0.120872 0.000377215 -0.0686395
-0.0606273 -0.0507904 0.0589833
0.0899956 -0.098384 0.336959
-0.0107673 -0.0499179 -0.210649
-0.010114 0.024392 0.416159
0.0985065 -0.106625 0.430114
0.128505 0.106625 -0.208226
0.0874024 -0.0122303 0.017994
0.114819 -0.0428971 -0.392682
0.0555476 -0.00867542 0.00773629
0.0505667 0.00529605 -0.403444
-0.0705437 -0.0446819 -0.416159
-0.115118 -0.098384 0.286614
0.0566147 -0.105261 -0.112885
-0.0892355 -0.098384 0.236185
0.0978276 0.0417287 -0.120441
0.0291025 -0.0499179 -0.410615
0.0616967 -0.0197915 -0.00107874
0.0347516 -0.00867542 0.273986
0.0145422 -0.098384 0.423021
0.0712966 0.0191732 -0.134032
0.0176913 -0.0507904 -0.0123343
0.0377101 -0.00902688 -0.245939
-0.0426144 -0.00867542 -0.210498
0.0841626 -0.106625 0.208623
0.0285623 -0.00867542 0.0879179
0.00392785 -0.0499179 0.164168
-0.137016 -0.077856 0.254011
0.117106 -0.0258037 0.119715
-0.103068 -0.106625 -0.412687
0.0484916 0.0573221 0.0577703
0.0707124 -0.00867542 -0.41299
-0.0257934 -0.0121155 -0.00124075
0.024869 0.00788569 0.322999
0.021054 -0.098384 0.0243612
-0.102525 -0.00867542 -0.389768
0.102121 0.0540894 -0.178481
0.128341 0.0468054 0.0664831
0.037731 -0.00867542 0.0394549
0.0471883 0.0293328 -0.157962
-0.102244 -0.098384 -0.00270306
0.0440667 -0.098384 0.288432
0.0543372 -0.0242869 0.464549
-0.139299 -0.0693261 -0.343515
0.0131758 -0.0410161 0.416159
-0.138015 -0.0579466 0.130577
0.000589974 -0.0507904 -0.119425
0.0663863 0.016744 -0.367519
0.0053135 -0.0499179 -0.298156
-0.11855 -0.0152247 -0.461405
-0.0820345 -0.098384 -0.425774
0.0129979 0.0300801 -0.416159
0.12294 0.10262 -0.46455
-0.0792704 -0.098384 -0.228251
0.0676126 0.0416422 -0.452143
0.0543739 0.0490494 0.234349
-0.0161764 -0.0289104 -0.416159
0.0553991 0.0704075 -0.33524
0.0441301 0.0313453 -0.131529
-0.0728954 -0.00867542 0.404522
0.0913567 -0.0187249 0.16017
0.0324697 0.0603861 0.32103
0.128337 0.0467833 -0.0735408
-0.0480994 -0.098384 0.358817
0.114329 0.103902 0.435853
-0.0173457 -0.098384 0.259723
0.0742303 -0.00867542 0.393861
-0.139279 -0.0690235 -0.1405
-0.0546731 -0.00886077 -0.00310104
0.102209 0.0604791 -0.299412
-0.0991257 -0.106625 0.295817
0.0825244 -0.00867542 0.0673645
-0.137259 -0.0940813 0.246842
0.0276689 0.0219061 0.148342
-0.137018 -0.0933928 0.0783193
0.059186 -0.00429174 0.0587084
-0.0692624 -0.0507904 -0.226556
-0.138932 -0.0836325 0.317395
0.0360429 -0.00854297 -0.416159
0.0441747 -0.0507904 -0.133712
0.0616744 -0.00126659 0.273334
0.105872 0.0795674 0.114417
-0.128021 -0.00867542 -0.41444
0.0304838 0.0230366 0.259597
0.071025 0.0194654 -0.104416
0.100018 0.0555899 -0.169057
-0.0441193 -0.098384 -0.0755621
0.112141 0.00947507 4.95062e-07
0.113463 -0.0535786 0.220391
-0.130468 -0.0507904 0.311665
-0.0704833 -0.0499179 -0.0359804
0.0541844 -0.0220735 -0.00366187
0.092476 0.031602 0.129565
0.0669762 0.0505489 -0.211873
-0.024346 -0.0499179 0.105311
0.0494731 -0.0507904 0.407404
-0.0865366 0.043752 -0.441041
-0.0477524 -0.0507904 -0.393755
-0.00475052 -0.0433565 -0.232263
0.0366968 -0.00821341 0.36293
0.0229031 0.034265 -0.126619
0.129031 0.0508258 0.0110345
-0.078117 -0.00867542 -0.104718
0.0913567 -0.0450341 0.296656
0.124597 0.0243514 0.370802
-0.0139653 -0.0334613 -0.232263
0.0266075 -0.098384 -0.156029
0.0642632 -0.00876662 -0.198194
0.127036 0.0392105 -0.426945
-0.0973599 -0.0499179 -0.378502
-0.118233 -0.0499179 0.403407
-0.137446 -0.0541738 0.453767
-0.0495063 -0.0499179 0.305748
-0.137913 -0.0572867 -0.0987207
-0.0464995 -0.0499179 -0.0666085
0.127271 0.0405806 0.132985
-0.137045 -0.0193949 -0.303743
0.0770912 -0.106625 -0.277214
-0.137045 -0.0315317 -0.159572
0.0449418 -0.0499179 -0.165774
0.0913567 -0.027944 -0.437037
0.0515777 -0.0100052 -0.263841
0.0390739 0.0314881 0.18218
-0.115217 -0.0356311 -0.00124075
0.0758591 0.00420191 -0.157831
0.0582684 -0.106625 -0.403316
-0.0225569 -0.0499179 0.00058544
-0.137045 -0.0257092 0.31251
0.0805648 0.00566906 0.0947722
0.0884011 -0.00387132 -0.402832
0.0628957 0.0403674 0.190351
0.0333467 -0.098384 0.0397218
0.022732 0.0264434 -0.332052
0.118024 -0.0192391 0.324133
-0.0149634 -0.00867542 -0.16585
-0.0810333 -0.0507904 -0.0657302
-0.0723022 -0.098384 0.0783351
0.0534266 0.0115798 0.156325
-0.133209 -0.0499179 0.355224
0.0796889 0.0577982 -0.194163
0.0594112 -0.00396454 0.392477
0.0860982 -0.00867542 0.264557
0.0913492 -0.0103829 0.152456
-0.110905 -0.0507904 -0.129593
0.0503851 0.0746825 -0.332404
0.0916535 0.0174506 0.113478
0.0975839 0.0406863 -0.0635029
0.0319837 -0.00867542 -0.457485
0.015631 -0.00867542 -0.396826
-0.0562919 -0.0499179 -0.0498919
0.0374176 -0.00867542 -0.075813
0.085344 0.0179438 0.264513
0.0770712 0.0958172 0.393912
-0.0793759 -0.0376678 -0.416159
0.113717 -0.0515295 0.0243656
-0.0397611 -0.0499179 -0.133214
0.0531978 0.053029 0.390261
0.111696 -0.0680843 0.406163
0.0867065 -0.0187253 0.41571
0.11485 -0.0426626 0.372733
0.0575369 -0.0193273 0.228168
0.0465885 -0.0499179 -0.277168
0.0570376 0.0529802 0.379016
-0.0435207 -0.00867542 0.326287
-0.0840103 -0.0171436 -0.230383
-0.0851061 -0.0507904 0.422181
0.0549734 0.0284765 -0.237617
-0.106606 -0.098384 0.260612
-0.111111 -0.00867542 -0.313486
-0.0441217 -0.0507904 -0.450422
0.0959696 -0.098384 0.21985
0.12048 -0.0022764 0.24476
-0.126751 -0.0499179 -0.392257
0.0171244 -0.0507904 0.0644268
0.116601 0.0693641 -8.08313e-09
0.122255 0.106625 -0.226598
0.0913567 -0.0369945 0.0866315
-0.0307281 -0.0499179 0.0855518
-0.0659116 0.00544854 -0.416159
0.0170143 -0.00867542 -0.324277
0.0877131 -0.00867542 -0.228073
0.0913567 -0.0376319 -0.21523
0.093794 0.0341259 0.109204
0.114767 -0.0432895 -0.226754
-0.135076 -0.0492258 -0.0856062
0.0594259 -0.00467075 -0.337462
0.113437 -0.0537908 -0.445331
0.0940557 0.0300593 -0.151907
0.0969721 0.0433854 0.0659837
0.00638922 -0.00867542 0.113232
0.0239628 0.0317504 0.28747
0.107015 0.0327342 -0.46455
0.0767561 -0.0499179 -0.306027
0.0559256 0.00915871 0.0140425
0.0983287 0.0438732 -0.194028
-0.0017431 -0.00867542 -0.396475
0.101135 0.0558797 0.0484968
-0.0268488 -0.0499179 0.0885414
-0.114604 -0.0491972 -0.463402
0.0638167 0.0846719 -0.178857
-0.0383015 0.0435125 0.436271
-0.0330404 -0.0927452 4.95062e-07
0.0462708 0.0272962 -0.40594
0.0667605 0.0553784 0.287256
-0.105077 -0.0190673 -0.00107874
0.124951 0.0265123 -0.0630272
0.0758696 0.0747038 0.21002
0.0407799 -0.0507904 0.065263
-0.137077 -0.0515699 -0.0596161
0.10427 0.0705799 -0.383148
0.102531 0.0565468 -0.133498
0.0900568 -0.00893201 0.0775826
-0.138153 -0.0938684 -0.339812
-0.123294 -0.00867542 0.345068
0.0826488 -0.106625 -0.135151
-0.135076 -0.0404724 0.245255
0.134922 0.106625 -0.0155216
0.059107 0.0734641 -0.392346
0.0744984 -0.0499179 0.00403331
0.0691617 -0.106625 -0.21443
-0.0204085 -0.000514846 -0.46455
0.0705383 0.0477403 -0.337507
-0.108746 -0.103359 -0.0831641
0.0528695 0.00644338 -0.0729031
0.100466 0.0441821 0.119612
-0.0505279 -0.0306865 -0.416159
0.0167637 -0.00867542 -0.311362
-0.131542 -0.098384 0.327722
-0.0734213 -0.098384 -0.0200675
-0.121989 -0.0499179 -0.229729
0.113428 0.103314 -0.229544
-0.00607904 -0.0499179 0.196285
0.081177 -0.00867542 0.315146
0.0724127 -0.071043 -8.08313e-09
-0.137375 -0.0536848 -0.22202
0.0851877 -0.0391272 0.00444933
0.120421 0.106625 -0.450861
0.119866 -0.00642819 0.342034
0.0913567 -0.0370656 -0.291316
0.126452 0.0356769 -0.0521318
-0.0937337 -0.0507904 -0.428141
0.0819971 0.0109666 -0.315873
0.115359 -0.0388062 0.249436
0.00234886 -0.098384 0.130072
-0.0575604 -0.098384 0.00856345
-0.0823902 -0.00867542 -0.27164
-0.137166 -0.094518 0.442689
0.0875488 -0.0108877 0.265811
0.111468 -0.0700491 -0.292892
-0.135076 -0.0245675 -0.0589744
-0.0905446 -0.00867542 0.369076
-0.101236 -0.00867542 -0.408419
-0.0629999 -0.00867542 -0.365788
0.0537042 0.0241103 -0.394609
0.0246192 0.00861326 0.105923
-0.118156 -0.098384 0.211648
0.10785 -0.091946 -8.08313e-09
0.116057 -0.0335153 0.220038
0.0454205 0.0289679 -0.356309
0.0663244 -0.0268664 -0.46455
0.0209132 -0.0323204 0.00144652
-0.0940291 -0.106625 0.161869
-0.0264973 -0.0283589 0.230589
0.0509937 -0.0151707 0.0396753
-0.0445193 -0.0300129 0.230751
0.0550877 -0.0499179 -0.176348
0.102595 0.0621284 -0.121602
0.110786 -0.075923 -0.237381
0.0993608 0.0482896 0.256625
-0.109876 -0.098384 0.319528
0.0777888 0.0513388 0.218494
0.0792008 -0.0499179 -0.353607
0.0762135 0.0655664 -0.405118
0.0999936 0.0509973 -0.0692143
0.0628009 0.0333294 -0.179685
-0.0312926 -0.0452124 -0.00107874
-0.0804319 0.0155809 0.464549
0.130317 0.0581915 -0.119624
0.0797298 -0.106625 0.403455
-0.0471036 -0.00867542 0.38005
0.0647358 0.0415966 0.428433
0.0564411 0.0440396 -0.19175
-0.0341593 -0.00867542 -0.0761096
-0.128549 -0.098384 -0.281929
0.0804973 -0.0507904 0.00706348
0.105984 0.0956793 -0.129215
0.0862257 -0.018686 -0.46455
-0.00247498 -0.0507904 0.0905769
-0.0154886 -0.00867542 -0.359563
0.08586 -0.0285574 0.0473215
0.0575465 0.0794042 0.110947
0.0375895 -0.0507904 -0.0168118
-0.112715 -0.0507904 0.310624
0.059721 0.00514959 -0.266795
0.0693731 0.00930756 0.091532
0.0338784 0.0561995 0.268615
-0.0840699 -0.0499179 0.300684
0.110595 -0.0775637 -0.221936
0.0347046 -0.0507904 0.0779763
-0.0210273 -0.00867542 0.291276
0.118766 -0.0139355 0.208996
0.0644671 -0.0480528 0.464549
0.0455596 -0.0147431 0.317036
-0.0220805 -0.0499179 0.0213079
-0.0342385 -0.098384 -0.0821763
-0.122956 -0.00867542 0.418268
0.0480532 0.0610785 -0.280684
0.0732323 -0.0397287 0.230751
-0.130791 -0.098384 -0.340633
0.103825 0.0690901 0.107672
0.0346835 -0.098384 -0.0748171
0.0854194 -0.0354599 -0.412837
-0.0671118 -0.098384 -0.0539417
-0.072241 -0.0116875 0.416159
0.097175 0.0295188 0.0530169
0.0153143 -0.0499179 -0.389764
-0.0473506 -0.098384 0.0901801
0.12488 0.0260817 0.126034
0.0240982 0.0189586 -0.137813
-0.0876623 -0.0507904 0.312265
0.118862 -0.0132556 -0.347343
-0.109876 -0.098384 -0.443
0.109502 -0.0873993 -0.174211
0.0199178 -0.00867542 -0.237536
0.0348634 0.02307 -0.46455
0.0913567 -0.036259 -0.215924
0.0194081 -0.00867542 0.39291
-0.0783368 -0.098384 -0.0231826
-0.0128346 -0.0368833 0.464549
-0.0887567 0.0311335 -0.427697
-0.137658 -0.055627 0.228288
0.0079903 -0.0507904 0.0872755
0.0284238 0.054051 -0.285392
-0.0124748 -0.0445789 0.230589
-0.0267839 -0.098384 0.0654787
0.127799 0.0436551 0.230928
0.00317111 -0.00867542 -0.106906
0.0543575 -0.010978 0.0712664
0.0545535 -0.0507904 -0.0419553
0.0250851 0.0447469 -0.336121
0.00919861 -0.00867542 0.251096
-0.045666 -0.00867542 -0.280998
-0.112619 -0.098384 0.38855
0.0851753 -0.106625 -0.18227
-0.0232588 -0.010923 -0.416159
0.0854739 -0.00867542 0.417456
-0.123361 -0.0499179 -0.443229
-0.0381219 -0.0507904 -0.0246646
0.111017 -0.073934 0.0379541
0.0913567 -0.037038 0.247434
0.0868628 0.0306021 0.047718
0.0183817 -0.0182888 0.233276
-0.135805 -0.00896616 -0.432226
-0.0582221 -0.00867542 -0.0441693
-0.136537 -0.098384 0.20892
-0.0686124 -0.0507904 0.458164
0.128647 0.0485883 0.0188381
0.0763399 -0.0507904 -0.418119
-0.0181155 -0.0286146 0.462419
0.0956632 -0.0827973 -8.08313e-09
0.097175 0.0343837 0.228636
0.113082 -0.0566466 0.0762003
0.0261948 -0.0499179 -0.231487
0.0564245 -0.00867542 0.191991
0.0865086 -0.0210235 -0.376232
0.111201 -0.0723436 -0.00889642
0.0820692 -0.106625 -0.297916
0.0129119 -0.098384 -0.044413
0.0639559 0.0116285 0.143219
-0.10735 -0.0395133 0.00144652
-0.113046 -0.00867542 0.162856
0.100796 -0.098384 -0.132706
-0.100686 -0.0507904 0.0868629
-0.0170226 -0.0499179 -0.0788154
-0.0723847 -0.0507904 0.267994
0.0611997 -0.106625 0.437789
-0.00332506 -0.0499179 0.40897
-0.0241079 -0.0507904 0.265746
-0.0628847 -0.00867542 -0.437715
-0.135817 -0.00897304 0.0530656
-0.0246503 -0.098384 -0.0930395
-0.0776802 -0.00867542 -0.336194
-0.0426854 -0.00867542 -0.414952
-0.0864254 -0.103058 -0.0767862
-0.134232 -0.098384 0.337629
0.112001 -0.0654572 -0.188487
0.0911215 0.0144754 -0.20291
0.123934 0.0202433 -0.112312
0.0661942 -0.0871941 -0.46455
0.113226 -0.0554885 0.307687
0.0412632 -0.00867542 -0.23716
0.132788 0.0719253 -0.456395
0.0655213 0.0741786 0.18031
0.0503786 0.0398853 0.395819
-0.104534 -0.098384 -0.122562
0.0873587 -0.0126301 0.155752
0.0173319 -0.0489462 -0.416159
0.0939799 0.0354799 -0.10897
0.121249 0.0029271 -0.307833
0.093092 0.0252961 -0.415555
-0.121518 -0.0458002 -0.463931
0.0881924 0.0676215 0.165384
0.126961 0.0387741 0.21787
0.103248 0.0608342 0.0408365
0.0862437 0.0283891 -0.161004
-0.0667587 -0.00867542 0.0768231
0.0272026 0.00402867 -0.119776
0.0651878 0.00698014 0.34436
0.112584 0.102763 0.418624
-0.0943758 -0.106625 0.225499
0.124269 0.074266 -8.08313e-09
0.120611 -0.00138964 0.0148859
0.0566147 -0.106123 0.0866188
-0.0905979 -0.0507904 0.443312
0.0913567 -0.0393314 0.191534
-0.042586 -0.0499179 0.0602202
-0.137045 -0.0150633 -0.250528
-0.136417 -0.050032 0.293633
-0.101501 -0.0419521 0.233276
0.0667829 0.0541202 -0.148279
-0.13241 -0.098384 -0.425984
-0.134369 -0.0507904 0.0712973
-0.00574988 -0.00867542 0.239864
0.0784805 -0.0380136 -0.463931
0.00953849 -0.00867542 -0.0381325
0.113356 -0.0544348 0.0131788
-0.00827478 -0.00867542 0.0857226
-0.107397 -0.0182151 0.233276
0.0324775 0.0296366 -0.375469
-0.0610543 -0.098384 -0.391825
0.0909178 0.0133361 -0.344553
-0.113772 -0.0507904 -0.339746
-0.0223774 -0.0507904 -0.404544
0.0922796 0.0386014 -0.422638
-0.0578136 -0.0507904 0.352579
-0.137018 -0.0571185 -0.0430122
0.0812462 0.0787544 -0.186381
0.0337408 -0.0507904 -0.372562
0.0526264 0.0447334 -0.0495413
-0.0473325 -0.0507904 -0.454861
0.0821523 0.087877 -0.15922
0.0677968 0.00640456 -0.205115
-0.0708621 -0.0499179 0.251714
-0.0191403 -0.0499179 -0.385444
-0.0804979 -0.0507904 0.0402528
0.0584953 0.0803677 -0.152856
-0.0991557 -0.106625 0.427437
0.00921275 -0.0499179 -0.372872
-0.0273527 -0.0507904 0.263148
0.0022289 -0.0507904 0.449744
-0.13829 -0.0885413 0.333319
0.118098 0.106362 0.185818
0.0608629 0.0633407 0.309762
0.0639415 -0.0507904 0.257649
0.0913295 -0.00319994 0.416159
-0.0699674 -0.00867542 -0.0192128
-0.0228617 0.00311114 -0.416159
0.0384196 -0.0107201 -0.303949
-0.0389287 -0.098384 -0.108417
-0.0965345 -0.00867542 -0.0258647
0.0478396 -0.0507904 0.0420137
-0.0178209 -0.098384 -0.0144517
-0.137045 -0.0374535 -0.44178
-0.136583 -0.0770244 4.95062e-07
-0.138374 -0.0602862 0.358958
0.0877996 -0.0734596 4.95062e-07
-0.137194 -0.0940591 0.100427
0.0497767 0.0281357 0.245674
0.0823638 -0.0499179 -0.0843032
0.113999 -0.0492527 0.332661
0.0313819 -0.098384 -0.283886
0.0183359 -0.0103023 -0.461405
0.0853601 0.0843453 0.369323
-0.0802019 -0.0125156 -0.232909
-0.0173775 -0.0507904 -0.0185955
0.115034 -0.0412641 0.36643
0.0617867 -0.106625 -0.289337
0.115049 -0.0411528 -0.221453
-0.0892026 -0.0454866 -0.461405
-0.020669 -0.0507904 -0.303359
-0.135076 -0.0228276 -0.415597
0.131057 0.0623056 0.224792
-0.021598 -0.0283971 0.416159
-0.0985059 -0.098384 -0.0526581
0.0605229 0.0245939 -0.219931
-0.0766603 -0.0507904 -0.429977
0.136025 0.0891911 0.0323257
0.0301651 0.0369803 0.367736
0.103066 0.0597456 0.198353
0.0580048 0.0673663 -0.333809
-0.133981 -0.00867542 0.158118
-0.0300251 -0.0499179 0.136555
0.12563 0.0306561 0.0550584
0.10054 0.0446265 -0.272496
0.0674487 0.0548229 -0.113122
-0.134991 -0.0507904 0.0797322
-0.116619 -0.0773341 0.46807
-0.0546407 -0.0507904 -0.336377
0.10562 0.0750927 0.220211
0.0521566 0.0473688 0.363601
0.117422 -0.0235449 0.41561
0.120429 -0.00261532 0.198528
0.0754771 0.0446404 0.409599
-0.0831823 -0.0249388 0.00144652
0.0227406 -0.00867542 -0.229582
-0.137015 -0.075914 -0.411834
-0.137016 -0.0818503 -0.407937
0.10952 -0.0872306 -0.109483
0.0705953 0.0140615 -0.318379
-0.116725 -0.00867542 -0.253375
0.132272 0.0690607 0.287306
0.0559556 0.0298715 -0.0428876
0.056966 -0.00867542 -0.113373
0.0865286 -0.0207915 0.0132995
0.0523263 -0.00867542 -0.222896
0.0977937 0.0281838 0.056326
-0.128907 -0.0507904 0.377775
0.0913567 -0.022027 -0.183026
-0.0237752 -0.0499179 0.0692919
0.0850276 0.0623264 -0.377138
0.0625852 -0.00683732 -0.235518
0.124656 0.0247133 -0.194784
-0.0585371 -0.0499179 -0.277769
0.0443412 -0.0499179 0.218325
0.0538666 0.0454435 0.388747
0.102804 0.0581776 -0.212302
-0.0164822 -0.00867542 -0.0873806
-0.0314921 -0.00867542 -0.237544
0.0593093 0.0648464 0.266131
0.0133707 -0.0507904 0.139426
0.0870575 -0.098384 -0.165349
0.0680077 -0.106625 -0.211412
0.0408712 -0.098384 0.182533
0.053919 0.00311221 -0.299003
0.0613034 -0.0293432 0.459997
0.0933116 0.0179306 -0.416159
0.081197 -0.0308399 -0.00366187
-0.00880217 0.00873328 0.416159
0.11504 -0.0412212 0.192188
0.097175 0.0360268 -0.170924
0.0905715 0.0111068 0.126022
0.0994035 0.0484723 -0.362786
-0.0436721 0.0400373 0.455493
-0.137018 -0.0951773 0.0897062
-0.0338094 -0.098384 0.113366
0.0892666 0.00267823 0.0932586
0.0101509 -0.098384 0.313005
0.0336481 -0.0507904 0.00236884
0.0953381 0.0361619 -0.283944
-0.121626 -0.0507904 0.241185
-0.0970763 -0.00867542 -0.407974
-0.0581402 -0.0499179 -0.0001305
0.038133 -0.0507904 0.242217
-0.107401 -0.0507904 0.443812
-0.0772468 -0.00867542 0.235526
-0.0933829 -0.098384 -0.199568
0.0247321 -0.098384 -0.0460098
-0.0893816 -0.106625 0.330923
0.0893773 0.00341822 0.0582903
-0.0704965 -0.098384 0.300898
0.0137879 -0.00867542 -0.293348
0.0581097 0.00145122 -0.416159
0.11388 -0.0502129 0.264059
0.105976 0.0765928 0.134406
0.0285641 -0.0499179 -0.022583
-0.0936766 -0.106571 4.95062e-07
-0.0343218 -0.0507904 -0.203229
-0.0603565 -0.00867542 -0.297906
0.103556 -0.098384 -0.145577
0.106036 0.0772981 -0.0330676
-0.0792564 -0.0507904 -0.192529
0.0684783 0.0475124 0.128131
0.0913076 -0.0281153 -0.235169
0.0433165 0.0289873 -0.335123
0.00496996 -0.0814074 -0.46455
0.105149 0.0779204 0.37979
-0.0639046 -0.0156495 -0.461405
0.0642345 -0.106625 0.358066
-0.138662 -0.092689 -0.426565
-0.0924455 -0.0937786 4.95062e-07
-0.0152993 -0.00867542 -0.276365
-0.138393 -0.060405 -0.437438
0.0371735 0.0560844 0.0428045
-0.0718248 -0.00867542 -0.0132778
0.0827521 -0.105767 0.455476
-0.137016 -0.0667789 -0.197083
-0.135076 -0.0270256 0.303604
-0.0696872 -0.098384 0.405695
-0.0850188 -0.0499179 -0.390335
0.0635128 -0.0499179 0.252167
-0.10192 -0.0507904 -0.049435
0.11975 -0.00721037 -0.307446
0.055121 -0.001004 0.0536255
-0.0987058 -0.0507904 0.376998
-0.0258099 -0.0507904 -0.0150308
0.0938826 0.0292023 0.157162
0.0611443 0.0211367 0.243219
-0.135076 -0.0247739 0.0907685
0.0292883 -0.0287001 -0.00124075
-0.000370182 -0.0507904 -0.180554
0.109331 0.0999784 0.401722
0.0553244 0.045319 0.166656
0.0840679 -0.0499179 0.105465
-0.138464 -0.0924643 -0.111155
-0.0290148 -0.0499179 0.410377
0.109395 -0.08838 0.32077
0.091333 0.0156582 0.171167
-0.0885833 -0.106625 -0.441282
-0.112583 -0.0507904 0.241927
-0.0423383 -0.0499179 -0.113759
0.0913567 -0.0201375 0.0699084
0.0581197 -0.0118352 0.416159
-0.11801 -0.0507904 0.149726
-0.116712 -0.0507904 0.204916
-0.137018 -0.0512154 0.175099
0.0652196 -0.0631698 0.464549
-0.0743338 -0.0507904 0.223201
0.105178 0.0723917 -0.0811497
0.0871277 -0.0147489 -0.0529129
0.124681 0.0248639 -0.28893
0.118222 -0.0178282 0.0476622
0.0247957 -0.098384 -0.126289
0.0981921 0.0305687 -0.385482
-0.0702991 -0.0507904 -0.210448
0.0363997 -0.00867542 0.308062
-0.137045 -0.0204122 0.380089
-0.0306553 -0.0499179 0.336015
-0.0220792 -0.098384 0.113943
-0.134797 -0.098384 0.0555467
-0.116551 -0.0935332 -0.465076
0.0658676 -0.00867542 0.0228334
0.0977255 0.0412921 0.386817
-0.0172008 -0.0507904 -0.0118372
0.0913567 -0.0435003 -0.166255
-0.115417 -0.0377755 0.00144652
0.0930751 0.0466215 -0.331205
-0.0595063 -0.0499179 -0.343447
-0.135076 -0.0117391 -0.0633654
0.113553 -0.0528492 -0.000846778
-0.137017 -0.080408 -0.173211
0.120361 -0.00307654 0.262018
0.136105 0.0896146 0.427039
0.0896016 0.00486244 0.269331
-0.136262 -0.0499446 0.36046
-0.00914985 -0.098384 -0.0418216
0.0913567 -0.0174649 0.0693976
0.0854935 0.0852564 0.128198
0.102693 0.0575126 0.31083
0.0859255 -0.0277962 0.130211
0.097175 0.0382384 0.0300962
0.0473088 -0.0507904 -0.099643
-0.135076 -0.0264764 -0.0953055
0.0331129 -0.00867542 -0.21663
-0.132128 -0.098384 -0.329949
0.0442094 0.0376908 -0.403445
-0.0931908 -0.106625 0.345606
0.127803 0.0436754 -0.0106048
-0.0648098 -0.098384 -0.0765118
0.0774772 -0.106625 0.218976
0.0809612 -0.106625 -0.429103
0.0687416 0.0442817 -0.0851424
0.105339 0.0738721 0.262409
0.0880772 -0.00867542 0.416613
0.093768 -0.098384 0.242625
-0.135076 -0.0120092 -0.31136
0.0585166 -0.00867542 0.413487
0.0549929 0.0176419 0.169589
0.113332 0.104201 0.0107334
-0.0863085 -0.098384 0.219596
-0.0584596 -0.00867542 -0.182325
0.075565 -0.0499179 -0.353121
0.054084 0.0731403 -0.369746
-0.0798569 -0.098384 -0.271518
0.114453 -0.04205 4.95062e-07
0.0326152 0.0372239 0.420309
0.0443227 -0.0507904 0.280133
0.121164 0.00235585 -0.321196
0.0511034 0.0236211 -0.407351
0.10426 0.0899254 0.252645
-0.138693 -0.0857839 0.0428504
0.0566699 0.000584113 -0.259596
-0.0355445 -0.00867542 0.0400758
0.0184616 -0.0507904 0.277332
-0.0440177 0.0435448 0.436507
0.0905064 -0.106625 0.00363024
-0.139421 -0.0749409 -0.117711
0.0884804 0.0158948 -0.0876567
-0.0662208 -0.0499179 -0.263641
-0.135076 -0.0296594 -0.26825
0.0295668 -0.0507904 -0.2848
-0.134599 -0.0499179 0.00350346
-0.05083 -0.0499179 -0.042441
0.0510481 -0.0499179 0.232434
-0.0720932 -0.0499179 -0.322528
-0.115181 -0.00867542 -0.112706
0.115206 0.104474 0.180416
0.104316 0.0902684 0.305442
-0.0154492 -0.098384 0.152821
0.0724091 -0.00237254 -0.139828
0.0361826 -0.0360786 0.230751
-0.0200342 -0.098384 0.42538
0.0514282 -0.0616289 -8.08313e-09
-0.0337489 -0.0507904 -0.185982
0.124496 0.0237347 0.412424
0.0618728 0.0523841 0.00339532
-0.0851789 0.0308826 0.463076
0.0670976 -0.00643315 -0.195607
0.0641124 -0.106625 0.215499
-0.0202265 -0.00867542 -0.362875
-0.137015 -0.0744178 0.328783
0.041531 -0.00867542 -0.0215614
0.0977117 0.0412328 -0.140428
-0.0697568 -0.0499179 0.399694
0.128741 0.0491361 -0.200027
0.0187477 -0.098384 -0.0430784
-0.110756 -0.0507904 -0.0997971
-0.0115788 -0.0507904 0.453002
-0.135076 -0.0482222 0.194762
0.0972425 0.0392251 -0.193434
-0.0417682 -0.0499179 -0.309268
0.109142 -0.0906881 0.399617
-0.0550218 -0.0499179 0.211601
-0.0155873 -0.0507904 0.398259
0.0561576 -0.007553 -0.383733
-0.0516724 -0.00867542 -0.0444986
0.0510321 0.0114448 0.252634
-0.0908591 -0.106625 -0.218417
-0.0664458 -0.098384 -0.344878
0.0602297 0.0244147 0.240246
0.0391311 -0.00867542 -0.154735
-0.0598307 -0.098384 0.0214703
0.0661407 -0.00867542 0.409685
-0.0338124 -0.0748377 4.95062e-07
0.086526 -0.0765405 -8.08313e-09
0.123578 0.0179539 0.268779
0.0474496 0.0497869 -0.200711
0.110063 -0.0822185 0.396955
0.0880464 -0.0507904 -0.0327633
0.115879 -0.0348648 -0.137943
0.093731 0.0284534 0.394298
-0.0449061 -0.091644 -8.08313e-09
0.0513554 -0.00867542 0.3351
0.116407 -0.0308616 0.348755
0.0763509 -0.106625 0.408328
0.12713 0.0397586 -0.221349
-0.103748 -0.0499179 0.211288
0.0367631 0.0278106 0.242631
0.0573645 -0.00412717 -0.379996
-0.0818815 -0.0499179 0.12577
0.0784305 0.0755533 -0.199304
-0.0567756 -0.098384 -0.034462
0.0856517 -0.0317846 -0.0807772
0.0571846 0.0782573 -0.265792
-0.070286 -0.098384 -0.110616
0.0913567 -0.021327 -0.382708
0.052033 0.07278 -0.341197
-0.0958276 -0.098384 0.276788
0.0677081 0.0353361 0.0513428
0.132942 0.0727801 -0.207348
-0.0475325 -0.098384 0.179621
0.0940231 0.0647026 0.338201
0.127178 0.040038 -0.231833
0.0739701 0.0454125 -0.40571
0.0157933 -0.098384 0.453866
-0.0735764 -0.0499179 -0.357803
0.0901354 -0.00897685 0.389007
0.118943 0.106625 0.207914
0.0145927 -0.098384 -0.266479
0.0989883 0.0466954 -0.0616693
0.102416 0.0643266 -0.288499
-0.000660911 -0.00867542 -0.166501
-0.0426254 -0.098384 0.166054
0.00244925 -0.00867542 -0.297215
0.0378042 -0.0507904 -0.0270411
-0.0651461 -0.0507904 -0.0489761
0.129821 0.0554216 -0.0700983
-0.0871832 -0.106625 0.357371
0.0613311 -0.00169594 -0.311077
0.0157538 -0.0507904 -0.308558
-0.0589824 -0.00867542 0.254567
0.081512 -0.0250086 -0.234684
0.133925 0.0780098 0.104505
0.0056743 -0.098384 -0.112894
0.084861 -0.0471036 0.224034
0.0150724 -0.098384 -0.262471
-0.0354675 -0.0507904 0.0787658
-0.135076 -0.020484 -0.11003
-0.127934 -0.0456661 -0.232909
0.121278 0.00312152 -0.367658
0.125372 0.0290856 -0.314372
-0.107715 -0.0499179 0.314817
0.0682164 -0.00867542 0.403739
0.0287199 -0.0499179 0.196562
0.0783462 -0.0507904 0.181452
-0.137018 -0.0977556 -0.0428196
0.0736173 -0.0507904 0.343703
0.103036 0.0664551 -0.0102499
0.0372335 -0.0426371 0.416159
-0.0793334 -0.0863938 0.464549
-0.0219102 -0.00867542 0.269638
-0.13877 -0.063216 -0.0687733
0.0184587 -0.0499179 -0.399653
-0.0879109 -0.0507904 -0.40555
-0.0925498 -0.0836151 0.464549
-0.13792 -0.0907975 0.130797
0.0848674 -0.0469455 -0.278404
0.0703258 -0.0507904 0.0422696
0.0113264 -0.00867542 0.394711
0.104614 0.0920487 0.018801
0.0698852 0.0206183 0.276336
-0.0826018 -0.0507904 0.269139
-0.0692527 -0.098384 0.221135
-0.137017 -0.0629135 0.144892
0.0918939 0.0187953 0.137614
-0.10859 -0.00867542 0.109967
0.0841699 0.0838424 0.263981
0.0886297 0.0208345 -0.304097
0.0242604 -0.00867542 -0.16554
0.0866158 -0.0197786 -0.411916
0.0192398 -0.00867542 0.284827
0.0319836 0.0402339 0.0456384
0.0831961 -0.0507904 0.355772
-0.080764 -0.0822518 -8.08313e-09
0.0467155 -0.098384 -0.176574
0.0929974 -0.0571861 -8.08313e-09
0.00217638 -0.0144205 0.00144652
-0.10501 -0.0499179 0.186685
0.139161 0.105213 -0.19128
-0.137017 -0.0596064 -0.111468
-0.111519 -0.0499179 -0.248106
-0.136671 -0.00970524 0.0437136
0.132731 0.0716108 0.265494
0.0999713 0.0554206 0.0460587
-0.0817531 -0.0507904 -0.425731
0.0201467 -0.00867542 0.116177
-0.135666 -0.0502015 -0.371305
-0.128472 -0.0467758 0.233276
-0.0918988 -0.00867542 0.139313
-0.0210315 -0.00867542 -0.24303
0.00546178 -0.0507904 -0.142187
-0.0114555 -0.00867542 0.111179
-0.00081423 0.0432486 0.446365
0.0283586 -0.0507904 0.340319
0.100522 0.044517 0.137146
0.0830076 -0.0507904 -0.350469
-0.0130188 -0.0499179 0.313659
0.05546 0.0333713 0.464549
-0.108746 -0.103311 0.288098
0.0513086 -0.098384 -0.0805543
0.101383 0.0496716 -0.111242
0.119863 -0.00644371 0.341106
-0.112494 -0.0507904 0.246482
0.0535125 -0.098384 -0.0813932
0.0120012 -0.098384 0.351
-0.0163248 -0.0443617 -0.461405
0.112398 0.102724 0.31326
0.0768223 -0.0499179 0.228313
0.0718281 0.0623315 -0.0029358
0.0295533 -0.0507904 0.426226
0.097175 0.030776 0.229552
0.0464064 0.0429463 0.265415
-0.0870662 0.0386928 0.456245
0.0611084 -0.0088985 0.0211535
0.0658066 0.0787555 0.380961
0.0858824 -0.026252 0.464549
-0.137017 -0.0688477 -0.107564
0.0629997 0.0905881 -0.343617
0.106036 0.0788108 -0.0218506
0.0566147 -0.101957 0.323298
-0.137018 -0.0510951 -0.200668
-0.0778372 -0.098384 -0.252246
0.100007 0.051052 0.421008
0.0475063 0.0311883 0.0482875
0.0160944 -0.098384 -0.164635
0.117841 -0.0205536 0.00359506
0.118532 -0.0156139 -0.218163
-0.125619 -0.0507904 0.311794
0.0591454 -0.106625 -0.1718
0.0521256 -0.0188612 -0.230383
0.0963916 -0.098384 0.293283
0.0230652 0.039206 -0.117817
-0.136908 -0.0506183 -0.429043
0.0665155 -0.0507904 0.0335056
-0.116767 -0.098384 -0.411298
-0.00250485 -0.00867542 0.111134
0.0871057 -0.0499067 0.00144652
0.0692466 0.0958397 -0.305368
-0.109221 -0.098384 -0.232087
0.0449348 0.0200234 0.3037
0.0486314 0.0675044 -0.232218
0.0798703 0.0937953 0.36245
-0.0268062 -0.048119 0.00144652
0.0330219 -0.00116304 0.145124
-0.135076 -0.0253436 0.151116
0.0473038 0.0406638 -0.267295
0.0848179 -0.0481716 0.301015
-0.0891664 -0.0432553 0.452038
0.0685587 0.0863056 -0.0317005
0.105528 0.0755621 -0.458845
-0.137018 -0.0948424 -0.167342
-0.0847993 -0.098384 0.157139
0.0650341 0.0275377 0.359304
0.111721 -0.0678705 -0.25179
-0.0505409 -0.0499179 -0.277714
0.067011 0.0394242 -0.0746757
-0.137018 -0.0973636 0.356096
0.0455843 0.0436006 0.436914
0.0880818 -0.00628737 0.32319
-0.10601 -0.00867542 -0.438646
0.0936863 0.0282333 -0.387437
0.104258 0.0898767 -0.166494
0.104547 0.0704819 -0.123073
-0.108018 -0.106625 0.330807
-0.113683 -0.0507904 -0.0930909
0.0943231 0.0313809 -0.0825478
-0.135076 -0.0206071 0.212487
0.0784992 0.0576271 -0.00976029
-0.0132859 -0.098384 -0.285013
0.115254 -0.0395994 -0.00634083
0.0403705 0.0221448 0.0217219
0.0611204 -0.0507904 -0.256598
-0.00726677 -0.00867542 -0.130898
0.0796359 0.0240648 -0.232122
-0.104248 -0.00867542 -0.181169
0.0863226 0.0366824 -0.249076
-0.116678 -0.00949394 0.233276
0.0188802 -0.0499179 0.0145886
0.0255371 -0.00867542 -0.391136
0.00820486 -0.0499179 -0.163318
0.0231721 -0.098384 -0.0474274
0.0654408 0.0122971 0.408562
-0.043663 -0.0152368 -0.416159
-0.0808866 -0.0499179 -0.193077
-0.119338 -0.0499179 -0.135724
0.138729 0.103006 0.304752
0.0585032 0.0210877 0.376304
0.0566147 -0.0989525 -0.446043
0.0836773 0.02185 0.042903
-0.137018 -0.0555607 -0.0276597
-0.087325 -0.0499179 0.274975
0.0947821 0.033647 0.236862
-0.0557589 -0.00867542 0.069511
-0.137354 -0.0936068 -0.322469
0.118059 -0.0189902 0.324359
-0.00365812 -0.0507904 0.327116
-0.0100294 -0.0383402 -0.230383
-0.13609 -0.0497615 -0.0342241
-0.0590686 -0.00867542 -0.0311928
0.0204953 -0.00867542 -0.350053
0.0544933 -0.00478635 -0.0592177
0.115852 -0.0350723 0.0828338
-0.0145476 -0.0499179 0.0354068
0.0550684 -0.00867542 -0.369227
0.0813663 0.0103922 -0.275804
0.0763423 -0.0130095 0.230751
0.0588041 0.00132502 -0.0289613
0.00842411 -0.0507904 0.421704
-0.13745 -0.0542032 -0.432677
0.0234806 0.0416632 0.45208
0.0913567 -0.0463768 -0.442924
-0.0040966 -0.098384 0.332777
0.114679 -0.0439573 -0.0233363
-0.0798994 -0.0289525 0.464549
0.0869064 -0.105629 -0.324167
0.0710324 -0.0351603 -0.230383
0.0799064 -0.00867542 -0.0149323
0.113755 -0.0512187 0.110333
0.0452131 -0.0146742 -0.0960098
0.122859 0.013344 -0.388712
0.108699 -0.0947833 0.307756
0.0353987 0.0610495 -0.146912
0.00603205 -0.00867542 0.200447
0.00335896 -0.098384 0.0814408
-0.12378 -0.0507904 0.0808592
-0.099524 -0.0499179 -0.105198
0.0237972 -0.098384 0.0817502
-0.118774 -0.106625 0.0181915
0.00313385 -0.0807402 -0.46455
-0.131489 -0.0499179 0.00343697
0.111487 -0.0698793 -0.167289
-0.115165 -0.00867542 -0.373619
0.0185027 -0.098384 -0.365928
0.0562006 0.0110505 -0.250288
0.104348 0.0904671 0.0119791
0.00228563 -0.00867542 -0.370851
-0.132072 -0.098384 -0.101733
0.0829282 -0.0499179 -0.213036
-0.0690803 -0.0405077 -0.230383
0.0415185 -0.0136167 -0.270665
-0.0864254 0.0365618 0.459822
-0.0168462 -0.00867542 -0.132655
0.0971897 0.0598445 -0.438082
0.0913567 -0.0388738 -0.383842
0.0998805 0.0505131 -0.0939708
0.102221 -0.098384 0.0209969
0.00307484 0.00335198 0.416159
0.119309 -0.0101933 -0.362078
0.135403 0.0858764 -0.273873
-0.12753 -0.0507904 -0.258341
-0.137418 -0.0539812 0.315374
0.10141 0.0606596 0.354659
-0.137596 -0.0552048 0.144538
-0.109432 -0.098384 -0.311607
0.000365692 -0.0507904 -0.101087
-0.0702861 -0.098384 0.135444
-0.0864254 -0.104232 -0.0804155
0.0715041 -0.0507904 -0.108873
0.0295875 -0.0881529 0.464549
-0.00409637 -0.0176446 -0.00107874
0.0806136 0.0633089 -0.391982
0.110338 -0.0797811 0.26441
0.0903433 0.0096374 -0.192227
-0.125305 -0.100504 0.0324329
-0.0120546 -0.0290603 0.464549
-0.135888 -0.049961 0.00954286
0.0920827 0.0198513 0.195454
0.0671424 0.0959806 -0.407394
0.120124 0.0663503 -0.46455
0.0203902 -0.0507904 -0.249567
0.11208 0.102433 0.339056
-0.0189907 -0.00867542 -0.112891
0.0661767 0.0372814 -0.371106
0.0709707 -0.106625 0.000611014
0.0667901 0.0550872 0.325824
0.0524052 0.0540052 -0.380031
0.12915 0.0515156 -0.410277
0.0982345 0.0308227 0.0997
-0.0205963 0.00473568 -0.416159
0.085231 -0.0454855 -8.08313e-09
-0.100712 -0.098384 0.0321363
0.104871 0.0705525 0.0713114
0.0301256 -0.0499179 0.202516
-0.117666 -0.0507904 -0.0826498
-0.137045 -0.0281067 0.372264
0.0824988 0.059087 -0.0202604
0.125667 0.0308813 -0.145098
0.0641827 -0.00867542 0.0941083
0.139298 0.105909 0.281377
-0.135076 -0.0486889 -0.154173
0.0903471 -0.00910817 0.182393
-0.137018 -0.0516805 0.380751
0.0523559 -0.0135941 0.259088
0.0072248 -0.00867542 -0.0395218
-0.0560887 -0.098384 0.0843091
0.0967714 0.0424979 0.370025
0.0906066 -0.098384 -0.19799
-0.0426577 -0.0386304 0.00144652
-0.0779546 -0.098384 0.0417703
0.0977307 0.0278062 0.0687732
-0.0662331 -0.0504396 -0.00363239
0.0999195 -0.098384 -0.0588327
0.0963324 0.0405578 -0.157815
-0.0290003 -0.00867542 0.279348
0.0909992 -0.00972832 -0.370738
-0.0926372 -0.0652407 0.464549
-0.0830643 -0.0499179 -0.174904
-0.0296288 -0.0290494 0.416159
0.0856586 0.0856917 -0.285989
0.0952979 0.0580977 0.304956
-0.135076 -0.0368722 -0.28251
0.0943758 0.0316413 -0.0734098
0.0832955 -0.0459235 0.228168
-0.137045 -0.0225859 0.358942
0.138973 0.104252 -0.33582
0.0953779 0.0363364 0.346747
-0.137018 -0.0977809 0.212787
-0.133048 -0.00867542 0.401001
0.0382097 0.0498647 0.244056
0.0913567 -0.0186189 0.158033
-0.13776 -0.0919474 0.192259
0.0934992 0.0273077 0.25391
0.0329145 0.0108282 0.0425954
0.13876 0.103164 0.345505
-0.0919772 -0.0507904 -0.228081
0.0896489 0.0757734 0.348437
0.127613 0.0425712 0.381887
0.0782514 -0.0507904 -0.363622
0.101271 0.0601545 0.332545
0.0585567 -0.00531293 0.0959188
0.0926375 0.0229546 0.287571
-0.130892 -0.0499179 0.412425
0.0653841 -0.00867542 -0.138028
0.0921773 0.0203805 -0.362852
0.091238 -0.098384 0.230109
-0.0779828 -0.098384 0.132806
0.101578 0.0612719 0.1392
0.10562 0.0750344 -0.322034
0.0388576 -0.0507904 0.142832
0.0709112 0.0151547 -0.126243
-0.131257 -0.0499179 -0.268236
0.0623343 -0.0507904 -0.146698
-0.0214452 -0.0404698 -0.232263
0.0857222 -0.106625 -0.257254
0.053659 0.0174205 -0.201275
-0.0862391 -0.025113 0.462642
-0.0309771 -0.098384 0.0401125
-0.0219678 -0.0737783 0.464549
0.0858392 0.00261871 0.416159
-0.0920707 -0.0507904 -0.174325
-0.0693019 -0.0499179 -0.364683
-0.0881287 -0.106625 0.354857
-0.0965022 -0.0507904 -0.371386
0.0457163 0.0389364 -0.457346
0.042576 0.070675 -0.132227
-0.116391 -0.00867542 -0.402421
0.0857973 0.0756332 0.379698
0.0791991 -0.0499179 -0.395499
-0.0499292 -0.0359093 0.464549
0.0675009 0.00521814 0.0817211
0.108831 -0.0935566 0.363346
0.104394 0.0698271 -0.247412
0.0497586 0.0735987 -0.0927611
0.119533 -0.00867677 0.362183
-0.139348 -0.0782397 -0.448176
0.0902422 0.0463444 -0.0520039
0.0866176 -0.0197573 -0.0698893
-0.0469116 -0.0507904 -0.150101
0.0278481 -0.00867542 0.17477
0.0439235 0.03801 -0.107664
-0.056638 -0.0507904 -0.286794
0.0625503 -0.0917509 -8.08313e-09
0.0913567 -0.0369451 0.0843871
0.0615813 -0.0507904 0.276122
0.0340427 0.058741 -0.353424
0.0379572 0.0650488 0.287434
0.026899 -0.098384 -0.31685
0.10135 0.0568001 -0.0344721
0.0477725 0.0735676 -0.316304
0.0775879 0.02789 -0.189779
-0.025127 -0.00880158 -0.46455
0.0089123 -0.00867542 0.353613
0.0920037 -0.106625 0.416243
0.0400048 -0.00867542 -0.125498
-0.139388 -0.0763992 0.160258
0.108845 -0.0934607 0.132705
0.0122896 -0.0499179 -0.0336977
-0.137045 -0.0218595 -0.15513
-0.137045 -0.0351903 0.302511
0.0592121 -0.0499179 -0.363203
0.112642 -0.0601978 0.125403
-0.133731 -0.098384 0.172827
0.0803641 0.0837566 0.225447
0.030225 -0.0507904 0.316534
0.0294731 -0.0499179 -0.30708
0.0913567 -0.0220332 0.396703
-0.122835 -0.098384 0.272549
0.0965304 0.0414324 0.317295
0.0318713 -0.0499179 -0.156021
-0.0805507 -0.00867542 -0.129645
0.0277466 -0.0429071 0.230751
0.0609841 -0.0335008 0.228168
-0.134468 -0.098384 0.0125951
0.097175 0.0357029 0.2646
0.0464839 0.0163315 -0.316467
-0.137016 -0.0616827 -0.245404
0.0190523 -0.098384 -0.398325
0.0584069 0.0408836 0.0222616
0.0481114 0.0160031 -0.281282
-0.0908015 -0.106625 0.31413
0.11484 -0.0427376 -0.329431
0.0373329 -0.0415045 -0.461405
0.0501194 0.0187235 -0.234787
0.0549411 -0.00169121 -0.194361
-0.0250096 -0.0507904 0.180709
0.00840472 -0.0436673 -0.416159
-0.102837 -0.106625 -0.196419
-0.131604 -0.0145056 -0.00124075
0.0600037 -0.0463831 -0.416159
0.045407 -0.0507904 -0.314049
-0.0221207 -0.0499179 -0.213247
0.01748 0.0425444 0.431244
-0.124244 -0.00867542 0.326266
0.0424609 0.00501765 0.464549
0.00725425 -0.0499179 0.156985
0.0879644 0.0360045 -0.256386
0.0856275 -0.0305851 -0.461405
0.111417 -0.0704831 0.25936
0.0931688 0.0256752 0.132352
0.0374936 0.015455 -0.0358018
0.119108 -0.0115567 0.270881
-0.0877081 -0.098384 -0.424104
0.0173988 -0.0507904 0.338433
-0.127401 -0.0507904 0.185965
0.0671115 -0.00854711 -0.0648833
-0.0474424 -0.0134344 0.416159
-0.137017 -0.055754 0.259019
-0.108367 -0.0507904 -0.301791
0.0957301 0.0378948 -0.0311139
-0.0470218 -0.0215281 0.462419
-0.137045 -0.0460496 -0.0772149
0.0768966 0.0656894 0.00444596
0.0881719 0.024551 -0.338799
-0.044773 -0.0499179 0.114313
0.0992065 0.0476293 0.0855285
0.0871942 -0.0141393 -0.311272
0.0266663 -0.0507904 0.212956
-0.0935358 -0.106625 -0.0352747
0.0730622 -0.0499179 0.372246
-0.0930339 -0.00867542 -0.194113
0.124842 0.0258501 -0.143713
-0.11771 -0.00867542 -0.408886
-0.0960879 -0.0565423 -8.08313e-09
0.134278 0.0798899 0.12621
-0.116019 -0.00867542 0.195986
0.0018881 -0.096617 -8.08313e-09
-0.1321 -0.00867542 -0.0722118
-0.135076 -0.0257258 0.157442
0.0592236 -0.00867542 -0.044334
0.0913567 -0.0433943 0.0871309
0.0665245 0.0454717 -0.00577184
0.108354 -0.0979935 -0.0587812
0.0403317 -0.0816036 4.95062e-07
0.061153 -0.00923942 -0.000910477
0.0566063 0.00388136 -0.0547933
0.095909 0.0386857 -0.208492
0.0525853 0.060047 -0.403808
0.106065 -0.098384 -0.462957
0.039218 -0.00901345 -0.169893
-0.0907617 -0.106625 0.354381
0.0691073 0.0478233 0.0648841
-0.136992 -0.0486099 0.280362
-0.0942804 -0.00867542 0.419994
0.0549544 0.0568591 -0.0432908
0.10444 0.0679696 -0.272946
0.0900252 -0.0501602 -0.038441
0.0289595 -0.0243564 0.462419
0.0321549 -0.00905605 0.416159
-0.0907371 0.0293347 0.446369
0.131494 0.0647357 -0.107878
-0.0321275 -0.098384 0.365396
0.105799 0.0952777 0.15693
-0.0260999 -0.098384 0.260877
0.0869064 -0.10636 0.130075
-0.136767 -0.00983796 0.352906
-0.0830139 -0.0499179 0.14716
0.0778202 -0.106625 0.161241
0.0739719 -0.00867542 0.298431
0.0504393 -0.0507904 -0.133489
-0.0935389 -0.0190286 0.462419
0.097175 0.0346218 -0.252267
0.0284687 -0.0464669 0.416159
0.0637786 -0.0284514 0.416159
0.113299 -0.0549 0.0945516
0.0997446 0.0499318 0.347844
0.103819 -0.098384 -0.36697
0.0415528 0.0480984 0.396382
-0.135076 -0.0493186 0.173743
-0.0974034 -0.106625 0.0500355
0.0888655 0.0169209 0.122158
-0.105249 -0.01254 0.00144652
0.0426216 -0.0239418 -0.416159
0.133652 0.0882287 -0.46455
0.0784093 -0.0499179 -0.0693782
0.0913567 -0.0274005 0.219935
0.128338 0.046791 -0.370331
0.101863 -0.098384 0.362029
-0.0767882 -0.098384 -0.0947988
-0.0627412 -0.0503669 -0.230797
-0.108746 -0.102344 -0.149413
-0.127203 -0.0424776 0.462419
0.101452 0.0608124 0.360334
0.0886639 -0.00188234 0.0432741
0.103878 0.0692681 -0.15176
0.118156 -0.018301 -0.0376026
0.0875626 -0.0107606 -0.181994
0.0531706 0.00871359 -0.0589446
-0.0442577 -0.0149803 -0.232263
-0.0180474 -0.00867542 -0.120328
0.123683 0.0186334 0.286973
-0.107965 -0.0309863 -0.232263
0.0831305 -0.106625 -0.0673698
0.111689 0.102315 0.0748028
0.090288 -0.0127426 0.227609
0.0309082 0.0444464 0.368084
-0.0864254 0.00453552 -0.418848
-0.015207 0.0339097 0.416159
0.0233095 -0.0277545 0.230751
-0.0467661 -0.0254705 0.416159
-0.0823431 -0.0499179 0.260763
-0.136937 -0.0487526 0.3529
0.0802216 0.0116594 0.167646
0.0729038 0.000822306 0.416159
0.103172 0.0603788 0.227138
0.0336556 -0.098384 -0.156371
-0.102438 -0.0499179 -0.211631
-0.0510269 0.0382719 0.421741
0.112415 0.103272 0.450651
0.0901165 0.00817727 -0.239467
0.0913567 -0.015509 -0.378683
0.0166291 -0.0163462 -0.416159
-0.0874677 -0.0507904 -0.0552346
0.0547745 -0.0499179 0.396103
-0.01216 -0.00867542 -0.325889
0.0445347 -0.0590969 0.464549
0.0368431 -0.037361 -0.416159
-0.0697639 -0.0507904 0.330354
-0.0168905 -0.0507904 -0.310089
0.0222486 -0.0436324 -0.230383
0.0349169 0.0630234 -0.107107
-0.0339649 -0.0499179 -0.19027
0.0977895 -0.104012 -0.455476
0.0906609 0.0116822 0.412181
0.127459 0.0416713 0.215182
-0.071358 -0.00867542 -0.0771573
0.00757539 -0.0507904 0.0513418
0.118364 -0.0168119 0.393085
-0.134902 -0.00867542 -0.435863
-0.0521937 0.012671 0.416159
0.0804737 0.0901459 0.241191
-0.0493487 -0.0507904 -0.0707225
-0.00283692 -0.00867542 -0.188616
0.0557139 0.0562519 -0.244381
0.0542599 0.0604442 -0.251314
0.0394094 0.0027228 -0.237134
0.128568 0.0481277 -0.168341
-0.020321 -0.0507904 -0.415746
0.128507 0.0477748 -0.380284
0.0693693 0.0388978 -0.08534
0.108278 0.0989421 0.301003
-0.135076 -0.0420379 -0.150274
0.0954094 -0.0504031 0.464549
0.00099667 -0.098384 -0.0801978
0.0371692 -0.0210294 0.416159
0.0657324 -0.106625 0.12383
-0.0707075 -0.0415825 -0.00124075
0.139174 0.106625 0.259806
0.0738167 -0.00168678 -0.0280244
-0.139353 -0.0779922 0.000844283
-0.00187201 -0.0586708 4.95062e-07
0.0205121 -0.00867542 -0.0715965
0.0951377 0.029248 -0.46455
0.0641552 -0.00867542 -0.399165
-0.045076 -0.0499179 -0.0949128
0.0623845 0.00370468 -0.0780178
-0.104612 -0.098384 0.447726
-0.0854489 -0.0499179 -0.0626361
-0.0477629 -0.098384 -0.280845
-0.0936141 -0.106625 -0.217612
0.0106339 0.0412965 -0.42776
0.0503407 -0.0392601 -0.46455
0.0239507 -0.098384 0.207406
0.0481287 -0.0499179 0.244549
0.080806 0.0186809 -0.243024
0.0639889 0.0280752 0.25092
-0.0763067 -0.00867542 0.413571
0.029932 -0.098384 0.412039
0.131163 0.0628922 0.193103
0.097371 0.0397753 -0.231525
0.0715698 -0.00432474 0.402734
0.0477595 0.0414045 -0.427992
-0.114991 -0.0499179 -0.271687
-0.0469115 -0.00867542 0.165976
-0.0684804 -0.057544 0.464549
0.0888884 0.0275436 0.148977
0.0870771 -0.0507904 -0.20039
0.0253366 -0.0507904 -0.41022
0.0340091 -0.0507904 0.261424
-0.138625 -0.0619126 -0.313925
0.100672 0.0579722 -0.0960336
-0.117752 -0.00871092 -0.234636
-0.137015 -0.0763547 -0.310378
-0.135076 -0.0432942 -0.105149
0.00131994 -0.0499179 -0.17819
-0.00095175 0.0123342 -0.416159
0.0383385 -0.0499179 0.107099
0.0679193 -0.106625 -0.133198
0.0744973 4.71662e-06 0.0705332
0.0326676 -0.0507904 0.26399
0.069442 -0.0507904 0.371145
0.0378558 0.0654625 0.0831868
-0.135076 -0.0403715 0.199727
0.0195887 -0.0499179 0.132697
0.0913567 -0.0451529 -0.280031
-0.138965 -0.0833301 -0.140926
0.00489381 -0.0220532 -0.230383
-0.00687013 0.0167452 0.464549
-0.0182604 -0.0499179 0.0463052
0.0646725 -0.106625 0.301899
0.0908361 0.0128098 -0.243519
-0.137039 -0.0512958 0.311659
0.0615529 0.00437416 -0.0723577
0.102684 0.0574607 -0.168008
-0.0772414 -0.00867542 0.0167973
-0.038985 -0.0507904 0.313654
0.0638463 -0.00867542 -0.268278
-0.12312 -0.0499179 0.355301
0.0859165 0.0140524 -0.137268
-0.0734062 -0.0499179 0.277987
0.0510821 -0.098384 -0.0970907
0.135226 0.0849366 -0.19631
-0.126357 -0.0507904 -0.0449172
0.058626 -0.00517088 0.333003
0.100869 0.054745 0.241362
-0.094179 -0.0507904 -0.279581
0.0916082 -0.0525148 -0.46455
0.097175 0.0376099 0.338244
0.0913567 -0.0386756 -0.376647
0.0812381 0.0897048 -0.371006
0.0975878 0.0459537 0.0310422
0.0520842 -0.0499179 0.0896881
-0.024293 -0.0301604 -0.232909
0.0165403 -0.0507904 0.387026
0.0493408 -0.000900892 -0.404511
-0.0469985 -0.0940084 0.464547
-0.137045 -0.0396546 0.243772
0.101931 0.0529493 0.00518208
-0.114311 -0.050318 -0.230922
0.10489 0.0706647 -0.19635
0.110517 -0.0782335 -0.43219
0.0861807 -0.0248327 -0.367947
-0.0373896 -0.0507904 -0.43404
-0.110659 -0.0499179 0.286889
-0.129583 -0.0675897 -0.464548
-0.12916 -0.0390904 0.230751
0.0523845 0.0573464 -0.255826
0.0490997 0.0389629 0.0419137
0.0492076 0.06656 -0.102896
-0.051745 -0.0499179 -0.379853
0.0442849 0.0385731 -0.347613
-0.0980694 -0.0507904 0.101354
0.0634367 0.0436703 0.437862
0.108316 -0.0983027 0.339984
0.133765 0.0771588 -0.381118
-0.0857381 -0.00867542 0.414101
-0.0875417 -0.0507904 0.0225119
-0.137015 -0.0650387 0.405399
0.0375555 -0.0499179 0.274947
-0.0673952 -0.00876643 0.00107716
-0.00232927 -0.0499179 0.369543
-0.139192 -0.0805868 -0.372376
-0.127141 -0.0751035 0.468144
0.114932 0.104296 0.233488
-0.0235361 -0.0422187 0.464549
0.050375 0.0192761 0.151039
-0.0677941 -0.0390335 -0.416159
-0.0545368 -0.00867542 0.063845
0.104212 0.0690474 -0.027377
