ply
format ascii 1.0
comment Created by Open3D
element vertex 762
property double x
property double y
property double z
end_header
-0.23408 -0.230511 -0.376075
-0.222922 -0.231534 -0.360154
-0.200187 -0.232152 -0.360163
-0.176146 -0.232806 -0.360173
-0.163601 -0.233147 -0.360179
-0.23408 -0.210952 -0.376075
-0.222921 -0.211648 -0.360154
-0.137381 -0.230722 -0.36019
-0.234337 -0.232298 0.360354
-0.200179 -0.211713 -0.360165
-0.123673 -0.231047 -0.360196
-0.176131 -0.214786 -0.360177
-0.205879 -0.233069 0.360342
-0.21413 -0.201888 -0.375974
-0.163584 -0.214865 -0.360183
-0.0949647 -0.231728 -0.360208
-0.19399 -0.232731 0.360336
-0.190051 -0.201887 -0.376661
-0.0643951 -0.232453 -0.360222
-0.169279 -0.232029 0.360325
-0.137359 -0.211892 -0.360195
-0.149884 -0.233205 0.360316
-0.123649 -0.211931 -0.360201
-0.031777 -0.233227 -0.360236
-0.228785 -0.211461 0.360352
-0.122785 -0.232482 0.360304
-0.137857 -0.201884 -0.375066
-0.0949368 -0.212012 -0.360214
-0.0146346 -0.230066 -0.360243
-0.0941637 -0.231718 0.360291
-0.181794 -0.212322 0.360331
-0.205879 -0.206991 0.360342
-0.0643725 -0.212097 -0.360226
0.0214647 -0.230797 -0.360259
-0.0716189 -0.23298 0.360281
-0.156434 -0.214503 0.360319
0.0404867 -0.231182 -0.360267
0.0602043 -0.23158 -0.360275
-0.040004 -0.232192 0.360267
-0.123643 -0.189624 -0.360203
-0.0146215 -0.212234 -0.360246
0.0806558 -0.231994 -0.360284
-0.0234851 -0.23178 0.36026
-0.122785 -0.211186 0.360304
-0.143243 -0.206943 0.360315
-0.0949304 -0.192291 -0.360216
-0.0317419 -0.205176 -0.360243
0.101884 -0.232424 -0.360294
0.00224388 -0.233131 0.360248
-0.101469 -0.211983 0.360295
-0.132574 -0.180997 -0.376329
0.0214703 -0.212334 -0.36026
0.123934 -0.23287 -0.360303
0.0200648 -0.232717 0.36024
-0.0643562 -0.191739 -0.36023
0.040488 -0.212387 -0.360267
0.0384506 -0.232291 0.360232
-0.0317329 -0.194656 -0.360245
0.0602043 -0.212442 -0.360275
0.146853 -0.229204 -0.360313
0.0574275 -0.231851 0.360223
-0.0716116 -0.206888 0.360285
0.0806558 -0.212499 -0.360284
0.170694 -0.229603 -0.360323
0.0770252 -0.231396 0.360214
-0.0234784 -0.212304 0.360263
-0.0399983 -0.209166 0.36027
-0.1329 -0.191776 0.369812
-0.123643 -0.170502 -0.360203
0.107654 -0.232862 0.360201
0.0676136 -0.201891 -0.376449
0.101884 -0.208585 -0.360294
0.128943 -0.232405 0.360191
0.0110863 -0.210838 0.360244
-0.0941585 -0.191579 0.360294
-0.132574 -0.16211 -0.376329
-0.0949304 -0.169282 -0.360216
0.0891061 -0.201891 -0.376917
0.150971 -0.231933 0.360181
0.0384486 -0.211734 0.360231
-0.0643562 -0.171377 -0.36023
0.12394 -0.204522 -0.360304
0.146853 -0.208555 -0.360313
0.173776 -0.231443 0.360171
0.057426 -0.210963 0.360222
-0.108666 -0.181727 0.360302
0.170694 -0.208539 -0.360323
0.185484 -0.22888 0.360166
0.087065 -0.211899 0.360209
-0.0318086 -0.191389 0.360262
-0.0560411 -0.187208 0.360275
-0.132897 -0.173997 0.362305
-0.123643 -0.15138 -0.360203
-0.0317329 -0.166597 -0.360245
0.139862 -0.212079 0.360186
0.118208 -0.208494 0.360196
0.162274 -0.211247 0.360176
-0.0792375 -0.172103 0.360286
-0.0949304 -0.14956 -0.360216
0.185484 -0.210385 0.360166
-0.132574 -0.140076 -0.376329
-0.0643562 -0.151015 -0.36023
-0.0318086 -0.172057 0.360262
-0.0638851 -0.167082 0.360279
-0.108666 -0.160136 0.360302
-0.1329 -0.14955 0.369812
-0.123643 -0.132259 -0.360203
-0.0317329 -0.145554 -0.360245
-0.0941585 -0.151439 0.360294
-0.0949304 -0.129838 -0.360216
-0.0400057 -0.151596 0.360266
-0.0716164 -0.147244 0.360283
-0.108666 -0.142143 0.360302
-0.132574 -0.121189 -0.376329
-0.0643562 -0.130654 -0.36023
-0.1329 -0.131956 0.369812
-0.0317329 -0.12451 -0.360245
-0.0792375 -0.13139 0.360286
-0.123643 -0.10995 -0.360203
-0.0400057 -0.132407 0.360266
-0.0949304 -0.110116 -0.360216
-0.0560411 -0.126696 0.360275
-0.108666 -0.120552 0.360302
-0.132574 -0.102303 -0.376329
-0.0643562 -0.110292 -0.36023
-0.132897 -0.11424 0.362305
-0.0867508 -0.112086 0.36029
-0.123643 -0.0908282 -0.360203
-0.0318086 -0.110194 0.360262
-0.0638851 -0.107007 0.360279
-0.0949304 -0.0903934 -0.360216
-0.0483134 -0.0948619 -0.360237
-0.0317329 -0.0964512 -0.360245
-0.132574 -0.0802683 -0.376329
-0.101463 -0.0924034 0.360298
-0.122777 -0.090509 0.360309
-0.0792376 -0.0906777 0.360286
-0.0318086 -0.0908615 0.360262
-0.123643 -0.0717064 -0.360203
-0.0480822 -0.0857188 0.36027
-0.0949304 -0.0706712 -0.360216
-0.0483134 -0.0741647 -0.360237
-0.0317329 -0.0754073 -0.360245
-0.1329 -0.0721359 0.369812
-0.132574 -0.0613816 -0.376329
-0.0480822 -0.0742897 0.36027
-0.0792376 -0.0721721 0.360286
-0.108666 -0.0701718 0.360302
-0.0317329 -0.0648853 -0.360245
-0.0318086 -0.0715293 0.360262
-0.123643 -0.0493978 -0.360203
-0.0949304 -0.050949 -0.360216
-0.132897 -0.0544839 0.362305
-0.0643562 -0.0492072 -0.36023
-0.0638851 -0.0544423 0.360279
-0.108666 -0.0521791 0.360302
-0.132574 -0.042495 -0.376329
-0.0318086 -0.052197 0.360262
-0.0792376 -0.0499653 0.360286
-0.0317329 -0.0368268 -0.360245
-0.123643 -0.0302761 -0.360203
-0.0949304 -0.0312268 -0.360216
-0.0643562 -0.0322392 -0.36023
-0.0792376 -0.0314596 0.360286
-0.108666 -0.0305877 0.360302
-0.1329 -0.02991 0.369812
-0.0318086 -0.0289983 0.360262
-0.132574 -0.0204605 -0.376329
-0.0480822 -0.0247632 0.36027
-0.0317329 -0.0157829 -0.360245
-0.132582 -0.011054 -0.355213
-0.13259 -0.0110857 -0.337001
-0.132596 -0.0111069 -0.324801
-0.132608 -0.011155 -0.297181
-0.132613 -0.0111765 -0.284828
-0.132626 -0.0112252 -0.256859
-0.132635 -0.0112633 -0.234937
-0.132648 -0.0113128 -0.206531
-0.132656 -0.011346 -0.187455
-0.132662 -0.0113682 -0.174675
-0.132674 -0.0114186 -0.145736
-0.132683 -0.0114524 -0.126301
-0.132691 -0.0114864 -0.106751
-0.1327 -0.0115207 -0.0870832
-0.132709 -0.0115551 -0.0672984
-0.132717 -0.0115897 -0.047395
-0.132726 -0.0116246 -0.0273718
-0.132735 -0.0116596 -0.00722788
-0.132744 -0.0116949 0.0130379
-0.132753 -0.0117304 0.0334267
-0.132762 -0.0117661 0.0539396
-0.132771 -0.011802 0.0745778
-0.13278 -0.0118382 0.0953424
-0.132792 -0.0118867 0.123227
-0.132802 -0.0119234 0.144291
-0.132811 -0.0119603 0.165485
-0.132823 -0.0120098 0.193949
-0.132833 -0.0120472 0.215453
-0.132846 -0.0120975 0.244333
-0.13285 -0.0121164 0.255225
-0.132863 -0.0121673 0.284439
-0.132868 -0.0121865 0.295458
-0.132881 -0.0122379 0.325011
-0.1329 -0.0123159 0.369812
-0.132894 -0.00526706 0.354815
-0.132574 -0.0015739 -0.376329
-0.132894 0.00526703 0.354815
-0.132582 0.00789571 -0.355213
-0.13259 0.00791835 -0.337001
-0.132596 0.00793351 -0.324801
-0.132608 0.00796785 -0.297181
-0.132613 0.00798321 -0.284828
-0.132626 0.00801798 -0.256859
-0.132635 0.00804523 -0.234937
-0.132648 0.00808055 -0.206531
-0.132656 0.00810426 -0.187455
-0.132662 0.00812015 -0.174675
-0.132674 0.00815613 -0.145736
-0.132683 0.00818029 -0.126301
-0.132691 0.0082046 -0.106751
-0.1327 0.00822905 -0.0870832
-0.132709 0.00825364 -0.0672984
-0.132717 0.00827839 -0.047395
-0.132726 0.00830328 -0.0273718
-0.132735 0.00832832 -0.00722788
-0.132744 0.00835352 0.0130379
-0.132753 0.00837886 0.0334267
-0.132762 0.00840437 0.0539396
-0.132771 0.00843002 0.0745778
-0.13278 0.00845584 0.0953424
-0.132792 0.00849051 0.123227
-0.132802 0.00851669 0.144291
-0.132811 0.00854304 0.165485
-0.132823 0.00857843 0.193949
-0.132833 0.00860516 0.215453
-0.132846 0.00864106 0.244333
-0.13285 0.00865461 0.255225
-0.132863 0.00869093 0.284439
-0.132868 0.00870462 0.295458
-0.132881 0.00874136 0.325011
-0.132899 0.00879239 0.366057
-0.132574 0.0204605 -0.376329
-0.13265 0.0275007 -0.200185
-0.132659 0.0275815 -0.181071
-0.132667 0.0276627 -0.161845
-0.132677 0.0277581 -0.139271
-0.132686 0.0278405 -0.119797
-0.132694 0.0279233 -0.100208
-0.132703 0.0280065 -0.0805014
-0.132712 0.0280903 -0.0606772
-0.13272 0.0281746 -0.0407339
-0.132729 0.0282595 -0.0206706
-0.132738 0.0283448 -0.00048624
-0.132747 0.0284306 0.0198205
-0.132756 0.028517 0.0402505
-0.132765 0.0286038 0.060805
-0.132773 0.0286766 0.0780298
-0.132782 0.0287645 0.0988155
-0.132791 0.0288529 0.119729
-0.1328 0.0289418 0.140771
-0.132808 0.0290164 0.158406
-0.132817 0.0291063 0.179688
-0.132825 0.0291817 0.197524
-0.132834 0.0292727 0.21905
-0.132844 0.0293643 0.24071
-0.132852 0.029441 0.258864
-0.132862 0.0295336 0.280774
-0.132869 0.0296112 0.299138
-0.132878 0.0296893 0.317599
-0.132887 0.0297835 0.339881
-0.132899 0.0298941 0.366057
-0.132582 0.0300037 -0.355213
-0.13259 0.0300897 -0.337001
-0.132596 0.0301473 -0.324801
-0.132608 0.0302778 -0.297181
-0.132613 0.0303362 -0.284828
-0.132626 0.0304683 -0.256859
-0.132635 0.0305719 -0.234937
-0.132574 0.0393472 -0.376329
-0.1329 0.0475041 0.369812
-0.132687 0.0475161 -0.11654
-0.132696 0.0476574 -0.0969315
-0.132704 0.0477997 -0.0772056
-0.132713 0.0479428 -0.0573616
-0.132722 0.0480867 -0.0373984
-0.132731 0.0482315 -0.017315
-0.13274 0.0483772 0.00288969
-0.132749 0.0485238 0.0232169
-0.132757 0.0486712 0.0436676
-0.132767 0.0488196 0.064243
-0.132776 0.0489689 0.0849442
-0.13278 0.0490439 0.0953424
-0.132792 0.0492449 0.123227
-0.132802 0.0493968 0.144291
-0.132811 0.0495496 0.165485
-0.132823 0.0497549 0.193949
-0.132833 0.0499099 0.215453
-0.132846 0.0501182 0.244333
-0.13285 0.0501967 0.255225
-0.132863 0.0504074 0.284439
-0.132868 0.0504868 0.295458
-0.132881 0.0506999 0.325011
-0.132894 0.0509148 0.354815
-0.132582 0.0489533 -0.355213
-0.13259 0.0490937 -0.337001
-0.132596 0.0491877 -0.324801
-0.132608 0.0494006 -0.297181
-0.132613 0.0494959 -0.284828
-0.132626 0.0497114 -0.256859
-0.132635 0.0498804 -0.234937
-0.132648 0.0500994 -0.206531
-0.132656 0.0502464 -0.187455
-0.132662 0.0503449 -0.174675
-0.132674 0.050568 -0.145736
-0.132574 0.0582339 -0.376329
-0.13285 0.0675059 0.255225
-0.132863 0.0677892 0.284439
-0.132868 0.067896 0.295458
-0.132881 0.0681826 0.325011
-0.132894 0.0684716 0.354815
-0.132899 0.0685806 0.366057
-0.132702 0.0675117 -0.083794
-0.132713 0.0677811 -0.0573616
-0.132722 0.0679846 -0.0373984
-0.132731 0.0681894 -0.017315
-0.13274 0.0683954 0.00288969
-0.132749 0.0686026 0.0232169
-0.132757 0.0688111 0.0436676
-0.132767 0.0690208 0.064243
-0.132776 0.0692318 0.0849442
-0.13278 0.0693378 0.0953424
-0.132792 0.0696221 0.123227
-0.132802 0.0698368 0.144291
-0.132811 0.0700529 0.165485
-0.132823 0.0703431 0.193949
-0.132833 0.0705623 0.215453
-0.132846 0.0708567 0.244333
-0.132582 0.067903 -0.355213
-0.13259 0.0680977 -0.337001
-0.132596 0.0682281 -0.324801
-0.132608 0.0685235 -0.297181
-0.132613 0.0686555 -0.284828
-0.132626 0.0689546 -0.256859
-0.132635 0.0691889 -0.234937
-0.132648 0.0694926 -0.206531
-0.132656 0.0696966 -0.187455
-0.132662 0.0698332 -0.174675
-0.132674 0.0701426 -0.145736
-0.132683 0.0703504 -0.126301
-0.132691 0.0705594 -0.106751
-0.132889 0.0858919 0.343609
-0.132574 0.0802683 -0.376329
-0.132825 0.0875453 0.197524
-0.132834 0.0878182 0.21905
-0.132844 0.0880929 0.24071
-0.132852 0.0883231 0.258864
-0.132862 0.0886009 0.280774
-0.132869 0.0888338 0.299138
-0.132878 0.0890679 0.317599
-0.132899 0.0896824 0.366057
-0.13271 0.0875322 -0.0639894
-0.132722 0.0878826 -0.0373984
-0.132731 0.0881472 -0.017315
-0.13274 0.0884135 0.00288969
-0.132749 0.0886814 0.0232169
-0.132757 0.0889509 0.0436676
-0.132767 0.089222 0.064243
-0.132776 0.0894948 0.0849442
-0.13278 0.0896318 0.0953424
-0.132792 0.0899993 0.123227
-0.132802 0.0902769 0.144291
-0.132811 0.0905562 0.165485
-0.132604 0.0875201 -0.306414
-0.132613 0.0878152 -0.284828
-0.132626 0.0881977 -0.256859
-0.132635 0.0884975 -0.234937
-0.132648 0.088886 -0.206531
-0.132656 0.0891469 -0.187455
-0.132662 0.0893216 -0.174675
-0.132674 0.0897174 -0.145736
-0.132683 0.0899832 -0.126301
-0.132691 0.0902505 -0.106751
-0.1327 0.0905195 -0.0870832
-0.132582 0.090011 -0.355213
-0.13259 0.0902691 -0.337001
-0.132574 0.0991549 -0.376329
-0.132808 0.107531 0.158406
-0.132817 0.107865 0.179688
-0.132825 0.108144 0.197524
-0.132834 0.108481 0.21905
-0.132844 0.108821 0.24071
-0.132852 0.109105 0.258864
-0.132862 0.109448 0.280774
-0.132869 0.109736 0.299138
-0.132878 0.110025 0.317599
-0.132889 0.110432 0.343609
-0.132899 0.110784 0.366057
-0.132715 0.107512 -0.0540427
-0.132726 0.107943 -0.0273718
-0.132735 0.108268 -0.00722788
-0.132744 0.108596 0.0130379
-0.132753 0.108925 0.0334267
-0.132762 0.109257 0.0539396
-0.132771 0.10959 0.0745778
-0.13278 0.109926 0.0953424
-0.132792 0.110377 0.123227
-0.132802 0.110717 0.144291
-0.132628 0.107545 -0.250611
-0.132637 0.107858 -0.231793
-0.132646 0.108226 -0.2097
-0.132655 0.108544 -0.190642
-0.132663 0.108863 -0.171472
-0.132671 0.109185 -0.152189
-0.132681 0.109562 -0.129548
-0.13269 0.109887 -0.110017
-0.132699 0.110214 -0.0903693
-0.132707 0.110544 -0.0706041
-0.132582 0.108961 -0.355213
-0.13259 0.109273 -0.337001
-0.132596 0.109482 -0.324801
-0.132608 0.109956 -0.297181
-0.132613 0.110168 -0.284828
-0.132889 0.127961 0.343609
-0.132899 0.128369 0.366057
-0.132574 0.118042 -0.376329
-0.132797 0.127554 0.133743
-0.132806 0.127948 0.154872
-0.132811 0.128146 0.165485
-0.132823 0.128676 0.193949
-0.132833 0.129077 0.215453
-0.132846 0.129616 0.244333
-0.13285 0.129819 0.255225
-0.132863 0.130364 0.284439
-0.132868 0.130569 0.295458
-0.132719 0.127551 -0.0440661
-0.132731 0.128063 -0.017315
-0.13274 0.12845 0.00288969
-0.132749 0.128839 0.0232169
-0.132757 0.129231 0.0436676
-0.132767 0.129624 0.064243
-0.132776 0.130021 0.0849442
-0.13278 0.13022 0.0953424
-0.132645 0.127548 -0.212865
-0.132656 0.128047 -0.187455
-0.132662 0.128298 -0.174675
-0.132674 0.128867 -0.145736
-0.132683 0.129248 -0.126301
-0.132691 0.129632 -0.106751
-0.1327 0.130019 -0.0870832
-0.132709 0.130407 -0.0672984
-0.132582 0.12791 -0.355213
-0.13259 0.128277 -0.337001
-0.132596 0.128523 -0.324801
-0.132608 0.129079 -0.297181
-0.132613 0.129328 -0.284828
-0.132626 0.129891 -0.256859
-0.132635 0.130333 -0.234937
-0.132881 0.145107 0.325011
-0.132858 0.147513 0.273455
-0.132868 0.147979 0.295458
-0.132894 0.149233 0.354815
-0.132899 0.149471 0.366057
-0.132788 0.147508 0.112744
-0.132797 0.147962 0.133743
-0.132806 0.148419 0.154872
-0.132811 0.148649 0.165485
-0.132823 0.149265 0.193949
-0.132833 0.14973 0.215453
-0.132846 0.150354 0.244333
-0.132574 0.140076 -0.376329
-0.13272 0.147503 -0.0407339
-0.132729 0.147947 -0.0206706
-0.132738 0.148393 -0.00048624
-0.132747 0.148843 0.0198205
-0.132756 0.149295 0.0402505
-0.132765 0.14975 0.060805
-0.132773 0.150131 0.0780298
-0.132658 0.14757 -0.184265
-0.13267 0.148223 -0.155411
-0.132679 0.148661 -0.136033
-0.132687 0.149102 -0.11654
-0.132696 0.149546 -0.0969315
-0.132704 0.149992 -0.0772056
-0.132713 0.150441 -0.0573616
-0.132596 0.147563 -0.324801
-0.132608 0.148202 -0.297181
-0.132613 0.148488 -0.284828
-0.132626 0.149134 -0.256859
-0.132635 0.149641 -0.234937
-0.132648 0.150298 -0.206531
-0.132582 0.150018 -0.355213
-0.13259 0.150448 -0.337001
-0.132844 0.167549 0.24071
-0.132852 0.167987 0.258864
-0.132862 0.168515 0.280774
-0.132869 0.168958 0.299138
-0.132889 0.170031 0.343609
-0.132899 0.170572 0.366057
-0.132782 0.167511 0.0988155
-0.132791 0.168026 0.119729
-0.1328 0.168544 0.140771
-0.132808 0.168978 0.158406
-0.132817 0.169502 0.179688
-0.132825 0.169941 0.197524
-0.132834 0.170471 0.21905
-0.132878 0.172896 0.317599
-0.132574 0.158963 -0.376329
-0.132723 0.167558 -0.0340596
-0.132735 0.168232 -0.00722788
-0.132744 0.168741 0.0130379
-0.132753 0.169253 0.0334267
-0.132762 0.169768 0.0539396
-0.132771 0.170286 0.0745778
-0.132666 0.167521 -0.165057
-0.132674 0.168016 -0.145736
-0.132683 0.168514 -0.126301
-0.132691 0.169015 -0.106751
-0.1327 0.169518 -0.0870832
-0.132709 0.170025 -0.0672984
-0.132717 0.170535 -0.047395
-0.132612 0.167567 -0.28792
-0.132619 0.167971 -0.272427
-0.132628 0.168541 -0.250611
-0.132637 0.169032 -0.231793
-0.132646 0.169609 -0.2097
-0.132655 0.170106 -0.190642
-0.132582 0.168968 -0.355213
-0.13259 0.169453 -0.337001
-0.132596 0.169777 -0.324801
-0.132889 0.18756 0.343609
-0.132899 0.188157 0.366057
-0.132833 0.187592 0.215453
-0.132846 0.188375 0.244333
-0.13285 0.18867 0.255225
-0.132863 0.189462 0.284439
-0.132868 0.189761 0.295458
-0.132777 0.187528 0.0884067
-0.132786 0.188104 0.109256
-0.132795 0.188682 0.130234
-0.132803 0.189168 0.147814
-0.132812 0.189753 0.169031
-0.132822 0.190342 0.190379
-0.132574 0.177849 -0.376329
-0.132725 0.18756 -0.0307174
-0.132734 0.188125 -0.0105936
-0.132743 0.188694 0.00965179
-0.132751 0.189267 0.03002
-0.132761 0.189842 0.0505122
-0.132768 0.190325 0.0676844
-0.132674 0.187591 -0.145736
-0.132683 0.188147 -0.126301
-0.132691 0.188706 -0.106751
-0.1327 0.189268 -0.0870832
-0.132709 0.189834 -0.0672984
-0.132717 0.190403 -0.047395
-0.132624 0.18753 -0.259979
-0.132632 0.188076 -0.241216
-0.132641 0.188625 -0.222343
-0.13265 0.189269 -0.200185
-0.132659 0.189825 -0.181071
-0.132878 0.204332 0.317599
-0.132582 0.187918 -0.355213
-0.13259 0.188457 -0.337001
-0.132596 0.188818 -0.324801
-0.132608 0.189635 -0.297181
-0.132613 0.19 -0.284828
-0.132887 0.208484 0.339881
-0.132896 0.209037 0.358558
-0.132823 0.207598 0.193949
-0.132833 0.208245 0.215453
-0.132846 0.209114 0.244333
-0.13285 0.209441 0.255225
-0.132863 0.21032 0.284439
-0.132868 0.210652 0.295458
-0.132774 0.20759 0.0814852
-0.132782 0.20812 0.0988155
-0.132791 0.208759 0.119729
-0.1328 0.209403 0.140771
-0.132808 0.209942 0.158406
-0.132726 0.207582 -0.0273718
-0.132735 0.208208 -0.00722788
-0.132744 0.208838 0.0130379
-0.132753 0.209471 0.0334267
-0.132762 0.210109 0.0539396
-0.145141 0.216585 0.348164
-0.148083 0.216585 0.368725
-0.132574 0.199884 -0.376329
-0.13268 0.207574 -0.132792
-0.132691 0.208397 -0.106751
-0.1327 0.209018 -0.0870832
-0.132709 0.209642 -0.0672984
-0.132717 0.210271 -0.047395
-0.145183 0.216586 0.239092
-0.148079 0.216586 0.259329
-0.150975 0.216586 0.279566
-0.153871 0.216586 0.299803
-0.156767 0.216586 0.320041
-0.132635 0.207567 -0.234937
-0.132648 0.208478 -0.206531
-0.132656 0.20909 -0.187455
-0.132662 0.2095 -0.174675
-0.132674 0.210428 -0.145736
-0.145224 0.216587 0.1334
-0.148075 0.216587 0.153324
-0.150926 0.216587 0.173247
-0.153777 0.216587 0.193171
-0.156629 0.216587 0.213095
-0.165182 0.216587 0.272865
-0.168033 0.216587 0.292789
-0.17516 0.216587 0.342598
-0.178013 0.216587 0.362521
-0.179914 0.216586 0.375803
-0.132592 0.20756 -0.333955
-0.132604 0.208457 -0.306414
-0.132613 0.20916 -0.284828
-0.132626 0.210071 -0.256859
-0.145732 0.216588 0.0342048
-0.148539 0.216588 0.0538243
-0.151347 0.216588 0.0734439
-0.154154 0.216588 0.0930634
-0.156962 0.216588 0.112683
-0.165853 0.216588 0.174811
-0.16866 0.216588 0.194431
-0.174275 0.216588 0.23367
-0.177083 0.216588 0.253289
-0.18457 0.216588 0.305608
-0.132582 0.210026 -0.355213
-0.146224 0.216589 -0.0620083
-0.14945 0.216589 -0.0394629
-0.152216 0.216589 -0.0201382
-0.154981 0.216589 -0.000813693
-0.165121 0.216589 0.0700432
-0.167886 0.216589 0.0893678
-0.173417 0.216589 0.128017
-0.176643 0.216589 0.150562
-0.184939 0.216589 0.208536
-0.187705 0.216589 0.227861
-0.193696 0.216589 0.26973
-0.196462 0.216589 0.289055
-0.199227 0.216589 0.30838
-0.201992 0.216589 0.327704
-0.205219 0.216589 0.350249
-0.207988 0.216588 0.369571
-0.14534 0.21659 -0.164891
-0.149427 0.21659 -0.136333
-0.152151 0.21659 -0.117295
-0.153967 0.21659 -0.104602
-0.158054 0.21659 -0.0760447
-0.165319 0.21659 -0.0252756
-0.168043 0.21659 -0.00623727
-0.170768 0.21659 0.0128011
-0.172584 0.21659 0.0254934
-0.176671 0.21659 0.054051
-0.185298 0.21659 0.114339
-0.188022 0.21659 0.133378
-0.192563 0.21659 0.165108
-0.19665 0.21659 0.193666
-0.199374 0.21659 0.212704
-0.205277 0.21659 0.253954
-0.208001 0.21659 0.272992
-0.215266 0.21659 0.323761
-0.145824 0.216591 -0.25539
-0.148508 0.216591 -0.236629
-0.15164 0.216591 -0.214742
-0.155667 0.216591 -0.186601
-0.165958 0.216591 -0.114686
-0.173118 0.216591 -0.0646574
-0.185646 0.216591 0.0228918
-0.192805 0.216591 0.0729199
-0.194595 0.216591 0.0854269
-0.204438 0.216591 0.154215
-0.207123 0.216591 0.172976
-0.223231 0.216591 0.285539
-0.23039 0.216591 0.335567
-0.234404 0.216594 0.363716
-0.145418 0.216591 -0.349448
-0.148064 0.216591 -0.330957
-0.15071 0.216591 -0.312467
-0.153797 0.216591 -0.290894
-0.165263 0.216591 -0.210768
-0.170996 0.216591 -0.170705
-0.173642 0.216591 -0.152215
-0.176729 0.216591 -0.130642
-0.182462 0.21659 -0.0905795
-0.185108 0.21659 -0.072089
-0.188195 0.21659 -0.0505166
-0.190841 0.21659 -0.0320261
-0.193928 0.21659 -0.0104538
-0.200984 0.21659 0.0388543
-0.205394 0.21659 0.0696718
-0.208041 0.21659 0.0881624
-0.211128 0.21659 0.109735
-0.213773 0.21659 0.128225
-0.216861 0.21659 0.149797
-0.222594 0.21659 0.18986
-0.22524 0.21659 0.208351
-0.228327 0.21659 0.229923
-0.230973 0.21659 0.248414
-0.23406 0.21659 0.269986
-0.154596 0.216588 -0.373998
-0.165892 0.21659 -0.295011
-0.168501 0.21659 -0.276782
-0.17024 0.21659 -0.26463
-0.174153 0.21659 -0.237288
-0.180239 0.21659 -0.194755
-0.185891 0.21659 -0.155261
-0.192847 0.21659 -0.106652
-0.19589 0.21659 -0.0853858
-0.205889 0.21659 -0.015511
-0.208498 0.21659 0.0027172
-0.211541 0.21659 0.0239834
-0.215888 0.21659 0.0543638
-0.225887 0.216589 0.124238
-0.232843 0.216589 0.172847
-0.166936 0.216588 -0.373899
-0.170791 0.216589 -0.34694
-0.172505 0.216589 -0.334958
-0.185365 0.216589 -0.245092
-0.187937 0.216589 -0.227119
-0.190938 0.216589 -0.20615
-0.195225 0.216589 -0.176195
-0.200797 0.216589 -0.137253
-0.205084 0.216589 -0.107297
-0.211085 0.216589 -0.0653597
-0.213657 0.216589 -0.0473865
-0.225231 0.216589 0.0334929
-0.231233 0.216589 0.0754303
-0.23429 0.216797 0.102636
-0.1857 0.216588 -0.326536
-0.187391 0.216588 -0.314719
-0.191619 0.216588 -0.285177
-0.194155 0.216588 -0.267452
-0.21022 0.216588 -0.155192
-0.219943 0.216588 -0.0872451
-0.225861 0.216588 -0.0458862
-0.228821 0.216588 -0.0252068
-0.231357 0.216588 -0.00748153
-0.234251 0.216605 0.013211
-0.19019 0.216589 -0.376625
-0.191866 0.216587 -0.364967
-0.206041 0.216588 -0.265891
-0.20896 0.216588 -0.245493
-0.211879 0.216588 -0.225095
-0.214798 0.216587 -0.204697
-0.218968 0.216587 -0.175557
-0.224806 0.216587 -0.134761
-0.228976 0.216587 -0.105621
-0.206089 0.216587 -0.344869
-0.208969 0.216587 -0.324745
-0.213083 0.216587 -0.295996
-0.225837 0.216587 -0.206875
-0.233242 0.216587 -0.155127
-0.21262 0.216589 -0.376369
-0.215473 0.216586 -0.356508
-0.225622 0.216586 -0.285588
-0.228463 0.216586 -0.265731
-0.231305 0.216586 -0.245873
-0.234146 0.216586 -0.226015
-0.234215 0.22253 -0.0677202
-0.229018 0.216586 -0.337046
-0.231823 0.216586 -0.317448
-0.233893 0.216589 -0.376126
