ply
format ascii 1.0
comment Created by Open3D
element vertex 1647
property double x
property double y
property double z
end_header
-0.250062 -0.246257 -0.0813081
0.0557151 0.018139 0.100344
-0.0424438 0.0705726 0.172324
-0.0112491 0.0651571 0.172324
0.000729926 0.0228132 -0.172324
-0.257837 -0.0136915 0.150645
0.0897582 0.309663 0.169532
0.0392212 -0.0689558 -0.202123
-0.0662078 0.288788 0.172324
-0.171237 0.33169 -0.17365
0.208602 -0.0954687 -0.0171626
0.18957 -0.0946439 0.172324
-0.21632 -0.103105 -0.212489
0.208602 0.0569069 0.152485
0.0141408 0.052601 -0.212489
-0.0458502 0.21045 0.202123
-0.123431 -0.216281 -0.156776
-0.126289 0.0675988 -0.202123
0.0505983 0.143168 -0.172324
0.22415 0.120729 -0.105556
0.0513631 0.179427 0.202123
0.227737 0.301889 0.143851
-0.256469 0.286228 -0.212489
0.234515 0.110231 -0.0983709
0.220828 0.309663 -0.0999168
0.0506166 -0.0873306 0.156776
-0.183957 0.083447 -0.172324
0.22415 -0.0127546 0.0821087
0.0274157 -0.209897 -0.0174961
-0.0933343 0.018139 0.0103787
-0.233911 0.240089 0.212489
0.0948449 0.219676 -0.202123
-0.268077 0.231352 0.212489
0.105246 0.209653 0.202123
0.22415 -0.00543799 -0.206
0.239698 -0.248697 0.0243368
-0.103739 0.2909 0.156776
-0.222042 -0.00388078 0.202123
0.0289145 -0.1683 0.172324
0.208602 -0.0599125 -0.196954
0.125041 -0.22415 0.166787
0.126089 0.201477 0.202123
0.0222758 0.29113 -0.212489
-0.121167 -0.183512 -0.202123
-0.250062 0.16731 0.100501
-0.257837 -0.192852 0.0234005
-0.0557027 0.126906 0.212489
0.0625107 0.0142518 -0.0926314
0.123115 -0.0199378 0.202123
-0.250062 -0.185292 0.15006
0.000322603 -0.147926 -0.156776
0.15906 0.324319 -0.202123
-0.257837 0.110607 -0.0267647
-0.129431 0.187956 -0.202123
-0.190461 -0.146539 -0.133384
-0.257837 0.151314 -0.0825055
-0.257837 -0.171567 -0.162635
0.128292 -0.209897 0.0547935
0.135912 0.0604871 -0.202123
0.22415 -0.0750807 -0.171883
-0.174914 -0.152928 0.0938255
-0.00413379 0.342055 -0.165416
0.125868 0.342055 -0.1452
-0.0888555 -0.238402 -0.0361953
-0.266506 0.300508 0.202123
-0.0532324 -0.213785 -0.0756838
0.0311812 -0.238402 -0.148194
-0.104703 0.018139 -0.0780618
0.22415 0.326893 0.00769892
-0.0135405 0.169732 0.163348
-0.00988811 0.342055 0.192451
0.0869842 0.261724 0.102093
-0.139855 -0.17798 0.156776
-0.219755 0.226082 0.202123
0.234515 0.104507 0.102256
-0.174914 0.282015 -0.0469173
0.0892921 0.0980661 0.156776
-0.186345 -0.208355 0.202123
-0.174914 0.0865602 -0.0170188
-0.00328982 -0.226659 0.202123
-0.257837 0.04674 -0.0550804
0.22415 -0.0678986 0.0700828
-0.133143 0.215658 -0.202123
-0.250062 -0.219144 0.0455943
0.102116 -0.230665 0.202123
-0.190462 -0.199963 0.116256
-0.0572203 -0.238402 -0.119206
0.22415 -0.260359 -0.190864
-0.257837 0.266668 -0.0731712
0.0188552 -0.209897 -0.026974
-0.138493 0.0508979 0.156776
-0.250062 -0.0391557 0.199741
0.191665 0.357603 0.204883
0.213242 0.169732 0.114563
-0.211636 0.0501961 0.202123
0.239698 -0.0508765 0.17508
-0.257837 0.266116 -0.0913222
-0.0308817 0.0236487 -0.172324
0.208602 0.199507 -0.175063
0.221072 -0.264315 0.00445807
0.208602 0.076323 0.0120278
-0.0532317 -0.213785 -0.00319227
-0.0492382 -0.213785 0.0360583
0.0835033 0.131336 -0.202123
-0.250062 0.136315 0.119354
0.22415 0.027579 0.184563
0.0450487 -0.213785 0.0675364
0.22415 0.117455 0.0158625
0.208602 -0.249815 0.0687776
-0.126344 -0.267089 -0.212489
0.140906 -0.209897 0.0406388
-0.257837 0.114272 0.0209381
-0.201958 0.342055 -0.166746
-0.20028 -0.238402 -0.1675
0.107935 0.0471168 -0.156776
0.22415 -0.25407 0.109301
-0.141527 0.018139 0.0496541
-0.0462957 -0.209897 -0.000769433
0.0393499 -0.211374 -0.202123
0.0266418 0.00407175 -0.156776
0.208602 0.289863 -0.00327509
0.22415 -0.239112 -0.0231175
-0.122888 0.018139 0.0610275
0.22415 0.217476 -0.0979292
-0.0812452 -0.213785 0.061424
-0.174914 0.129447 0.118085
-0.273385 -0.310803 0.00766657
-0.144486 -0.213785 0.127569
0.133901 0.282161 -0.156776
-0.250062 -0.0140257 0.0790206
-0.250062 0.156548 -0.063828
0.125457 0.15236 0.156776
0.208602 0.191979 0.176346
0.273344 0.177355 -0.155711
-0.166975 0.0881037 -0.202123
0.22415 0.0356383 -0.02905
-0.250062 -0.0117676 -0.178616
0.227023 -0.0168433 -0.0768752
-0.0143035 0.261724 0.0749973
-0.106402 -0.174666 0.156776
0.22415 0.166224 0.142329
0.22112 -0.22415 0.0759506
0.239698 -0.182579 -0.20453
0.234515 -0.108388 0.10123
0.0346363 -0.126529 -0.156776
-0.167095 0.308826 -0.202123
0.0670375 0.0142518 0.0663908
0.272219 0.174206 0.041884
0.201479 0.00844104 -0.202123
0.234515 0.0915212 0.0226531
0.131621 0.0142518 -0.0415995
0.198456 0.101427 0.172324
0.0230517 0.257837 0.0035974
-0.257837 0.189396 -0.0753803
-0.213956 0.284031 0.212489
-0.250062 -0.159751 -0.0133718
0.152279 -0.236832 -0.202123
-0.250062 0.15416 -0.15488
-0.2551 0.123177 0.212489
0.22415 0.15379 -0.157414
0.22415 0.093969 -0.154148
0.160597 -0.238402 0.110607
0.0882486 0.342055 -0.145252
0.0877535 0.33169 -0.187064
0.10808 0.257458 0.156776
0.26272 0.324673 -0.0988109
-0.0340034 -0.213785 -0.134826
-0.13776 -0.143232 -0.172324
0.239698 0.259477 -0.186258
-0.174914 -0.186737 -0.00656673
0.214122 0.17365 -0.186576
-0.250062 -0.0964579 0.0651969
-0.0998416 0.345628 -0.212489
-0.257837 0.0432585 -0.0150665
-0.182368 -0.269968 0.212489
0.152855 0.0113157 -0.172324
0.22415 0.208406 0.0965559
-0.250062 -0.220371 0.0208074
-0.175421 0.146935 0.156776
-0.164608 0.171915 0.202123
0.22415 0.228598 -0.0986344
-0.0359149 -0.323729 -0.212489
0.18796 -0.238402 0.177252
0.208602 0.0334045 -0.201555
0.22415 -0.176358 -0.0547008
-0.174914 0.0872355 -0.0471102
-0.0214941 -0.238402 -0.0187355
-0.0860125 0.35555 0.202123
0.187327 0.261724 0.0639455
-0.257837 0.284648 -0.0883807
-0.190462 -0.122225 0.0944476
0.00128171 0.178496 -0.202123
-0.257837 0.12283 0.0908044
0.208602 -0.150172 -0.0510709
0.00182287 -0.238402 0.175284
0.163026 0.342055 -0.166345
0.0819465 0.282068 0.156776
0.115519 0.141212 -0.172324
0.0771053 0.0133458 -0.156776
0.143391 0.309295 0.172324
0.22415 -0.0426365 0.186752
0.176298 -0.257797 -0.212489
0.161764 -0.218246 0.156776
-0.0100765 0.0514635 -0.156776
0.208602 -0.0848871 0.214798
0.22415 -0.149798 -0.190452
0.19415 -0.205001 -0.202123
0.160244 -0.238402 0.0392259
-0.0687955 0.0101593 0.156776
0.239698 -0.0163956 0.0971184
0.242711 0.173117 -0.139249
-0.00840974 0.018139 -0.00516803
0.22415 0.114113 -0.160848
0.22415 0.220097 -0.194681
-0.110988 0.194713 0.202123
-0.0279951 -0.186112 0.172324
0.180743 0.296604 -0.212489
0.208602 0.221228 -0.0566118
-0.0619257 -0.188063 -0.156776
0.22415 -0.0731298 0.183326
0.22415 -0.191366 -0.0137193
0.157148 -0.252677 -0.202123
0.132388 0.0142518 -0.0735696
0.205177 0.0969156 -0.212489
-0.257837 0.0472408 0.0323097
0.22415 -0.15798 0.157541
-0.17167 0.27108 0.172324
-0.250062 -0.172563 0.0552439
0.23814 0.211192 -0.175854
0.0450266 -0.305558 -0.212489
0.129897 0.261724 -0.129751
0.0773147 -0.209897 -0.125735
0.0223041 0.107665 0.202123
0.0790399 0.018139 0.0985028
0.22415 -0.0548968 -0.0776022
-0.257837 0.207953 -0.182071
0.208602 0.00640264 0.186687
-0.250062 -0.123186 -0.172418
0.101103 0.164181 -0.156776
-0.257837 0.341011 0.0182486
0.234515 -0.105378 -0.0674151
-0.132226 -0.213785 0.0125718
-0.269392 0.137056 0.202123
-0.250062 -0.167897 -0.0737359
0.0858447 -0.0738937 0.156776
0.190977 -0.238402 0.0825831
-0.0240454 0.0456704 -0.202123
-0.0466174 0.103055 -0.212489
-0.0958231 -0.135867 0.156776
0.183916 -0.130575 -0.172324
0.146964 -0.168282 -0.212489
0.0990577 0.247471 -0.164095
0.217826 0.357603 -0.1492
-0.133481 -0.159701 0.172324
-0.245021 0.0141068 -0.212489
-0.0494284 -0.15141 0.212489
-0.225492 -0.261125 0.212489
-0.224254 -0.0667427 -0.202123
-0.177811 -0.238402 -0.0210217
-0.128206 0.0501996 0.156776
-0.151361 -0.213785 0.0730615
0.22415 -0.20667 0.04999
0.22415 -0.0322832 0.216591
-0.179545 0.00388655 0.0526267
-0.194301 -0.240332 -0.202123
-0.257837 -0.039346 -0.00776733
0.22415 -0.218352 -0.11324
-0.17048 -0.209897 0.117714
-0.218443 0.120279 0.212489
-0.174914 -0.223559 -0.0775584
-0.126402 0.33169 -0.159978
-0.122489 -0.213785 -0.156588
-0.237457 0.114629 0.202123
-0.1862 0.33169 -0.19741
0.0788171 0.018139 -0.115815
-0.190462 0.0881609 0.0700703
-0.190462 -0.110585 0.124929
0.214713 0.191758 0.0593445
-0.273384 -0.302005 -0.0594279
0.22415 0.350446 -0.0167035
-0.257837 -0.0403944 -0.174292
-0.0309541 -0.199749 -0.172324
0.159367 -0.277967 0.143174
0.27001 0.172333 0.0700202
-0.0942661 0.0125286 0.202123
-0.257837 -0.0454331 -0.066601
0.208602 -0.0270529 -0.0385093
0.116248 0.0176515 -0.156776
-0.145612 -0.209849 0.202123
-0.250062 -0.0702473 -0.0571634
-0.174914 0.101314 0.0851238
-0.11478 -0.238402 0.134273
-0.185035 -0.0422551 -0.212489
0.061423 -0.209897 -0.141557
0.11157 0.247471 0.168053
-0.245544 0.33169 0.192357
-0.136715 0.199684 0.202123
-0.0866503 -0.110323 -0.202123
0.147071 -0.122524 -0.156776
-0.190462 0.081263 0.158199
5.46947e-05 0.0701132 -0.202123
0.0681433 -0.0675203 -0.156776
-0.0868276 -0.295447 0.212489
-0.273385 0.328389 0.0954881
0.237585 0.211192 0.0843297
0.239698 0.310507 0.0116844
0.226469 0.151593 0.087008
0.00445278 -0.179833 -0.212489
-0.139931 -0.0754075 0.172324
0.169619 0.138548 -0.202123
-0.170317 -0.220264 0.212489
0.0288821 -0.00737097 -0.212489
-0.156829 0.247997 0.212489
-0.257837 -0.166667 0.200727
0.208602 0.218223 -0.165264
0.222688 0.0488483 0.156776
0.22415 0.282165 -0.135048
0.239698 0.198266 0.0919794
-0.0859564 -0.238402 -0.052099
0.22415 0.0734212 0.207296
0.18454 -0.0715752 0.156776
0.22415 0.111763 -0.00317922
-0.0454849 -0.213785 0.046381
-0.14973 -0.0866973 -0.212489
0.137353 0.0875971 -0.212489
0.0303332 -0.194535 0.172324
0.0539821 -0.0693292 0.172324
-0.0366565 -0.213642 -0.156776
-0.250062 -0.0304841 -0.0585005
-0.123304 -0.0583048 -0.168167
-0.11721 0.159867 -0.172324
0.239698 0.0462334 0.17034
0.119391 0.33169 0.145091
0.239698 0.323189 -0.0972219
-0.0342792 0.342055 -0.197101
-0.0210496 0.261724 0.0544391
-0.0126459 0.200301 0.212489
0.138808 0.33169 0.141238
0.0213423 -0.213785 0.0959887
-0.250062 -0.119555 0.193303
-0.0569917 -0.2506 0.202123
-0.0426756 -0.132665 -0.172324
-0.250062 -0.237756 0.155427
0.0231551 -0.0717383 -0.212489
0.22415 0.337282 -0.0664746
0.236067 0.203419 -0.129861
0.208602 -0.0215053 0.0434934
-0.129558 0.257837 -0.148578
-0.11061 0.261724 -0.0457497
-0.134434 -0.209897 -0.068107
0.239698 -0.236624 0.207467
0.00129469 0.0487686 0.156776
-0.132038 -0.13782 0.202123
-0.252642 -0.30139 -0.212489
-0.18872 -0.0583048 0.112027
-0.108663 -0.209897 -0.108385
0.22415 -0.21897 -0.0278518
-0.0623916 -0.0370733 0.212489
-0.168032 0.270538 0.212489
0.234515 -0.1435 -0.15079
-0.127775 0.309663 -0.162745
0.217558 0.305152 -0.172324
0.208602 -0.174924 -0.0364688
0.208602 0.343788 0.0257623
0.118064 0.00776249 -0.156776
0.145989 0.257837 -0.152533
-0.273385 -0.304777 0.128287
0.0455381 0.0981305 0.156776
-0.250062 -0.134519 0.0462589
-0.0454055 0.0541463 -0.202123
0.154689 -0.173609 -0.202123
-0.132066 0.33169 -0.14065
-0.0690296 0.342055 0.160815
-0.11265 -0.127803 0.212489
0.197785 -0.0112783 0.212489
-0.204512 0.116849 0.212489
-0.0684098 -0.150086 -0.212489
-0.0711738 -0.213785 0.0849698
-0.250062 0.15482 0.00375764
0.00236078 0.268731 0.156776
-0.261049 -0.0716698 0.202123
-0.138655 0.00612309 0.212489
-0.215092 -0.256734 0.212489
0.0446108 0.261724 -0.0753389
-0.0905638 -0.233496 -0.202123
0.165568 -0.238402 -0.100164
0.175815 0.018139 -0.0987032
-0.250062 0.0350988 -0.0987358
-0.254822 0.342055 0.178617
0.214946 -0.233219 -0.00355592
-0.0956086 0.257837 -0.115279
-0.174914 -0.132315 0.0700099
-0.0069479 0.271278 -0.202123
-0.0464134 -0.0665461 0.212489
0.085096 -0.238402 -0.0841371
-0.257837 0.191066 0.119772
-0.0686195 0.333378 -0.139932
-0.162207 -0.209897 -0.09311
-0.250062 -0.247619 0.1092
-0.250062 0.231806 0.00636511
-0.0419108 0.247472 0.158122
0.076781 0.0142518 0.0361097
-0.250062 0.228872 0.132017
0.22415 -0.0359953 0.031347
0.208867 0.357603 -0.0305529
-0.0811305 -0.352745 0.212489
0.22415 -0.0333438 -0.135602
0.22415 0.0293335 -0.199563
0.188711 0.285132 -0.202123
0.206542 0.200818 -0.212489
0.151249 0.257837 0.0135117
-0.0613367 0.123157 -0.172324
0.217364 0.357603 0.126566
-0.0215311 0.136749 0.202123
-0.195654 -0.24285 0.202123
-0.223912 0.0097565 0.212489
0.145712 -0.0599231 0.156776
-0.200475 -0.298849 0.212489
0.196092 0.0934026 0.212489
0.00198326 -0.106233 -0.172324
-0.0664917 0.33169 0.15253
-0.145026 0.0613041 -0.172324
0.0171505 0.153449 -0.212489
-0.112057 0.257837 -0.0740963
-0.208575 -0.286954 -0.212489
0.0529906 -0.0508596 0.202123
-0.257837 0.29143 0.139978
-0.257837 -0.0554605 0.128769
-0.0589177 0.261724 0.0398606
-0.0265803 -0.209897 -0.0466177
-0.257837 -0.0981401 0.183828
0.219224 0.191759 -0.0958251
-0.140077 0.327897 -0.202123
-0.190462 0.0988535 -0.171864
-0.253916 0.15459 0.202123
-0.168759 -0.287234 -0.212489
0.188588 0.309663 0.1633
-0.11859 0.0660856 -0.156776
-0.250062 -0.0883414 -0.0683732
0.234515 0.139989 -0.151571
0.0922771 0.212422 0.202123
0.0867902 -0.213785 -0.0110134
-0.250062 0.30383 -0.193063
-0.042931 0.282556 -0.202123
0.164203 0.163506 0.202123
0.22415 -0.231687 -0.101703
0.239698 -0.133705 -0.197515
0.199168 0.018139 0.132356
-0.206017 0.33169 0.176304
0.122294 -0.238402 -0.142802
-0.205942 -0.238402 0.0514917
-0.11277 0.257837 -0.153583
-0.162614 -0.0935352 0.172324
0.22415 0.327555 -0.06179
-0.0294051 0.0726947 -0.212489
0.11603 -0.209897 0.0994038
0.137176 -0.203216 0.202123
0.234515 -0.0891731 0.0296793
0.178194 0.00633501 0.156776
-0.187217 0.303643 0.212489
-0.110107 0.0521082 -0.212489
-0.00481802 0.0815425 0.202123
0.0866215 0.0829946 -0.212489
0.180161 -0.238402 0.0539369
0.22415 -0.122599 0.193627
0.168021 0.342055 -0.188024
0.191241 0.018139 0.0135292
0.107254 -0.324058 0.212489
0.132328 0.327797 -0.212489
-0.153016 0.239443 -0.202123
0.0323355 -0.097109 0.202123
0.0538053 0.257837 0.153398
0.179048 -0.0924765 0.172324
0.10529 -0.0940676 -0.212489
0.0149488 -0.12789 0.212489
-0.250062 -0.134298 -0.182864
0.133069 -0.113914 -0.212489
0.0210068 0.260994 0.212489
0.22415 0.0550617 0.191861
-0.199324 0.249273 -0.212489
-0.0738553 0.33169 -0.165674
-0.0242089 0.275988 -0.156776
-0.0390616 -0.213785 -0.00652
0.213186 0.165035 -0.172324
-0.190462 -0.0769492 0.0636607
-0.0925445 -0.163595 -0.202123
-0.0891548 -0.144489 0.212489
-0.257837 0.258698 0.15776
-0.127326 -0.00926991 0.202123
0.208602 0.121765 0.00596654
-0.0125957 -0.213785 0.155263
-0.273384 0.32557 -0.153122
0.145518 -0.221361 -0.156776
-0.251646 -0.250089 0.212489
0.185878 0.23734 0.212489
0.208602 -0.246993 0.214085
-0.0846761 -0.0182641 0.212489
0.22415 0.0706632 -0.0492817
-0.11787 -0.180635 -0.156776
0.0256889 -0.0492112 -0.212489
0.234515 0.14777 -0.0722336
0.22415 0.10584 0.182427
-0.250062 0.0170852 -0.0172221
-0.257837 0.322014 0.172274
0.208602 0.348766 0.0120423
0.103928 -0.132658 0.172324
-0.120976 0.151781 0.212489
0.0609221 0.129036 -0.156776
-0.232524 -0.155846 -0.212489
0.22415 0.00638452 0.084899
0.16356 0.114265 -0.172324
0.147046 -0.209897 -0.126904
-0.257837 0.130349 0.0120386
0.0125999 0.261724 0.0656111
0.267494 0.18332 0.0569949
0.208602 -0.0596023 -0.0116113
0.22133 -0.0899047 0.186576
-0.257837 -0.212918 -0.152152
0.101136 -0.0733266 0.156776
0.234515 -0.132672 0.0127199
-0.273385 0.227622 0.210242
0.22415 -0.253491 0.036156
-0.250062 0.0388447 -0.167586
0.234515 -0.12439 0.0541942
0.195302 -0.259352 0.202123
-0.236958 0.356177 -0.202123
0.0825209 0.0142518 -0.132444
-0.257837 0.0676415 -0.0348834
-0.0468794 -0.238402 -0.00953986
-0.257837 0.201318 -0.181608
0.22415 -0.151508 0.153919
0.159367 -0.272109 -0.14525
-0.132665 0.161447 0.212489
-0.00699221 -0.139784 0.172324
0.198084 -0.238402 0.186984
-0.10459 -0.238402 -0.142252
-0.257836 0.343973 0.00669136
-0.249822 -0.0934394 0.202123
0.0277096 0.281028 0.172324
0.22415 0.0273172 0.0832925
0.185584 0.137212 -0.156776
0.27299 0.176031 -0.0941457
0.22415 -0.146322 -0.0483275
0.239698 0.0194209 -0.115458
0.0954073 0.018139 -0.0250803
-0.257837 -0.169309 -0.011247
0.22415 -0.109506 -0.00829455
0.0255871 -0.238402 0.0169535
-0.0424853 0.0959824 -0.156776
0.0401659 -0.34785 -0.212489
-0.232802 0.332577 -0.212489
0.22415 0.140981 -0.133038
-0.0674208 -0.0723524 0.156776
-0.257837 -0.135355 0.0900362
-0.190462 -0.158322 0.163846
-0.174914 0.0262617 0.0693848
-0.273385 -0.29506 0.17533
-0.250062 -0.207541 -0.0484903
-0.0391418 0.0490647 -0.156776
0.22415 -0.197262 0.0769507
-0.174731 0.0347849 -0.172324
0.22415 0.192749 0.138133
-0.166626 0.203902 -0.202123
0.0697462 0.0830686 0.212489
-0.176289 0.130889 0.172324
-0.137652 0.348515 -0.202123
-0.250062 0.226775 -0.0654237
-0.177027 0.0278725 -0.212489
-0.257837 0.16626 0.129354
0.22415 -0.163362 0.146328
-0.0517227 -0.204215 -0.202123
-0.250062 -0.0813059 -0.172581
-0.0684844 0.261724 -0.00579144
-0.253667 -0.196256 -0.212489
0.176757 0.261724 -0.0136108
0.181236 0.0142518 0.122785
0.032652 0.109507 -0.172324
-0.127937 -0.124935 -0.156776
0.158664 -0.066524 -0.212489
0.147199 0.257477 0.202123
-0.0269131 -0.129669 0.156776
0.239698 -0.209208 -0.0773379
0.0537203 0.0142518 0.0935647
-0.229758 0.0386128 -0.202123
0.0121016 -0.00696173 0.202123
0.120018 -0.126962 -0.172324
0.22415 -0.0500428 0.204604
-0.250062 -0.0224498 -0.125664
0.22415 0.0792591 -0.0526659
0.22415 -0.000569653 0.16445
0.210493 0.00388655 0.0323481
-0.181455 0.0321798 -0.202123
-0.244056 -0.24869 -0.212489
-0.0224059 -0.238402 -0.0942208
0.239698 0.0769824 -0.15729
0.0230483 0.342055 -0.188043
0.22415 -0.234144 -0.0278399
-0.273384 0.353798 -0.104609
-0.215532 -0.253747 0.212489
-0.0171628 0.266057 -0.202123
0.213757 0.319325 0.186576
-0.0772048 -0.131295 0.202123
-0.273385 0.355987 0.0352109
-0.257837 -0.221249 -0.194189
0.103883 0.0142518 -0.140314
-0.1108 0.309663 -0.162878
0.112724 0.342055 0.182704
-0.262037 0.357603 0.0594857
-0.189068 0.309764 0.212489
0.0248615 -0.338573 0.212489
0.151542 0.107807 -0.172324
-0.10201 0.291635 0.156776
0.0873752 -0.0901342 0.202123
0.081478 0.295065 -0.172324
0.22415 0.320471 -0.0716288
-0.174914 0.162758 -0.038254
-0.266246 0.295411 -0.0125595
-0.238761 -0.237439 0.202123
-0.172833 0.018139 -0.0897373
0.218711 0.300069 0.217671
0.00451629 -0.0381243 0.202123
0.22415 -0.248663 -0.100952
0.189582 0.0142518 0.0201574
-0.272412 0.0543844 0.202123
-0.273385 0.325301 0.0744269
0.239698 -0.0705612 0.0542416
-0.12896 -0.209897 -0.0444303
0.178607 -0.238402 -0.100037
-0.250062 0.217836 0.0606389
-0.257837 0.212065 -0.135276
0.0889267 -0.354955 -0.212489
0.22415 0.123716 -0.0372145
0.190551 -0.0906955 -0.212489
0.000460193 0.329784 -0.202123
-0.217393 0.0431506 -0.202123
0.22415 0.283773 -0.0644369
-0.250062 -0.228794 -0.0340828
-0.019197 0.136968 -0.202123
0.153128 -0.0583048 0.161519
-0.257837 0.276718 0.185908
-0.0761981 -0.129548 -0.156776
-0.174914 -0.070696 0.129153
-0.250062 0.2311 0.1144
0.216472 0.222854 -0.048513
-0.106143 -0.201645 0.172324
-0.197249 0.172118 -0.202123
-0.174914 -0.156271 0.102056
0.114207 -0.213785 -0.144537
-0.12124 0.291846 0.202123
0.232327 0.301889 0.127022
0.085446 -0.0382625 0.202123
-0.250062 -0.186602 -0.141793
0.210135 -0.186654 0.186576
-0.117251 -0.323695 0.212489
-0.192417 0.312585 -0.212489
-0.174914 -0.201855 -0.112799
0.00449743 -0.042969 -0.212489
0.103718 0.160732 0.156776
-0.0693714 0.261724 0.0241463
-0.257837 -0.0810882 0.132354
-0.233329 0.123091 -0.212489
0.0870989 0.0800013 0.172324
0.0495717 0.0599228 -0.202123
0.177126 -0.225319 -0.212489
0.234515 -0.0940945 -0.118098
-0.250062 -0.0368974 -0.117719
-0.154752 0.3174 -0.212489
-0.00151787 -0.00940952 -0.202123
-0.273385 -0.0427019 -0.209167
0.148781 0.261724 0.030936
-0.133402 0.269669 0.212489
-0.0505031 -0.238402 -0.118368
-0.174914 -0.162497 0.147837
0.151753 -0.34656 -0.212489
0.159367 -0.298974 -0.00324108
-0.0624156 -0.209897 -0.0989065
-0.161 0.257837 -0.135656
0.210364 0.278204 0.186576
-0.182945 0.169732 -0.087365
-0.0562407 0.205614 -0.202123
-0.132798 -0.213785 0.0367253
0.232045 0.211192 -0.0306606
0.239698 -0.0745949 0.18084
0.0535021 0.0142518 -0.104237
0.118339 -0.0853819 -0.156755
0.16707 -0.209897 0.0233787
-0.0670846 0.284249 -0.212489
0.22415 0.08575 -0.0936187
0.234515 0.143854 -0.0315035
-0.120707 -0.209897 -0.0723511
0.137938 0.252471 0.156776
-0.250062 -0.135944 0.0777041
-0.0838718 0.257837 0.155724
-0.171621 -0.146979 -0.156776
0.0703819 -0.266231 -0.212489
0.208602 0.157566 -0.104178
0.106727 0.257837 0.0526359
-0.257837 0.11609 -0.197777
-0.0986133 -0.108806 0.156776
-0.0566229 -0.0475852 0.212489
0.22415 0.0178546 0.0680338
0.226387 0.151592 -0.116843
0.131597 0.0249576 0.172324
0.0472709 0.261724 0.138738
0.22415 -0.00938037 -0.166533
0.22415 0.107194 -0.124421
-0.105616 -0.209897 -0.0358873
0.239698 0.0716546 -0.208555
0.234515 0.0454785 0.0843389
-0.0236033 0.33169 0.146552
0.22415 0.0580978 0.069856
0.234134 -0.132094 -0.213784
-0.159085 0.123529 -0.172324
-0.0794887 0.257837 -0.0168888
0.0588347 0.0661444 -0.172324
0.208602 -0.0813584 -0.195423
-0.259999 0.3079 -0.202123
-0.0746252 -0.209897 -0.141896
0.208602 0.0912956 0.143033
-0.174914 -0.20412 0.04234
-0.171824 0.0164648 -0.156776
-0.257837 0.0310405 0.146507
-0.137277 0.0142518 -0.0320645
0.22415 -0.183765 0.0664462
-0.257837 0.116935 0.00402722
0.16321 0.158222 0.172324
-0.250062 -0.0748205 -0.161846
-0.239315 0.32946 -0.212489
0.209847 0.125915 -0.217671
-0.257837 0.192976 -0.18671
0.22415 0.035881 0.159164
0.0922983 0.261724 -0.0944171
-0.0182548 -0.0404038 -0.212489
0.108171 0.0430798 0.202123
-0.0475223 0.346671 -0.202123
0.22415 0.0625911 0.0810277
-0.00575844 0.261724 0.0583985
-0.257837 0.295135 -0.0148778
-0.257837 0.03344 -0.0693662
0.0909493 0.249396 -0.156776
-0.177521 -0.238402 -0.0648295
-0.257837 0.00696871 0.0492669
0.0894988 -0.238402 0.171509
0.106828 -0.0463168 0.202123
-0.00306849 -0.217327 -0.212489
0.0698517 0.0984576 -0.212489
0.191308 -0.213785 0.0888851
0.0846993 -0.0175093 0.212489
0.0233131 0.126842 -0.212489
-0.0543387 0.257837 0.03028
-0.187741 -0.238402 0.0317488
-0.0110359 0.02686 0.212489
0.270061 0.332961 -0.0139184
0.198778 0.018139 -0.150955
0.217318 -0.264315 -0.0242566
-0.233387 -0.0391459 -0.202123
-0.189906 0.0348452 -0.156776
0.239698 0.129948 0.184515
0.22415 -0.0725958 0.0213971
0.194508 0.0019655 -0.202123
-0.174914 -0.116662 -0.136799
-0.0115221 0.118055 -0.156776
-0.0760972 0.143205 0.156776
0.159367 -0.290785 0.0964133
-0.273384 -0.296729 -0.0729744
0.168609 0.261724 0.152417
-0.190462 0.0647807 0.142775
-0.1317 -0.238402 -0.0805005
0.135171 -0.217884 -0.156776
-0.0695076 0.0669039 0.172324
0.204373 -0.246863 0.212489
-0.148296 -0.112676 0.202123
-0.250062 0.119342 0.0345625
0.119965 -0.0962936 0.156776
0.22415 0.26494 0.167783
0.22415 -0.098321 0.153907
-0.186338 -0.22415 -0.116701
0.00217813 0.0142518 0.0284155
-0.246918 -0.0445638 -0.212489
-0.137183 0.208099 -0.202123
0.133052 0.0353177 -0.172324
-0.190461 0.0790958 -0.0519484
0.227331 -0.024617 0.202204
0.187619 0.35195 0.202123
-0.0694964 -0.213785 0.0720292
0.22415 -0.204168 0.0992984
-0.150474 -0.213785 0.0577077
-0.110344 -0.102186 0.212489
0.167241 0.257837 0.0141846
-0.080029 0.018139 0.0853149
-0.250062 -0.00286297 0.0993564
-0.146264 -0.141201 -0.172324
-0.190461 0.265668 -0.11391
0.063973 0.261724 -0.0424532
-0.174914 0.291381 -0.0419318
-0.0362539 0.342055 0.175825
0.1121 0.159715 0.202123
-0.0865838 -0.209897 -0.0278738
0.22415 0.307465 -0.0626385
0.0267438 -0.162559 -0.212489
0.239698 0.302355 -0.0842826
-0.125027 -0.209897 0.0934081
-0.148855 -0.0976839 0.202123
-0.0972672 -0.209897 -0.0998793
-0.0632674 -0.213785 0.111148
0.0962814 -0.0870695 -0.202123
-0.257837 0.0897834 -0.074768
0.208602 0.254637 0.121062
-0.231669 0.0894146 -0.212489
-0.179461 -0.0780801 0.202123
0.141745 -0.187552 -0.172324
-0.174914 -0.0921032 0.137194
-0.196322 -0.186739 -0.212489
0.0111864 0.356668 -0.212489
0.22415 0.14619 -0.0376505
-0.0355594 -0.232962 0.212489
0.208602 0.149372 -0.0449948
-0.0907306 0.081099 -0.212489
-0.169183 -0.239015 0.212489
0.0087327 -0.238402 0.046849
-0.0819446 0.257837 0.147334
0.192939 0.0104583 -0.212489
-0.273385 0.0220137 0.202806
-0.173327 -0.209897 0.104396
-0.0790982 -0.209897 -0.0196212
0.110557 -0.213641 0.212489
-0.225514 0.33169 -0.165226
0.153851 0.0552217 -0.202123
0.187398 0.146125 -0.212489
0.0572954 -0.00785314 0.212489
0.22415 0.00531254 0.075327
-0.11267 0.0142518 -0.0137804
-0.172932 -0.209897 -0.0675441
-0.190462 0.123175 0.167847
0.22415 0.00839291 0.0486438
0.22415 -0.239393 -0.019
0.0274005 -0.16788 -0.212489
-0.250062 -0.21296 0.000358727
-0.190461 -0.197737 -0.090971
-0.250062 0.0985931 0.112421
0.235566 0.0926206 -0.213784
0.14752 -0.213785 0.0737298
0.190838 0.018139 0.0169805
0.0950265 0.0742691 -0.172324
-0.00976041 0.018139 0.126439
0.159367 -0.336256 -0.179814
0.190209 -0.0224995 -0.212489
0.00952305 0.0123061 0.172324
0.0770049 -0.0687407 -0.202123
0.208602 -0.264157 0.193881
0.22415 -0.146834 -0.0319681
0.0915287 0.167846 -0.212489
-0.10455 0.18307 0.202123
-0.125894 0.342055 -0.190789
0.21032 -0.228319 -0.217671
0.234515 -0.128486 0.0669284
0.204091 0.0142518 -0.00714895
0.208602 0.0370887 -0.0203074
-0.174914 0.0955694 -0.141145
-0.175682 -0.1256 -0.212489
-0.183943 0.121407 -0.212489
0.22415 -0.116165 -0.037775
0.0115905 -0.245886 0.212489
-0.0456628 0.0142518 0.00967695
-0.190462 -0.162221 0.0296901
0.182903 0.158922 0.156776
-0.257837 -0.196679 0.0621528
-0.250062 0.149992 0.144082
0.239698 0.0246731 0.194279
-0.00789482 0.261724 -0.0551406
-0.273384 -0.238236 -0.00589656
-0.0168441 0.131784 -0.212489
0.22415 0.09018 0.0988952
-0.174914 0.134109 -0.00409078
0.139849 0.29912 -0.212489
0.177902 0.0142518 0.00548515
-0.174914 0.00538112 -0.0427462
-0.176088 -0.0583048 0.133457
-0.190462 0.014393 0.0482134
0.22415 -0.139871 0.0950553
0.203293 -0.190413 0.202123
0.00364636 -0.00176603 -0.202123
-0.0775277 0.0142518 -0.0594678
-0.257837 -0.20533 0.116313
0.127057 0.169732 -0.171165
0.132967 0.257837 -0.114634
-0.250062 -0.0769128 -0.101874
0.211255 -0.0407954 -0.186576
-0.0798706 -0.213785 -0.058099
-0.0761309 -0.254324 0.202123
0.10883 0.132074 -0.172324
0.0171158 0.257837 -0.0926047
0.0928368 0.33169 0.158779
0.208602 0.0550417 -0.0268232
0.200647 0.341914 0.139932
-0.230159 0.220254 -0.202123
0.174067 0.304808 0.172324
0.156798 -0.255502 0.202123
0.0414037 0.018139 -0.0552774
0.133141 -0.238402 -0.0959216
-0.250062 0.245659 0.0435508
-0.00590947 0.321775 0.212489
0.134581 0.261724 0.145941
0.234515 -0.172044 -0.0955228
-0.21656 -0.0480025 0.212489
-0.257837 0.148621 -0.119784
-0.190462 0.0982565 0.0947473
-0.0563152 -0.183965 -0.202123
0.038103 0.257837 0.0608681
0.0124463 0.0142518 0.0527241
-0.124574 -0.0969253 0.212489
-0.257837 -0.108278 0.196206
0.0237841 0.32978 -0.212489
0.0179133 0.117444 0.202123
0.0787179 0.160581 -0.172324
0.0249858 -0.0694593 -0.212489
0.0671402 -0.0653254 0.172324
0.145337 0.0142518 0.151641
-0.211274 -0.238402 -0.143194
-0.174914 0.162475 -0.00255001
0.0266077 -0.213785 0.019177
0.225538 0.211192 -0.0193257
0.0803027 -0.238402 0.120182
0.223368 0.0829035 0.217671
-0.250062 0.244178 -0.00743921
-0.0556704 0.113472 -0.212489
0.0268147 0.257837 0.116734
-0.219875 -0.238402 0.160257
0.234515 0.145224 -0.141948
-0.0822638 0.28129 -0.212489
0.221194 0.182335 0.217671
0.150876 0.074692 0.156776
0.169135 0.175842 -0.212489
0.208602 -0.173497 0.017215
0.22415 0.206779 0.140432
-0.262326 -0.0156196 -0.212489
0.22415 0.215951 -0.0239389
-0.155956 -0.22415 -0.16317
-0.00765728 -0.20118 -0.202123
-0.0339746 0.108997 -0.156776
-0.257837 -0.0637424 -0.075872
0.208602 0.206197 0.0593365
-0.189643 0.267758 -0.156776
0.22415 0.18327 0.0788297
-0.239571 0.342055 -0.161566
0.22415 -0.0867102 0.119937
0.216721 -0.165338 -0.156776
-0.190462 0.109788 -0.168376
-0.0259594 0.24835 -0.172324
-0.250062 0.0964549 -0.0126098
-0.257837 0.303224 -0.0110517
-0.237885 0.00418305 0.202123
0.223308 0.0364797 -0.217671
0.100619 -0.238402 -0.1002
-0.0226869 -0.213785 -0.084425
0.224729 -0.260429 0.0926361
0.018749 -0.209897 0.134037
0.00266967 0.357603 -0.209728
0.239698 -0.063108 -0.00251298
0.234515 -0.166923 0.0523227
0.0404759 -0.209897 0.100691
0.147478 0.340587 -0.139932
-0.257837 0.316486 0.179284
0.168771 -0.22415 -0.157511
0.135146 -0.213785 -0.027777
0.093358 0.151651 0.212489
0.218075 0.340922 0.186576
-0.0259793 -0.238402 0.187717
0.216571 -0.22415 0.147274
0.233257 0.120713 0.213784
0.239698 0.0369474 -0.153026
-0.140898 -0.213785 0.0839774
0.0327436 -0.275877 0.212489
0.137138 -0.106492 0.202123
0.189139 0.017653 0.212489
-0.190462 -0.194749 0.144094
-0.235723 -0.238402 0.167132
-0.250062 -0.152593 0.163355
0.0529299 -0.137012 -0.156776
-0.125438 -0.213785 0.0622205
-0.203862 -0.238402 -0.123446
-0.250062 -0.065921 0.133931
-0.198085 0.339573 -0.202123
-0.0746111 0.312144 0.202123
-0.0952508 0.0425554 0.156776
0.153514 -0.150718 -0.172324
0.0181538 0.018139 -0.033474
0.000210479 0.0902718 -0.156776
0.0218034 0.257837 0.0581053
0.208602 0.117032 -0.141629
0.147793 0.257837 -0.103629
-0.0750584 -0.238402 -0.199442
0.0582527 -0.209897 -0.0757849
-0.0172048 -0.0978385 -0.172324
0.208602 0.0350192 0.0506898
-0.0755912 -0.222285 0.156776
-0.0332354 -0.0322431 -0.202123
-0.273384 0.330204 -0.0926443
-0.0388012 -0.238402 0.106769
0.22415 -0.0490161 -0.0264058
-0.00166858 0.018139 -0.155123
-0.266027 0.0213925 -0.212489
0.234076 -0.0246183 -0.0128284
-0.0834269 -0.0522207 0.202123
0.128416 0.0142518 0.0655028
0.219882 0.0411352 0.186576
-0.099027 -0.138911 -0.212489
0.261627 0.181894 -0.147981
-0.0777936 -0.187143 -0.212489
0.14785 0.264664 -0.172324
0.208602 -0.160644 -0.0529094
0.239698 0.317887 0.0927536
-0.273384 -0.236185 -0.152839
0.222077 0.326507 0.0713534
0.208602 -0.218641 0.133443
-0.221088 0.0892558 -0.202123
0.208602 0.268573 -0.127094
-0.133106 0.357603 -0.21077
-0.273384 0.337377 -0.0653475
-0.226196 -0.0095249 -0.202123
-0.174914 -0.215097 0.135898
-0.190462 0.303742 0.147963
-0.0769571 -0.132497 0.202123
-0.122187 -0.0216546 0.212489
0.0928483 -0.11987 0.156776
-0.0664512 -0.209897 0.129588
-0.262187 0.357603 0.14962
0.172609 0.0201916 -0.212489
0.239698 0.254535 0.159618
0.03521 -0.110931 0.156776
0.0661795 0.0803875 0.202123
-0.174353 0.00724103 -0.202123
0.034748 -0.212175 -0.172324
0.22415 0.0375361 -0.0599036
0.0625567 0.33169 -0.167124
-0.257837 0.304946 -0.135396
-0.0734237 -0.238402 -0.172178
0.117098 0.187549 0.202123
0.237076 0.301889 0.0514643
0.222855 0.326507 -0.053682
0.229926 -0.0168433 0.0154596
0.104398 -0.209897 -0.0787123
-0.140385 -0.0675324 -0.202123
-0.123353 -0.288027 0.212489
-0.257837 0.222352 -0.116381
0.00574336 0.263413 -0.156776
-0.250062 0.167235 0.0589973
0.0784888 -0.213785 -0.132572
-0.0377452 -0.352357 0.212489
-0.190462 0.00662136 0.0877097
-0.233442 -0.238402 -0.0322709
-0.107633 -0.155758 -0.156776
0.0856406 -0.209897 0.0316915
-0.273385 0.340489 -0.206288
0.270675 0.332647 -0.0570432
-0.244025 -0.135501 -0.212489
-0.184441 -0.0583048 0.0777547
-0.250062 0.0651763 -0.102798
-0.0630568 0.257837 0.122321
0.22415 -0.0900533 -0.194922
0.22415 0.305122 0.128285
-0.273384 0.335814 -0.0983172
0.187501 -0.209897 -0.10577
-0.257837 0.126266 0.167871
0.22415 -0.143643 0.0879666
0.0283632 -0.122252 -0.202123
-0.082291 -0.131253 0.172324
-0.100375 -0.0425641 -0.212489
-0.00224811 0.0142518 -0.0753232
-0.250062 -0.113345 0.0206414
-0.188109 0.100882 0.212489
0.060375 -0.0903462 0.202123
-0.176429 0.169732 -0.102834
0.196663 0.249409 0.172324
0.271222 0.332099 0.0565989
-0.104226 -0.272023 -0.212489
0.208602 0.139057 -0.0194679
-0.13643 -0.05271 0.202123
-0.0803263 0.309663 0.165975
0.043972 -0.209897 -0.0781
-0.094307 -0.246124 -0.212489
0.22415 0.300881 -0.0171988
0.0693558 0.261805 0.212489
-0.0797709 0.257837 0.000521176
0.20832 0.247471 -0.164648
0.159367 -0.257027 -0.163688
0.22415 -0.109873 0.159424
0.0769669 -0.0909187 -0.212489
0.208602 -0.215439 0.18828
-0.0761914 0.33169 -0.15484
0.208602 0.128149 0.217242
-0.108546 -0.243328 -0.202123
0.234515 -0.0910357 -0.10666
-0.257837 -0.0894017 -0.0642138
0.0283059 -0.152687 -0.156776
0.22415 -0.123017 -0.0499472
0.0903953 -0.186721 -0.156776
0.239698 0.000263445 0.0873171
0.239698 -0.0410147 -0.0416343
-0.159751 0.15816 0.172324
-0.250062 0.296824 -0.141243
-0.250062 -0.122748 0.0475385
-0.272333 0.338317 -0.212489
0.209825 -0.191965 0.217671
0.22415 0.104499 -0.119543
0.0604157 0.00522178 0.212489
0.187829 0.0172385 -0.156776
-0.273384 0.34003 -0.153619
-0.20272 0.33169 -0.177657
0.120942 0.261724 -0.129295
-0.242707 -0.238402 0.143457
0.0834994 0.261724 0.0954666
0.208602 0.0588187 0.0599333
0.22415 0.0804477 -0.0533137
0.22415 0.12701 0.165941
-0.250062 -0.201455 -0.0987541
-0.00794259 0.100047 -0.172324
0.208602 0.134733 -0.0621155
0.182738 -0.238402 -0.135279
0.235232 -0.0168433 -0.0867171
0.0220293 0.0973412 0.172324
0.208602 0.142012 0.0906925
-0.250062 0.00205527 0.136098
0.0663094 -0.0682333 -0.172324
0.0450337 0.0363538 -0.212489
0.0527115 -0.213785 -0.0758459
0.192151 -0.137434 0.212489
-0.273384 0.308449 -0.119797
0.22415 -0.225118 -0.153602
-0.0119477 0.146982 0.172324
-0.049855 0.261724 -0.0631746
-0.222919 0.0553376 0.202123
0.0790268 0.173524 -0.212489
-0.190461 -0.0630103 -0.0747184
0.109551 0.00388655 0.157638
-0.20767 0.0856888 0.202123
0.129755 0.257837 0.0913663
-0.257837 -0.245686 -0.176487
-0.250062 0.0930298 -0.0141181
0.0730246 -0.318309 -0.212489
-0.190461 -0.165309 -0.0960117
-0.250062 0.158586 0.103242
-0.190462 -0.0989853 0.0962122
0.22415 0.289027 -0.0089179
0.22415 0.301226 -0.0630441
0.0154917 0.178545 -0.212489
0.0974641 0.261724 0.0315935
0.113595 0.257837 -0.0233773
0.239698 0.101517 0.154021
0.045359 0.018139 -0.0105839
0.164238 -0.156034 0.156776
0.208602 0.0481414 0.0896673
0.208602 -0.248084 -0.0749472
0.134246 0.264015 -0.156776
0.234838 -0.0626726 0.151592
-0.191398 0.33169 -0.176562
-0.0761392 0.261724 -0.087568
-0.201018 0.357405 0.212489
-0.109311 0.123356 -0.156776
0.234515 0.147282 0.079233
0.0589225 0.091305 0.212489
-0.268644 0.357603 -0.175446
0.157532 -0.123599 0.156776
0.168391 0.253339 0.156776
-0.174914 0.053767 0.120134
-0.099839 -0.238402 0.155485
-0.190462 0.107483 0.0927762
-0.257837 -0.0029873 0.0734072
-0.257837 -0.0975574 -0.0110261
0.0260882 0.261724 -0.101185
-0.178622 0.169732 -0.166146
-0.0393374 0.297023 0.212489
0.0264283 0.0741764 0.156776
-0.257486 -0.0745851 0.202123
0.208602 -0.0783478 -0.0919831
-0.173691 0.257837 0.0603718
-0.109224 0.018139 -0.0444187
-0.0836852 -0.238402 -0.200787
-0.00569201 -0.209897 0.016397
0.13599 -0.153562 -0.202123
-0.0966962 0.257837 0.0624664
-0.15341 0.309663 -0.17151
-0.257837 0.0203201 -0.149085
0.182559 -0.171159 -0.172324
-0.038359 0.273873 0.212489
-0.0354137 0.303769 -0.172324
-0.185707 0.309663 0.0931503
-0.18284 -0.00686903 -0.202123
0.129255 -0.134626 -0.202123
0.214416 0.00388655 -0.0710101
0.00385511 -0.154581 0.156776
0.22415 0.275184 0.00935112
0.239698 0.247577 0.0332674
0.0604285 -0.111003 -0.202123
-0.190461 -0.0662745 -0.0899533
0.234515 0.0541408 0.0949858
-0.160117 -0.238402 -0.201084
0.22415 0.299899 0.00765845
0.229438 -0.0764444 -0.0541965
-0.155308 0.0923082 0.212489
-0.250062 0.268703 0.0522748
0.22415 -0.20697 -0.0066938
-0.250062 -0.248145 0.0379848
-0.146394 -0.123344 0.202123
0.0511414 0.257837 0.128238
-0.257837 0.197846 0.0810957
-0.174914 0.262726 0.0599208
0.208602 -0.0489736 0.19182
0.208602 0.0394929 -0.104969
0.0798007 -0.237215 -0.202123
0.22415 0.301243 -0.041644
0.22415 -0.172891 -0.11188
0.183502 -0.221706 0.156776
0.122497 -0.0641454 0.156776
-0.207015 0.0419027 -0.212489
-0.250062 0.195401 -0.103981
0.0566434 -0.238402 0.116781
0.0144523 0.309663 -0.159487
0.22415 0.334589 0.0371294
-0.16614 0.261724 0.0638552
0.239698 0.325167 -0.173542
-0.0394619 0.169732 -0.172149
-0.0774584 0.202209 -0.202123
-0.239454 0.357603 0.211378
-0.251884 0.342055 0.148017
0.215681 0.144756 -0.217671
-0.079136 -0.238402 0.112207
-0.0394112 0.33169 0.184763
0.0380604 0.0898434 -0.212489
0.208602 0.291283 0.138136
-0.0437957 0.261724 -0.0194015
-0.0633979 0.0998255 0.202123
-0.0603337 0.0142518 -0.149278
-0.257837 0.323072 -0.0731476
-0.174914 0.137858 0.10646
0.239698 0.174404 0.0478472
0.1455 0.190207 -0.202123
-0.250062 0.184199 0.157995
0.0599432 0.357603 0.202448
-0.229023 -0.238402 0.114507
-0.257837 -0.167598 0.116181
-0.0567892 -0.213785 -0.100386
0.261759 0.327932 -0.118612
-0.174914 0.249381 -0.109242
-0.10797 0.257837 -0.048145
-0.250062 0.0615601 0.00939236
-0.147549 0.162028 0.156776
0.22415 -0.254743 -0.162385
0.14121 0.261724 0.0732034
0.155443 0.0142518 0.0254162
0.205773 0.247471 -0.162936
-0.0637556 -0.213785 0.138007
-0.133815 -0.0999275 0.202123
-0.174914 -0.163296 0.0540195
-0.169769 0.018139 0.137748
0.132994 0.28305 -0.202123
0.209216 -0.00735126 0.217671
-0.128484 0.342055 -0.20027
0.239698 -0.243092 0.0129311
0.22415 0.253082 0.111179
-0.257837 0.0405404 -0.01158
0.218264 0.357603 0.0926278
-0.180216 0.342055 0.18762
0.0269864 0.0142518 0.113026
-0.257837 0.229924 0.0594379
0.162463 0.0924461 0.212489
-0.053656 0.144441 -0.202123
0.208602 0.350239 0.143997
-0.250062 0.131298 -0.13192
0.0965461 -0.213785 -0.0982994
-0.273385 -0.282423 0.0994279
-0.0729717 0.261724 0.0727134
0.22415 -0.102721 0.108098
-0.226751 -0.068845 -0.202123
-0.214286 -0.238402 -0.139698
-0.174914 0.0372327 -0.0183542
0.22415 0.0424574 -0.0983629
0.0905423 0.29083 0.202123
0.0289948 -0.213785 0.0235989
0.208602 -0.00562166 -0.192854
0.22415 -0.253763 0.202887
-0.208748 0.340429 0.212489
0.121209 -0.148085 -0.172324
0.0224094 0.0764929 -0.172324
0.182895 -0.209897 0.0251603
0.22415 -0.0668416 0.180929
-0.00480803 0.0233647 0.202123
0.116453 0.122287 -0.156776
-0.197208 0.33656 -0.139932
-0.161916 -0.238402 -0.139194
0.0843787 -0.221706 0.202123
0.22415 -0.200995 -0.0863538
0.208602 0.154114 -0.062609
0.0291277 0.172162 0.212489
0.112172 -0.119853 -0.202123
0.133352 0.16534 0.212489
-0.250062 -0.11855 0.155958
-0.174914 -0.0667767 -0.143474
0.208602 0.336465 -0.166462
-0.0753843 0.018139 -0.0124749
0.22415 0.294782 0.206016
0.00725034 0.0160242 -0.202123
0.208602 -0.218363 0.0338454
0.0380069 -0.354272 -0.212489
0.0392904 0.144622 -0.156776
-0.273385 0.299419 0.198667
0.213477 0.309663 0.047143
0.127079 -0.238402 0.0513011
0.239698 0.0190475 0.032751
-0.110744 0.261724 -0.0122986
-0.0234158 0.319712 -0.202123
0.139819 -0.196353 -0.172324
-0.257837 -0.12036 0.0383114
0.0292518 -0.213785 0.0189476
0.109659 -0.15294 -0.172324
0.22415 0.134666 0.17674
0.239698 0.327599 -0.0803243
0.0529831 -0.289316 -0.212489
-0.190462 -0.111654 0.103035
-0.153421 0.357603 0.211405
0.22415 -0.151316 0.064178
0.111354 0.018139 -0.0674002
0.112048 0.0986684 -0.202123
0.144191 0.0142518 -0.0551082
0.163347 0.112652 0.156776
-0.0207538 0.167131 -0.202123
0.234515 0.140786 -0.0571926
0.208602 -0.103523 -0.113397
0.0135634 0.281854 0.172324
-0.257837 0.193291 -0.00957472
0.208602 0.260861 -0.1149
-0.247988 0.357603 -0.204448
-0.0271819 -0.213785 0.13488
-0.144166 -0.225774 -0.212489
0.0735578 -0.213785 -0.0523668
-0.226702 0.170826 0.202123
0.0368172 0.0867765 0.172324
-0.0446674 0.33169 -0.181122
0.22415 -0.142587 0.179326
-0.257837 0.274725 0.148025
-0.174433 0.151037 -0.172324
0.197234 0.261724 0.0931911
-0.257837 0.162357 0.181843
-0.159823 -0.209897 0.124916
0.076589 0.0142518 -0.0839345
-0.266439 -0.00091982 -0.212489
0.234515 0.28465 0.131512
-0.0539322 0.257837 -0.0234485
0.0733426 -0.28005 -0.212489
0.184688 0.018139 0.146047
0.22415 0.0811816 0.0513402
0.239698 0.0996396 -0.154419
0.0720944 0.247491 0.156776
-0.271952 0.357603 0.0673256
-0.257837 -0.136258 -0.0910609
-0.13364 0.108101 0.172324
-0.250062 0.197584 0.0276969
-0.198603 -0.0377999 -0.202123
-0.0360172 -0.158216 -0.156776
-0.250062 -0.0753808 -0.00151511
0.204995 0.105346 0.172324
0.22415 0.198951 -0.173979
0.208602 -0.0588423 -0.0198314
0.208602 -0.0951186 -0.106997
0.239698 -0.0315329 -0.121355
0.208602 0.222597 0.03631
-0.0564121 0.235094 -0.202123
-0.174914 0.168553 0.151298
0.131867 -0.209897 0.0410948
-0.0222212 -0.0170259 -0.202123
0.239698 0.183483 0.097544
-0.0347658 0.160883 -0.202123
-0.0982039 0.0939762 0.202123
0.0458786 0.263222 0.212489
0.0180372 0.131876 -0.172324
0.151593 0.163802 0.212489
0.0375944 0.138005 0.202123
0.146717 0.0142518 -0.134704
0.159367 -0.323942 -0.118907
0.0181606 0.018139 0.150488
0.159367 -0.296621 0.114027
-0.0842655 -0.228943 -0.202123
-0.0207241 0.261724 0.00146822
-0.273385 -0.318475 0.127493
0.151998 0.0687148 -0.156776
-0.250062 0.0854624 0.055757
-0.250062 -0.113941 0.107112
-0.0347729 0.018139 -0.11074
0.108835 0.342055 0.159127
-0.0842503 0.0142518 -0.0803101
0.208602 0.109535 -0.024814
0.211978 0.357603 -0.206093
0.193063 -0.0413701 -0.202123
-0.175088 -0.22415 -0.104792
0.22415 0.265844 -0.09979
-0.190462 -0.113771 0.151603
0.0620924 -0.256649 -0.212489
-0.0535433 -0.238402 -0.0164422
0.166658 0.0142518 0.149027
0.22415 0.252833 -0.197185
0.138659 0.261724 0.0343844
0.208602 -0.0229543 -0.00646511
-0.190462 0.1052 0.103482
-0.0284213 0.173525 0.212489
-0.187422 0.268983 0.202123
0.174878 0.168432 -0.172324
0.239698 0.0147041 -0.152427
-0.0288815 0.257837 -0.0824282
-0.14298 0.150407 0.172324
0.22415 -0.0962238 0.115295
0.162322 -0.209897 -0.0684124
0.0979526 0.304771 0.156776
0.205981 0.142492 -0.172324
0.00840175 -0.0952883 -0.202123
-0.190461 -0.206578 -0.131021
0.0307537 0.0627638 -0.156776
0.234515 0.0802224 -0.150881
0.0958263 0.259088 0.156776
0.177241 -0.0986808 -0.156776
-0.0815994 -0.209471 0.172324
-0.10529 -0.276224 -0.212489
0.208602 0.0618492 0.00960772
-0.190462 0.160292 0.0796508
-0.0568962 0.018139 -0.100154
0.0990942 0.307961 -0.212489
-0.174914 0.278771 -0.133921
0.208602 0.106055 -0.007627
0.208602 0.0528317 0.0914987
-0.257837 -0.205289 0.112507
-0.00880878 -0.112643 -0.202123
0.208602 -0.16936 -0.0698525
0.0684752 0.0213482 0.156776
-0.0760005 -0.133299 -0.202123
-0.250062 0.128233 -0.017408
0.159367 -0.286198 0.0253675
-0.190461 0.0781037 -0.07785
-0.190462 0.30569 0.1243
0.208602 0.0967255 0.0965084
-0.139601 -0.238402 0.0236721
0.155035 -0.213785 0.100413
-0.166139 0.257837 0.0405134
0.0321279 0.018139 -0.0641486
0.189327 0.261724 -0.0321734
-0.0872809 -0.161075 -0.212489
-0.174914 0.0563307 0.0429796
-0.140861 0.353411 0.202123
0.208714 0.169732 0.167077
-0.174914 -0.117866 -0.0251926
-0.250062 -0.144484 -0.0237068
-0.158502 -0.103345 -0.156776
-0.0292492 0.0142518 0.145979
-0.0702334 0.00388655 -0.158748
-0.273385 -0.313422 0.148034
-0.107321 -0.0887074 0.172324
0.00562421 0.00431314 -0.156776
-0.182158 0.342055 0.19681
0.208602 -0.00812918 -0.0701548
0.107698 -0.209897 0.0747271
-0.181973 -0.170784 0.156776
-0.199462 0.288 -0.212489
0.239698 0.259431 0.0391105
-0.0194844 0.352846 0.202123
-0.250062 0.201395 -0.0954137
0.0830168 0.0265418 0.202123
-0.18376 -0.0177689 -0.212489
-0.0212577 -0.0961844 -0.212489
0.22415 -0.238332 0.0362063
-0.04895 0.261724 0.0468841
-0.0316816 -0.297871 -0.212489
-0.131012 -0.0292395 -0.212489
-0.103111 -0.0829517 0.212489
0.20004 -0.209897 0.0670934
-0.134597 -0.0622434 -0.172324
0.0643945 0.11419 0.202123
-0.250062 -0.00931572 0.173879
-0.0261907 -0.209897 0.0263236
-0.23814 -0.252469 -0.202123
-0.178013 0.00388655 0.16098
0.22415 -0.0517333 -0.187962
-0.257837 -0.0800242 -0.196598
0.239698 -0.249651 0.0999167
-0.250062 0.091144 0.062556
0.22415 0.326536 -0.0265086
0.16882 0.10938 0.212489
0.0996309 -0.238402 0.106141
-0.257837 0.273124 0.196475
-0.250062 -0.116545 0.154722
0.19471 0.346657 0.212489
0.0173738 -0.281581 0.212489
-0.0260029 0.275719 0.172324
0.0225475 0.257837 0.0533975
0.196489 0.342055 0.154105
0.199379 0.257837 -0.0622907
0.0428648 -0.161015 0.202123
-0.257837 0.285867 -0.0744276
-0.218656 -0.202189 0.202123
-0.16355 -0.213785 -0.156387
0.22415 -0.182019 -0.0685359
0.22415 0.0819012 0.0893056
-0.257837 -0.181983 0.104188
-0.0792883 0.0142518 0.0489036
0.0495863 -0.0989695 0.212489
-0.161546 -0.22332 0.202123
0.22328 0.222854 -0.111022
-0.174914 0.157688 -0.0725482
-0.174914 -0.067171 0.0158757
0.0940208 0.237112 0.202123
-0.17013 -0.218094 0.202123
0.161935 -0.264315 0.208117
0.0406968 0.018139 0.112222
0.239698 0.089607 0.198334
-0.0458757 0.254694 -0.202123
0.22415 0.249684 0.12494
0.00183482 0.138613 -0.212489
0.205078 0.171084 0.202123
0.156412 0.139899 -0.202123
-0.250062 -0.113201 0.0871436
-0.273384 0.322504 -0.0477363
-0.0872538 0.0406128 0.202123
-0.0967521 0.33169 0.197697
-0.0519283 -0.0667913 -0.202123
0.184907 -0.213785 -0.12719
-0.141603 0.247472 0.160026
0.22415 -0.236364 0.133137
0.22415 0.121931 0.0309331
-0.190462 -0.148479 0.0583244
-0.2715 0.0885347 -0.202123
-0.113419 -0.0803424 -0.202123
-0.257837 -0.206478 -0.123341
0.22415 -0.0532468 -0.117187
0.22415 0.170477 -0.203045
0.0937549 0.33169 -0.178145
0.232856 0.0683527 0.151592
0.0535327 -0.308576 0.212489
0.122895 -0.0809891 -0.172324
-0.257837 0.0929971 0.059561
0.22415 0.160091 -0.040098
0.22415 0.105858 0.0205976
0.22415 -0.0887018 -0.0243856
0.22415 0.208551 -0.0254241
-0.133906 0.289346 -0.212489
-0.0288336 0.018139 0.0995552
-0.19016 -0.215423 -0.202123
-0.0425 0.0142518 0.0756768
-0.223946 -0.069343 0.202123
0.0110778 -0.213785 0.0941744
-0.255503 -0.0709798 0.202123
-0.257669 0.33169 -0.0266779
-0.174914 -0.131883 0.0343441
-0.166852 0.18937 0.202123
-0.174914 0.0232341 -0.130324
0.208602 0.342902 -0.0336868
-0.15067 0.261724 -0.156607
0.0613356 -0.238402 0.124867
-0.190462 -0.199887 -0.168926
-0.0316923 0.288206 0.212489
0.239698 0.315737 0.134986
0.196034 0.00388655 0.169753
0.142679 0.0142518 -0.0686082
0.0780246 -0.200347 -0.212489
0.208602 0.0297973 -0.153247
-0.257837 -0.210121 -0.0974896
0.119726 0.261724 -0.092728
0.0132882 0.257837 -0.145866
-0.0245266 -0.213785 0.0953607
0.00104279 -0.0415238 0.212489
0.194578 -0.213764 -0.172324
0.234515 0.102197 0.0374489
0.0756392 0.261724 0.0859389
-0.000357628 0.117919 0.212489
-0.273384 -0.277142 -0.00758984
-0.0774037 -0.137885 0.172324
0.197743 -0.0153454 0.212489
-0.257837 0.253202 0.0800942
-0.190462 -0.191029 0.0961288
-0.0859618 0.0803987 -0.202123
0.239698 -0.208158 -0.200579
-0.250062 0.00247279 -0.166125
-0.0430636 0.018139 -0.0364764
-0.168563 -0.240249 -0.202123
-0.174914 0.0386144 -0.0361973
0.00982276 0.15184 0.202123
-0.257837 0.276779 -0.0740578
0.22415 0.256522 0.0188274
0.144068 0.0142518 -0.104199
0.120566 -0.0548696 -0.212489
0.119833 0.0142518 -0.0950021
-0.158131 -0.22812 -0.202123
-0.234817 0.0237869 0.212489
-0.0844693 0.261724 0.0619727
-0.257837 0.00463464 0.169769
-0.145798 -0.218701 -0.172324
-0.104228 -0.213785 -0.0532762
0.22415 0.276687 -0.0176994
0.163193 -0.213785 0.0571863
0.208602 -0.224348 -0.202406
0.156298 0.018139 -0.0381478
0.142019 0.184748 0.212489
-0.0695331 -0.213785 -0.153179
-0.237338 -0.0748108 0.202123
0.22415 0.334809 -0.0197298
0.206777 0.196979 0.202123
-0.0989684 -0.248613 0.202123
-0.119097 -0.209897 0.0186697
0.208602 0.278371 -0.189777
0.138389 -0.284725 0.212489
-0.175402 0.309663 -0.043486
0.117409 0.264731 0.212489
-0.190461 -0.0915328 -0.0531166
-0.171294 -0.0609064 -0.172324
-0.0123913 -0.151039 0.172324
-0.250062 0.140754 0.0449811
-0.190462 0.289257 0.171344
0.0226221 0.261724 -0.0858998
-0.257837 0.163796 0.0114388
0.0307551 0.202735 -0.202123
0.159876 0.33169 -0.186421
0.132167 -0.213785 0.124728
0.219961 0.00388655 -0.102756
0.0589183 0.0729536 0.202123
0.151108 0.161946 0.212489
0.22415 0.0940698 0.00251581
0.159367 -0.285193 -0.150058
0.22415 -0.0433266 0.130058
0.0580271 -0.216195 0.212489
-0.250062 -0.0660835 0.11364
0.182574 0.257837 -0.0287889
-0.174914 -0.076167 0.0704222
0.22415 -0.0990388 0.14691
-0.250062 0.248772 0.024081
-0.190461 0.105607 -0.0793715
0.097371 0.018139 0.0235411
0.0474797 -0.217098 -0.212489
0.22415 -0.162766 -0.209418
0.223895 -0.0362786 -0.0753129
-0.174914 0.149973 0.145322
-0.273384 0.355202 -0.0826787
0.208602 -0.078473 0.215747
0.208778 -0.00518294 -0.182794
0.0873121 -0.181635 -0.156776
-0.257837 -0.237811 0.133027
0.00824204 -0.19052 0.172324
0.194046 0.257837 0.119882
-0.24493 0.0739528 -0.212489
0.135777 -0.108803 0.212489
-0.244097 0.217524 0.202123
-0.112275 -0.203592 -0.172324
