ply
format ascii 1.0
comment Created by Open3D
element vertex 1601
property double x
property double y
property double z
end_header
-0.116208 -0.0303604 0.164561
0.121441 -0.236293 0.169246
0.0798937 -0.0303604 -0.0290421
-0.192861 -0.135783 -0.182163
-0.212523 -0.00066538 0.0247928
-0.186669 0.404354 0.156962
0.144171 -0.0303604 0.151807
-0.185339 -0.198537 0.182163
0.063187 -0.0303604 0.0468678
-0.212523 -0.20333 -0.0107556
-0.0288283 -0.247023 0.182163
-0.187284 0.385103 -0.0813631
0.171772 -0.0426097 -0.182163
-0.147987 -2.57365e-07 -0.126841
-0.186339 0.271155 0.133506
-0.192879 -0.0303604 -0.120463
0.192282 -0.0396536 0.0385814
-0.159275 0.17593 0.163436
-0.0853056 -0.0479765 0.182163
-0.209443 -0.0607206 0.127339
0.121441 -0.232241 -0.157277
0.141926 -0.0303604 -0.189354
-0.19431 0.270358 0.041655
-0.184439 0.346358 -0.061243
-0.1953 -0.404805 -0.156053
-0.0867943 -2.57365e-07 0.166041
0.119709 -0.0042345 -0.112128
0.173133 -0.206204 0.151802
-0.00348882 -0.259824 0.151802
0.121441 -0.402745 -0.152327
0.174204 -0.214023 -0.151802
-0.163314 0.216327 0.16668
-0.206521 0.343271 0.1518
0.0552279 -2.57365e-07 -0.146641
-0.182162 -0.0314125 0.131568
-0.192842 0.206478 -0.0308865
0.171898 -0.0607206 0.118207
-0.212372 0.078256 -0.158831
-0.172099 -0.0303604 0.128509
0.116572 -0.00592369 0.0413434
-0.0987018 -0.0210443 -0.184768
0.161922 -0.210811 -0.124191
0.148978 -0.203751 -0.151802
0.153174 -0.0800055 -0.151802
0.166057 -0.306275 -0.151802
0.142126 -0.177742 -0.151802
0.0556524 -0.0101145 0.194123
0.167138 -0.276687 0.151802
-0.182931 0.266549 0.182163
0.190698 -0.0303604 -0.105605
0.0890285 -2.57365e-07 0.147285
0.161922 -0.0491602 0.110437
-0.182359 0.016844 0.151802
-0.182162 -0.224453 -0.00161907
0.189027 -0.0607206 0.0738801
0.183897 -0.232763 -0.105064
0.184408 -0.0303604 -0.110738
-0.181548 -0.298678 0.182163
0.044269 -0.0303604 0.188421
0.148973 -0.0952367 0.182163
-0.0419055 -0.00136306 -0.0237902
0.133289 -0.204576 -0.151802
-0.197308 -0.0220627 0.182163
0.13314 -0.00500296 -0.106765
-0.187525 0.143113 -0.151802
0.0706495 -2.57365e-07 -0.168465
0.133266 -0.0478951 -0.151802
-0.130626 -0.242883 -0.179299
-0.106209 -0.0303604 0.0344628
-0.146811 0.0512917 0.156632
-0.182162 -0.218639 -0.0895855
-0.183296 -0.0607206 0.128741
0.212523 -0.0225331 -0.0404342
0.00155523 -0.0303604 0.180048
-0.185513 -0.232763 -0.12371
-0.155189 -2.57365e-07 -0.100942
0.183259 -0.309559 0.151802
-0.20361 0.230307 -0.182163
-0.182162 -0.0508812 0.0723769
-0.212523 -0.221986 0.113841
0.0395295 -0.0598499 0.171796
0.121441 -0.105561 -0.154816
0.166767 -0.0527819 0.182163
-0.177787 -0.319049 0.182163
-0.186053 -0.342342 -0.151802
-0.212372 -0.157077 -0.156095
-0.0174508 -0.0303604 0.113749
-0.201915 -0.119375 -0.151802
-0.186671 0.364102 -0.0475602
-0.169665 0.0657091 -0.182163
0.0339012 -0.242883 -0.155972
-0.118358 -2.57365e-07 0.0143031
-0.171011 0.202786 -0.151802
-0.144654 0.0297237 0.160732
-0.186377 0.366126 -0.0623858
0.140535 -0.0294777 -0.199267
0.161922 -0.225647 0.0601629
-0.156247 -0.397374 0.182163
-0.192784 -0.0607206 0.112375
-0.212372 -0.389849 -0.16184
-0.185608 0.340818 0.00972682
-0.212372 0.122505 0.168354
0.121441 -0.257401 0.179196
-0.0566692 -0.0303604 0.162122
0.161922 -0.224641 0.0132579
-0.170017 -0.0233564 -0.182163
0.121441 -0.0928925 0.179891
0.161922 -0.205774 -0.107238
-0.212523 -0.219568 -0.132732
0.124605 -0.000190506 -0.140354
0.161922 -0.214632 0.14808
0.0965558 -2.57365e-07 0.189129
0.212523 -0.0131949 0.130891
-0.208457 -0.232763 0.00277625
-0.11687 -2.57365e-07 -0.0199445
0.010063 -0.242883 -0.15461
0.142059 -0.176743 0.151802
0.0602868 -0.0303604 -0.170397
-0.182162 -0.224858 0.131949
-0.171616 -0.0303604 0.0761139
0.0238422 -2.57365e-07 -0.18561
0.212523 -0.00975576 0.0800603
0.106132 -0.257922 0.151802
0.156327 -0.321892 0.151802
-0.120776 -0.0303604 0.0993755
-0.100934 -2.57365e-07 0.108492
-0.121444 -0.0303604 0.162051
-0.201719 0.284346 0.182163
-0.16511 -0.0303604 0.0654946
-0.166865 0.228307 0.128438
-0.17248 0.213763 0.0223636
-0.15049 -2.57365e-07 -0.0364081
-0.185422 0.3378 -0.00628112
-0.19324 0.270465 -0.0795114
-0.117264 -0.00167708 0.183643
0.0269443 -2.57365e-07 0.167318
-0.190916 -2.57365e-07 0.0354907
0.143829 -0.0303604 0.0375298
-0.176569 0.259966 0.0382751
0.0720781 -0.0391586 0.182163
0.163115 -0.0510811 0.151802
-0.201229 0.018297 -0.151802
-0.154185 -0.178171 0.182163
0.0434687 -0.0303604 -0.103569
-0.118406 -0.0303604 0.149885
-0.212523 -0.210864 0.00476394
0.190176 -0.202403 0.0573916
0.167317 -0.0623544 0.182163
-0.143095 -0.375412 0.151802
-0.0573165 -0.0303604 0.15511
-0.197447 0.25253 -0.00518698
0.192282 -0.224059 -0.18174
-0.00892173 -0.0303604 -0.187929
0.178536 -0.202403 0.113481
0.178736 -0.00674375 0.0792294
0.192282 -0.202411 -0.153558
0.100278 -0.0613566 -0.179725
-0.203686 0.107486 0.151802
0.0261483 -0.0303604 0.186868
-0.188598 -0.202403 -0.107663
-0.212372 0.198179 0.171189
0.141425 -0.161699 -0.151802
-0.212523 -0.0530723 0.117668
-0.141682 -0.025435 0.175902
0.212523 -0.0188036 -0.124893
0.175658 -0.129962 -0.151802
-0.0809987 -0.0524039 0.182163
-0.125908 -0.0303604 0.163292
-0.14633 -0.301783 0.182163
-0.212523 -0.038268 -0.064379
0.212523 -0.0157484 0.0534551
0.169397 -0.0607206 0.0614491
0.122641 -0.0303604 0.0308454
-0.212372 -0.0892158 0.167179
0.189412 -0.232763 0.0459935
0.0566545 -0.0581089 -0.151802
-0.191837 -0.216736 -0.151802
0.150089 -0.207811 0.151802
-0.161828 -0.347437 0.182163
-0.212523 -0.0601342 0.0355693
-0.189928 0.389106 -0.024956
0.0898995 -0.00182152 0.00841112
0.15501 -0.0303604 -0.0347105
-0.182294 -0.254884 -0.182163
-0.190989 -0.232763 -0.0304043
0.0100102 -0.259036 -0.151802
-0.178074 -0.312073 -0.151802
0.154374 -0.00153926 0.13094
-0.212372 -0.309424 0.154436
0.160149 -0.114456 -0.151802
0.134148 -0.38225 -0.151802
0.0557383 -0.258843 0.151802
-0.0988009 -0.242883 -0.165276
0.163718 -0.0607206 -0.0106469
-0.210295 0.381019 0.0839338
-0.0531877 -0.254045 0.182163
-0.00283024 -0.0303604 -0.00385907
0.121441 -0.294185 -0.154376
-0.160404 -0.376581 -0.182163
0.187026 -0.0607206 -0.00585258
-0.0415443 -0.259117 -0.151802
0.121441 -0.0378593 0.169159
0.121441 -0.163503 -0.176547
-0.212372 -0.069141 -0.160743
0.192137 -0.0607206 0.0617674
0.104085 -2.57365e-07 -0.187781
-0.141682 -0.0936874 0.158158
-0.154843 0.13161 0.167422
0.0869675 -0.242883 -0.152131
-0.107286 -0.0598499 0.173504
0.192282 -0.0353009 -0.149863
-0.173463 0.26313 0.0974899
-0.185324 -0.246607 -0.182163
-0.0428625 -0.269592 -0.151802
-0.0263604 -0.00542504 -0.0546601
-0.104231 -2.57365e-07 0.0140336
-0.0799232 -0.273243 -0.181171
0.192282 -0.041001 0.0391015
0.0242959 -0.0303604 -0.16372
-0.148439 -0.33005 0.151802
-0.172791 0.247736 -0.0888826
-0.183171 0.200278 0.0847291
-0.206267 -0.16605 -0.151802
-0.169242 0.254755 0.131098
-0.210212 0.223153 -0.182163
-0.156535 0.131302 0.182163
0.130042 -0.00674375 -0.0606433
0.149203 -0.0480592 0.182163
-0.182287 -0.382314 0.151802
-0.0409053 -0.0303604 0.0266265
0.212523 -0.0196657 0.134714
-0.203997 -0.232763 -0.066381
-0.194288 -0.288316 -0.151802
0.192282 -0.089919 -0.174451
-0.19209 -0.0303604 -0.143664
0.121441 -0.120676 0.153389
0.133538 -0.248394 -0.182163
-0.145453 0.0377145 -0.155925
-0.0941993 -0.242883 0.154258
-0.191781 0.206328 0.182163
-0.212372 0.193426 0.163443
0.187024 -0.0607206 0.109933
-0.182162 -0.211602 -0.12493
-0.0226993 -0.0303604 0.15666
-0.142254 -0.0539353 0.182163
0.188119 -0.228478 0.182163
-0.192155 0.197968 -0.182163
-0.180384 -2.57365e-07 -0.0869752
-0.140859 -0.0303604 -0.172397
0.111163 -0.00410022 -0.113066
-0.141682 -0.33397 -0.164594
-0.212523 -0.20535 0.0990908
-0.025802 -0.243942 -0.151802
-0.141682 -0.269566 0.152632
-0.204206 -0.0288295 0.182163
-0.151545 0.00780136 0.182163
-0.209954 0.201132 -0.182163
0.057137 -0.0613566 -0.178962
-0.17991 0.335135 0.104975
-0.197525 0.403269 0.109568
-0.093031 -0.0303604 0.00915456
0.0862227 -0.0303604 -0.175939
0.00394587 -0.00578726 -0.101291
0.0602476 -2.57365e-07 -0.189502
-0.0318821 -0.000856814 0.124674
-0.0760319 -0.0303604 0.168778
-0.0647074 -0.0303604 0.0162848
0.153365 -0.0303604 -0.0273849
-0.107779 -0.254973 0.151802
-0.159926 -0.294235 0.182163
0.144905 -0.0303604 0.146355
0.101383 -0.242883 -0.152973
-0.200444 0.0242848 -0.151802
-0.170877 0.0265448 -0.151802
-0.182162 -0.225098 0.13129
-0.0187526 -0.0471836 0.151802
-0.162435 0.207528 -0.173568
-0.196164 0.239705 -0.135818
0.118133 -0.0280354 -0.197909
-0.0599404 -2.57365e-07 0.171917
-0.188599 -0.299939 0.182163
-0.168666 0.207501 0.151802
-0.0824846 -0.0598499 0.164989
-0.178121 0.177626 -0.182163
0.0108657 -0.0561025 -0.182163
-0.212372 -0.0610496 -0.162317
0.0108844 -0.242883 -0.166151
-0.180062 -0.0303604 0.0236329
-0.200252 0.264488 0.182163
-0.212372 0.196972 -0.156394
0.201058 -0.0303604 0.0909917
0.129549 -0.400031 0.151802
-0.210407 -0.0303604 -0.0810486
-0.172398 0.209385 0.0117525
-0.0168228 -0.0303604 0.179132
0.133999 -0.00674375 -0.0547645
0.0267665 -0.0546794 -0.151802
-0.212523 -0.204253 -0.146359
-0.0424599 -0.0303604 0.134163
-0.189166 0.199679 0.0866448
-0.0783116 -2.57365e-07 0.00731462
-0.202615 0.0762492 -0.151802
0.108471 -0.273243 0.173891
0.121441 -0.0922979 0.165521
0.147216 -0.29589 -0.182163
-0.208734 -0.202403 -0.132899
0.0149162 -0.0020123 0.127639
-0.178405 0.367231 0.177004
-0.161909 -0.00479905 0.151802
-0.212523 -0.0445176 0.116827
-0.114964 -0.00117763 -0.0493131
0.0595915 -0.0303604 0.0985241
-0.193919 0.217253 0.0613838
-0.210247 0.247222 0.151802
0.15142 -0.108216 0.151802
0.0975219 -0.242883 -0.175232
-0.195906 0.237126 0.00597117
-0.185709 -0.217602 -0.151802
-0.10564 -0.00415994 0.184347
-0.20408 0.232068 0.182163
-0.192891 0.206975 0.0426622
-0.196706 0.403351 -0.129466
-0.141682 -0.378352 -0.159409
-0.19048 -2.57365e-07 0.141225
-0.188549 0.399393 -0.0829922
0.195651 -0.00583737 -0.100941
0.185056 -0.338618 -0.151802
-0.190246 -0.0555111 -0.151802
-0.208193 -0.0605005 -0.151802
-0.177495 0.343554 -0.137321
-0.0301477 -0.0303604 0.154275
-0.212372 0.0704327 -0.169669
-0.062455 -0.0303604 0.0882466
-0.206822 0.346282 -0.0263055
-0.171183 0.255546 0.112605
0.161922 -0.0337897 0.0962363
-0.194668 0.270322 0.0247429
-0.141682 -0.154759 -0.177646
0.127134 -0.0891724 0.151802
0.14688 -2.57365e-07 0.165581
-0.0108609 -0.242883 -0.178701
-0.159063 0.104239 -0.182163
-0.166693 0.208585 -0.110555
-0.212372 -0.138217 0.173265
0.0727721 -0.0303604 -0.0915512
-0.212523 -0.0489909 0.127344
0.0948548 -0.0463698 0.182163
0.198385 -0.00303197 -0.0211259
-0.167253 -0.3342 -0.182163
0.101006 -0.0303604 0.157443
-0.169756 -0.383991 0.182163
0.142108 -0.231923 -0.151802
-0.20924 -0.292505 -0.151802
-0.175923 -0.129809 0.151802
0.00398238 -0.00613165 -0.0427949
0.170678 -0.0947273 -0.151802
-0.175096 0.215666 -0.151802
0.174016 -0.225698 -0.182163
-0.141682 -0.000515507 -0.179055
-0.128601 -0.257148 0.151802
-0.18223 0.382952 0.151802
-0.180803 0.129052 -0.151802
0.0238241 -2.57365e-07 0.15782
-0.190114 -2.57365e-07 -0.0540216
-0.179878 0.381969 -0.181512
0.192282 -0.0374644 -0.0870297
0.0309897 -0.273243 0.170726
-0.172221 -0.0303604 0.131673
-0.193715 -0.173735 -0.151802
-0.210755 0.183008 -0.151802
-0.182162 -0.0332741 0.0746133
0.197843 -0.00221752 -0.126206
-0.212372 -0.33792 0.166447
0.061677 -2.57365e-07 0.170488
0.198011 -0.0303604 -0.119757
0.0897122 -0.0303604 0.089702
0.0333573 -0.242883 -0.155118
-0.128522 -2.57365e-07 0.0128001
0.182763 -0.202403 -0.0327805
-0.212372 0.00366347 -0.165237
-0.199793 -0.36157 -0.182163
-0.181364 -0.101316 0.182163
-0.177269 -0.358555 -0.182163
0.0435199 -0.0303604 0.175839
0.183122 -0.202403 0.114745
-0.0978886 -0.244104 -0.151802
-0.0145488 -0.00597477 0.0493076
-0.0293432 -0.0303604 0.0489909
0.161922 -0.214475 -0.0379042
-0.187392 -0.0607206 0.0412601
-0.201098 0.0589553 -0.182163
0.121441 -0.402661 -0.174249
-0.0526742 -0.273243 0.179913
-0.18011 0.384288 0.175156
0.143364 -2.57365e-07 0.192076
0.178918 -0.00674375 -0.0677685
0.137741 -0.0303604 -0.0166718
0.17141 -0.00296608 0.0204337
-0.0275049 -0.00502153 0.044625
-0.212372 -0.306861 0.161116
0.161922 -0.047356 0.0860611
-0.121177 -0.0303604 -0.140983
0.0979782 -0.0303604 -0.149418
0.121441 -0.183002 -0.178936
0.212523 -0.0275508 0.153593
0.0731833 -0.263572 -0.182163
0.192282 -0.233709 -0.177293
-0.0465965 -0.0303604 0.00817351
-0.0751172 -0.0115678 -0.186197
-0.18375 0.399398 -0.130658
-0.0165063 -0.0303604 -0.104877
-0.197932 -0.0607206 0.0906044
-0.193756 0.215617 -0.0924591
0.111126 -0.0303604 -0.173209
-0.184442 -0.0303604 0.137826
-0.196713 -0.202403 -0.00927979
-0.171448 -0.288239 0.151802
0.0177977 -2.57365e-07 0.184914
0.192282 -0.227032 0.167183
-0.198 -0.134298 -0.182163
0.192282 -0.0339782 0.111318
-0.0530429 -0.0613566 -0.175189
-0.141682 -0.0126142 -0.160748
0.179678 -0.0630075 0.182163
0.170557 -0.0319113 0.182163
0.186757 -0.340827 -0.151802
-0.170748 0.248661 0.110083
0.110469 -0.0303604 -0.158707
0.161922 -0.0507692 0.0514107
-0.210572 -0.0487017 -0.151802
0.144669 -0.00576719 0.040251
0.195224 -2.57365e-07 -0.174537
0.186952 -0.202403 -0.00672753
0.192282 -0.0470448 0.00978815
-0.181563 0.39882 -0.170907
-0.183007 0.386871 -0.151802
-0.141682 -0.306967 -0.15471
-0.193536 0.332474 0.00335347
0.126429 -0.026719 0.198412
-0.148111 0.0642927 0.154116
-0.100491 -0.273243 0.163685
0.168703 -0.0776775 0.151802
-0.141682 -0.363669 -0.177195
-0.0575779 -2.57365e-07 -0.176022
-0.178694 -0.249225 0.182163
0.0277408 -0.273243 0.164774
0.145104 -0.00169642 0.00630848
-0.150412 0.0707779 -0.182163
-0.106357 -0.253685 -0.182163
0.178472 -0.235956 -0.151802
0.0784345 -0.00674375 0.0480136
-0.20655 0.343569 -0.0786944
-0.194153 0.00122991 -0.151802
-0.204215 -0.0303604 -0.113805
0.00372847 -0.0108687 0.190976
0.179225 -0.287238 0.182163
-0.141682 -0.254136 -0.152164
-0.108822 -0.252075 -0.151802
0.161922 -0.0547336 -0.133733
0.0539491 -0.0111957 -0.194019
0.175186 -0.232763 -0.0178977
-0.193689 0.21495 -0.138246
-0.199701 -0.404805 -0.171604
0.142749 -0.0303604 -0.185484
0.123171 -0.0976376 0.151802
-0.194102 0.21908 0.084675
-0.171486 0.173465 -0.151802
-0.193831 -2.57365e-07 -0.101652
-0.195533 0.250726 0.151802
-0.199462 0.331881 -0.114868
0.151095 -0.193862 0.151802
-0.135668 -0.0466509 -0.182163
-0.211266 -0.202403 -0.118034
-0.210401 0.0604766 -0.182163
0.171439 -0.202403 0.134419
-0.175774 0.270796 0.0821519
0.18436 -0.357616 0.182163
-0.212372 0.0498864 0.179645
-0.185851 0.333242 0.135144
-0.194409 0.222149 0.0450515
-0.164943 -2.57365e-07 0.0612734
0.172942 -2.57365e-07 -0.200828
-0.150586 -0.0303604 -0.0333047
-0.212372 -0.154516 0.161948
-0.196752 0.177125 0.151802
0.121441 -0.274964 -0.180048
0.200303 -0.00275251 0.0181903
-0.212523 -0.0273496 0.0659548
-0.17973 0.372692 -0.144057
0.179889 -0.120497 -0.151802
0.161922 -0.205838 0.0126134
-0.180367 0.31589 -0.151802
-0.146122 0.044398 -0.180951
0.166524 -0.0303604 0.133359
0.101756 -0.0336925 -0.182163
-0.182162 -0.23109 -0.0182321
-0.0582801 -0.0246851 0.187218
-0.0566985 -0.0303604 -0.0889523
0.111894 -0.00674375 -0.0783249
-0.134337 -0.24785 0.182163
-0.193645 -0.0533252 -0.151802
0.193574 -2.57365e-07 0.179346
0.165263 -0.232763 -0.0986743
0.00134366 -0.242883 -0.156451
-0.0679052 -0.253094 0.151802
-0.208213 0.194154 -0.151802
-0.0873425 -0.2673 0.182163
-0.198581 -0.0451628 -0.151802
0.161922 -0.215752 -0.0262831
0.0809886 -2.57365e-07 -0.187318
0.131967 -0.294693 0.151802
-0.163054 -0.0669672 0.151802
-0.0785577 -0.260987 0.182163
0.170565 -0.0303604 -0.0148131
-0.185395 -2.57365e-07 -0.0921913
0.0706681 -0.273243 -0.166129
-0.202952 0.177865 0.182163
-0.147493 -0.352669 -0.151802
-0.188254 -0.348991 -0.182163
0.0342752 -0.0303604 0.132684
-0.174145 -0.307336 -0.182163
0.208174 -0.00674375 -0.0571156
0.0618373 -0.0508331 0.182163
-0.0541946 -0.0303604 -0.11298
0.100148 -0.273243 -0.158297
-0.105655 -0.0303604 -0.171273
-0.197122 -0.0303604 0.0665277
0.2034 -0.0303604 -0.00792581
-0.189902 0.403918 -0.0699938
-0.212372 -0.00352044 -0.169577
0.119227 -0.057292 -0.151802
-0.00759916 -0.00830711 0.190289
-0.192734 -0.0303604 0.0625136
0.0373307 -0.05719 0.151802
0.0224947 -0.000791255 0.136161
0.025412 -0.0303604 -0.141446
0.211462 -0.00566882 -0.0395645
-0.163965 -0.309695 -0.182163
-0.136121 -0.266048 0.182163
-0.179336 0.116008 -0.151802
-0.180494 -0.125403 0.182163
-0.141682 -0.395569 0.164011
0.0602015 -0.00524772 0.0366252
0.160151 -0.329395 0.151802
-0.148886 -0.389836 -0.182163
-0.211387 -0.0607206 -0.00427282
0.161922 -0.217886 0.109589
0.192282 -0.211021 0.020196
-0.205577 -2.57365e-07 0.00477404
0.191032 -0.131812 0.151802
0.045511 -0.0303604 -0.160492
0.121441 -0.361665 0.154221
0.143965 -0.00309093 -0.12011
-0.209668 0.308672 0.182163
-0.191672 0.403854 -0.0631287
0.0308485 -0.0303604 0.13373
-0.186994 0.375752 -0.0727184
0.121441 -0.174687 -0.16097
-0.212372 -0.162611 -0.176078
0.0991782 -0.273243 -0.163731
-0.205972 0.0290021 0.151802
0.124754 -0.0303604 -0.1604
0.121441 -0.403974 0.163803
-0.20557 0.0260459 0.182163
-0.16935 -0.297104 0.182163
-0.184141 0.334168 -0.182163
0.102975 -0.273243 -0.182152
-0.18666 -0.00756828 0.182163
-0.180204 -2.57365e-07 0.0333888
0.186657 -0.202403 -0.0465355
-0.0270357 -0.243529 -0.182163
-0.130833 -0.242883 0.179757
0.163357 -0.332553 0.182163
0.176911 -0.226255 0.182163
-0.00983059 -0.0303604 -0.181962
-0.192052 0.259342 -0.151802
0.0664795 -2.57365e-07 0.167785
-0.0927162 -2.57365e-07 0.152009
-0.160001 -0.35075 0.182163
-0.209007 0.368137 0.0919928
-0.191377 0.369336 -0.151802
0.0963994 -0.242883 0.173142
-0.212372 -0.236759 -0.174847
0.17028 -0.202403 -0.0297977
-0.141682 -0.156411 -0.172231
-0.163628 -0.0731094 -0.182163
0.160869 -0.00674375 0.0739016
0.114628 -0.267226 -0.151802
-0.0626294 -0.0586106 0.182163
-0.0543363 -0.026731 0.187457
0.103859 -0.0613566 -0.15759
-0.115783 -0.242883 0.159393
0.121441 -0.272178 0.163026
0.173572 -0.233154 0.151802
-0.169986 -0.404805 0.167259
-0.0886195 -0.0303604 -0.117071
-0.1615 -0.404805 -0.171504
-0.141682 -0.0423938 -0.178924
-0.207104 0.349105 0.0600694
0.212523 -0.00982769 0.0527948
-0.212372 -0.382872 0.152788
-0.195178 0.211538 -0.151802
0.150611 -0.081557 -0.151802
-0.211193 0.389996 -0.123217
-0.212372 0.285492 -0.162882
0.121441 -0.270587 -0.156837
-0.126644 -2.57365e-07 0.0155992
0.152567 -0.276451 0.182163
0.161922 -0.0588758 -0.127092
-0.207149 -0.0602369 -0.151802
-0.145732 0.040503 0.166144
-0.204598 -0.222163 0.182163
0.186881 -0.318318 -0.182163
-0.156831 -0.116033 0.182163
-0.183333 -0.262787 -0.182163
-0.019106 -0.0303604 -0.162666
-0.212523 -0.0266241 -0.0836885
0.146347 -0.0303604 0.126017
0.155786 -0.183187 -0.182163
0.180809 -0.283147 0.151802
0.0383351 -0.00674375 0.0551703
0.192621 -0.0303604 -0.131858
-0.160752 -0.289477 0.182163
-0.18982 -0.0962365 -0.182163
0.121441 -0.15167 0.163542
-0.0313713 -0.0303604 0.153831
0.121441 -0.0410796 -0.173395
-0.212372 0.308549 0.161937
0.173685 -0.232244 0.151802
0.185473 -0.0303604 0.17037
-0.172028 -0.0952595 -0.182163
0.192282 -0.394246 -0.175159
-0.116879 -0.000505689 -0.0974007
0.1642 -0.202403 0.014996
0.121441 -0.367209 -0.154664
-0.158602 -0.348724 -0.182163
0.179068 -0.146249 -0.182163
0.145559 -0.0303604 0.172313
-0.182162 -0.223367 -0.130686
-0.18165 0.389687 0.14187
0.134856 -0.0303604 0.108124
-0.137295 -0.0303604 -0.0334361
0.0322856 -0.0303604 -0.0242544
-0.189775 -0.206506 -0.151802
0.167227 -0.148183 -0.182163
0.192282 -0.146624 -0.17738
-0.212372 0.193633 -0.15697
0.15866 -0.343836 0.182163
0.0626706 -0.0598499 0.178228
-0.212372 0.074516 0.173514
-0.212372 -0.28802 -0.179022
0.0457991 -0.0598499 0.173112
-0.167529 -0.276502 0.151802
0.0567951 -0.0303604 -0.0566248
-0.181473 0.381766 0.182163
0.120201 -0.00674375 0.0833173
-0.190363 -0.0118962 -0.151802
0.12559 -0.380384 0.182163
-0.11384 -0.245574 0.182163
-0.191816 -0.0303604 0.1514
-0.190902 -2.57365e-07 -0.0295269
0.17123 -0.267872 -0.182163
0.192282 -0.205707 0.0347552
-0.117998 -0.0303604 -0.0888827
-0.150366 -0.0303604 -0.133212
-0.0252527 -0.250218 0.151802
0.185569 -0.208589 0.182163
-0.193469 0.212757 -0.0618888
-0.0503911 -0.0303604 -0.177971
0.185565 -0.195237 0.151802
-0.177212 -0.404805 0.173462
-0.189604 -0.232763 0.0760152
-0.182725 -0.0909409 0.182163
-0.212523 -0.217682 0.0968935
-0.206591 0.317181 0.182163
0.186229 -0.344645 -0.182163
0.00092081 -0.273243 -0.170806
-0.209133 -0.147114 -0.182163
0.192282 -0.144337 0.163495
-0.0912137 -0.000842341 0.185222
-0.19754 -0.232763 0.137119
0.0955362 -0.265835 0.151802
-0.145713 -0.0303604 -0.123693
-0.182162 -0.0407461 -0.115532
0.0999035 -0.0521018 0.182163
-0.0388986 -2.57365e-07 -0.145008
-0.0836341 -2.57365e-07 0.156454
0.147513 -0.28132 0.151802
0.210102 -0.00141584 -0.131802
-0.138208 -0.0504314 -0.151802
-0.148185 -0.325593 0.182163
0.106506 -0.0303604 -0.17246
-0.117465 -0.0574838 0.182163
0.178482 -0.232763 -0.103486
-0.141682 -0.209741 0.174125
0.182168 -0.346465 -0.182163
0.0866593 -0.0303604 -0.0156265
0.201926 -0.0303604 0.0811786
-0.171509 -0.255768 -0.151802
-0.18669 -0.0607206 0.0439943
-0.212523 -0.0397058 -0.0853165
0.192282 -0.378513 0.175454
0.192282 -0.331164 0.163679
0.121441 -0.274565 0.178285
-0.200899 -0.230282 -0.182163
0.192282 -0.214295 -0.125194
-0.198015 -0.202403 -0.0548138
0.0830147 -0.242883 -0.172879
0.0807607 -0.0303604 0.0430589
0.121441 -0.0315694 -0.160551
-0.0121996 -2.57365e-07 -0.185129
-0.17956 0.378784 -0.166755
-0.141682 -0.232908 -0.155185
0.0631654 -2.57365e-07 -0.162736
-0.144043 -0.131299 -0.151802
0.088384 -0.00169642 0.00625182
-0.0630713 -0.0303604 -0.0438536
0.160161 -0.101725 0.151802
-0.158315 0.0267436 -0.182163
-0.121267 -0.0303604 -0.0188085
-0.0113383 -0.0303604 -0.110878
0.181912 -0.23442 0.151802
-0.0188971 -0.0057724 0.0742835
-0.212372 -0.245269 0.180027
0.0698213 -0.0303604 0.166121
0.192282 -0.226051 -0.0630291
0.112198 -0.0303604 -0.0338413
-0.0887169 -0.242883 0.153693
-0.209026 0.368323 -0.102937
-0.199558 -0.356038 0.182163
-0.184083 -0.0607206 0.0935311
-0.182162 -0.207917 0.0327175
-0.11633 -0.247042 -0.151802
0.192282 -0.0617569 0.151954
0.16956 -0.0041157 0.0287239
-0.0621594 -0.00375892 -0.0653915
-0.172117 0.0915133 -0.182163
-0.0944775 -0.0169213 0.185024
0.140414 -2.57365e-07 -0.154277
-0.141682 -0.0214206 0.163652
-0.095868 -0.0303604 0.0230119
0.100116 -0.0303604 0.167561
0.173103 -0.0303604 0.0284158
0.161922 -0.0375078 0.0947087
-0.187966 -0.0447186 -0.151802
-0.183358 0.345514 -0.151802
0.123641 -0.00674375 -0.0840619
-0.20854 0.377367 0.182163
-0.176028 0.248959 0.021531
-0.158613 -0.263277 -0.182163
0.203242 -0.0303604 0.19473
-0.145867 -0.320893 -0.182163
-0.14376 -0.221456 0.182163
-0.192997 0.209651 -0.151802
0.162194 -0.0303604 0.104021
0.187462 -0.0303604 0.119886
0.121441 -0.343753 0.164705
-0.212372 0.129147 0.155995
-0.178675 -0.0580563 0.151802
-0.0386209 -2.57365e-07 -0.132333
0.152524 -0.0303604 0.179073
-0.212372 -0.233124 -0.181134
-0.198984 -2.57365e-07 -0.0999827
-0.212523 -0.000527477 -0.107924
-0.184069 -0.218592 0.151802
0.0500289 -0.00643969 -0.0967368
0.163405 -0.16061 0.182163
0.141543 -0.0303604 0.0410737
0.0689708 -0.25986 -0.182163
-0.211664 0.394699 0.0807936
0.11249 -0.255483 -0.151802
-0.212372 -0.045445 -0.169993
-0.212523 -0.037168 0.0863334
-0.181222 0.395404 -0.181125
-0.187225 -0.335574 0.151802
-0.200435 0.368015 -0.182163
0.177002 -0.122004 0.151802
-0.210983 -0.0607206 -0.0612667
-0.212372 0.15574 0.167829
0.138529 -0.390008 -0.151802
0.0184955 -0.0303604 -0.171693
-0.0736728 -2.57365e-07 0.135692
0.160061 -0.00293194 -0.0200751
0.121441 -0.128323 0.153252
-0.0842201 -0.000264874 0.0298639
0.169888 -0.0303604 -0.0883621
-0.168014 0.17033 -0.182163
-0.0967682 -0.0303604 0.0546762
0.17257 -0.0303604 0.0963046
0.0162502 -0.00442056 -0.0308518
0.163489 -0.234799 0.182163
-0.212372 0.104017 0.152035
0.140501 -0.378045 -0.151802
0.121008 -0.242883 0.163769
-0.193099 0.209047 -0.0505853
-0.0774742 -0.00304615 -0.0594934
0.192282 -0.077748 0.158461
0.0414063 -0.262314 0.182163
0.14785 -0.0936955 -0.182163
-0.152511 -0.295095 0.182163
-0.175164 -0.0691245 -0.151802
-0.0182881 -0.0303604 0.0189215
0.180813 -0.0303604 0.0125976
-0.185858 -0.0303604 -0.0739091
-0.16054 -0.0303604 -0.147251
-0.180473 0.375937 -0.139906
0.142956 -0.111755 -0.151802
0.110741 -0.0303604 -0.0689086
-0.168847 0.0942099 -0.182163
-0.0867066 -0.273243 -0.17517
0.169054 -0.182537 -0.182163
-0.0599017 -0.26988 -0.182163
0.121441 -0.202329 0.153244
0.16854 -0.0607206 -0.0621125
0.121441 -0.0563082 -0.170681
-0.212372 0.0395418 0.165277
0.0317895 -0.0303604 0.0423728
0.192282 -0.052959 -0.122891
0.174148 -0.254061 0.182163
-0.168182 0.227517 -0.114572
-0.212372 -0.289542 -0.180237
0.204754 -0.0303604 -0.142062
0.0598435 -0.00438573 0.111073
-0.066345 -0.242883 0.177127
0.212523 -0.0196708 -0.141045
-0.212523 -0.229983 0.0532918
-0.141682 -0.210776 -0.171914
-0.00124499 -0.00439138 -0.109971
-0.161972 -0.0160035 -0.151802
-0.0869391 -0.262904 -0.182163
-0.180734 0.345556 -0.107137
-0.149343 0.0766064 -0.160136
-0.188735 -0.278446 0.151802
0.0480563 -0.0598499 0.155837
0.10936 -0.00128219 0.132735
0.109192 -0.00249289 0.197367
-0.199732 0.403048 -0.0913327
0.172285 -0.0150037 0.201191
-0.00609223 -0.0303604 -0.0140675
-0.183956 -0.0303604 0.00549802
-0.161588 -2.57365e-07 0.0272558
-0.182162 -0.220798 -0.0662417
0.0838404 -0.273243 -0.173009
-0.117037 -0.0303604 0.0381107
0.0328083 -0.273243 0.153884
0.177855 -0.313972 0.151802
0.160878 -0.000388463 -0.138972
-0.165762 0.14574 -0.151802
0.110818 -0.0303604 0.129844
-0.0263367 -0.00877694 0.189154
-0.10414 -0.0303604 0.125052
-0.141682 -0.0673949 -0.181411
-0.100907 -0.269575 -0.151802
0.147907 -0.329436 0.151802
0.163314 -0.202403 0.0440967
0.149252 -2.57365e-07 0.194827
0.110431 -0.0421681 -0.182163
-0.200936 -0.202403 -0.148581
0.186445 -0.0303604 -0.00554236
0.168621 -0.327075 -0.151802
-0.209571 0.37377 -0.014312
0.192282 -0.226011 0.0236831
0.0802284 -0.0303604 0.0891987
-0.00568274 -0.00435394 -0.108792
-0.138019 -0.257975 0.151802
-0.15671 -0.278679 -0.151802
0.127844 -0.178403 0.151802
0.175871 -0.00674375 0.0530034
-0.148809 0.0444824 -0.151802
-0.212372 -0.198623 0.175784
0.192282 -0.281608 0.166542
-0.158924 0.11229 0.182163
0.0699393 -0.00634486 0.0973988
-0.143468 0.0178611 0.173697
0.192282 -0.0568917 -0.00601019
0.161922 -0.0340411 -0.0773476
-0.212523 -0.00375696 -0.0573905
-0.0366583 -0.0303604 0.0706694
-0.192973 0.270492 0.136755
-0.18294 0.382278 0.121704
-0.171559 -0.143949 0.182163
0.200313 -0.00235292 -0.013993
-0.202087 -0.346745 -0.151802
0.169231 -0.326127 0.182163
-0.063615 -0.00290297 0.0415711
-0.212087 -0.0308671 0.151802
-0.184456 -2.57365e-07 0.115103
-0.10361 -0.00182975 -0.0577443
-0.102747 -0.0303604 0.0382867
0.192282 -0.219881 -0.0450589
0.211457 -0.00581301 -0.101111
0.121441 -0.276378 0.166872
0.212523 -0.00797037 0.0773991
-0.149134 -2.57365e-07 0.0546829
-0.138253 -0.0612776 -0.151802
-0.0900949 -0.0363661 -0.182163
-0.207909 0.357154 0.0389194
-0.190546 0.395445 0.182163
-0.060178 -0.242883 0.164257
0.159265 -0.044624 -0.182163
0.0780759 -0.0303604 0.110234
0.0333226 -2.57365e-07 0.1806
0.172125 -0.195445 0.151802
0.191956 -0.349845 -0.151802
-0.0824503 -0.0303604 0.104134
0.0224467 -0.0303604 0.114969
-0.144009 -0.0193118 0.151802
-0.207259 -0.0303604 -0.12591
0.186786 -0.308526 -0.182163
0.0546428 -0.0303604 -0.000208199
-0.192991 0.339935 -0.182163
-0.193769 0.215747 -0.121423
0.121441 -0.287083 -0.175023
-0.197788 0.255938 0.106813
-0.192471 0.202767 -0.0224128
-0.0294338 -0.0598499 0.159494
-0.19486 -0.0607206 0.110406
0.133756 -0.0303604 0.0409663
0.161981 -2.57365e-07 -0.177942
0.151881 -0.0303604 0.0115997
0.163419 -0.232763 -0.0749043
-0.0943905 -0.0303604 -0.0867558
-0.124066 -2.57365e-07 0.0214225
-0.154646 -0.115576 0.182163
0.0986571 -0.0303604 -0.152444
-0.1745 -0.152606 0.182163
0.148381 -0.35192 0.182163
-0.182585 0.244085 -0.151802
0.10351 -0.00545626 0.103601
0.197795 -0.00674375 -0.0811194
-0.212031 0.230385 -0.151802
0.180424 -0.395442 -0.182163
-0.18941 0.377494 0.00573573
-0.193266 0.210726 0.00373402
-0.158409 -0.217325 0.182163
0.065534 -0.266072 0.182163
0.19647 -0.0303604 0.130242
-0.0754966 -2.57365e-07 -0.153156
0.0189225 -0.032275 0.151802
-0.190529 -0.0303604 -0.0912407
0.160473 -0.095642 0.151802
0.138488 -0.0353913 0.151802
0.187873 -0.0607206 -0.0348877
0.163165 -0.0303604 0.153418
0.195298 -0.0303604 -0.0815521
-0.212372 0.111959 -0.163969
-0.0245407 -0.0303604 0.00441815
-0.117022 -0.0303604 -0.159525
0.157626 -0.0303604 0.14014
0.212523 -0.0163338 0.129607
-0.193513 0.257351 -0.151802
-0.206437 -2.57365e-07 -0.0311472
0.142629 -0.250917 0.182163
-0.212523 -0.21582 -0.110132
-0.192361 0.201675 0.138909
0.180266 -0.0303604 0.0187388
0.184522 -0.119192 -0.182163
-0.159697 0.180152 -0.172549
-0.206373 -0.0303604 -0.106524
-0.198204 0.117987 -0.182163
0.172893 -0.188943 0.182163
0.161922 -0.05695 0.0659935
-0.212372 -0.177398 -0.151838
-0.18908 0.199687 -0.00465823
0.13198 -0.193741 0.182163
-0.186797 0.333148 0.134222
0.182246 -0.149628 -0.182163
0.147689 -0.0303604 -0.169089
-0.18492 -0.0303604 0.0565505
-0.184873 -0.249045 -0.151802
-0.206579 0.343854 0.0845406
-0.0248213 -0.00434937 -0.0390677
-0.112134 -0.0303604 -0.00357381
0.0942379 -0.0303604 -0.161525
-0.185437 0.200051 -0.139769
-0.212372 -0.045661 -0.152056
0.133508 -0.00807049 0.198841
-0.194351 0.221569 0.135739
0.173279 -0.0303604 -0.0634624
0.173358 -0.202403 -0.0648017
0.185522 -0.202403 0.0944102
-0.115496 -0.0303604 0.0260051
0.0423847 -0.0303604 -0.162145
-0.174047 0.200995 -0.182163
0.0283695 -0.273243 0.180277
0.152655 -0.0303604 -0.0738309
-0.182162 -0.227361 0.123604
0.0830527 -0.00620416 0.0983808
0.174011 -0.173265 0.151802
0.0737844 -0.0303604 -0.0822628
-0.119364 -0.000286817 0.0965015
-0.101288 -0.00265143 -0.184611
0.17966 -0.232763 -0.0340392
-0.181504 0.346724 0.100654
-0.190469 -0.376144 -0.151802
-0.0725672 -0.0303604 -0.160715
-0.186306 0.345147 0.00182718
0.0313326 -0.253176 0.151802
0.192282 -0.258479 -0.182003
-0.210677 -0.202403 0.00678794
-0.00116215 -0.0303604 -0.117792
0.0586051 -0.0359962 0.151802
-0.212372 -0.233594 0.172065
-0.184791 -0.0303604 0.0292512
0.130536 -0.145733 0.182163
-0.192876 -0.0607206 0.0707845
-0.0693459 -0.00279256 0.042661
-0.148008 -0.0303604 -0.0728407
-0.161533 -0.0303604 0.026091
0.178524 -0.0607206 0.102661
0.122618 -0.338654 -0.182163
-0.177326 0.262061 -0.0218867
0.160691 -0.261679 0.182163
-0.211308 -0.248338 0.151802
-0.166906 0.223884 -0.151802
-0.199522 0.0491353 -0.151802
0.101043 -0.0303604 0.118946
-0.098701 -0.243345 0.182163
-0.212372 -0.364559 -0.168039
-0.204848 -0.330611 -0.182163
-0.0569988 -0.0365556 0.151802
-0.141682 -0.0336481 0.17755
-0.205638 -0.232763 -0.0661362
-0.187458 -0.0303604 0.0200317
0.121441 -0.259091 -0.178964
0.192282 -0.0595077 0.139295
-0.185733 -0.0303604 -0.0247753
-0.159623 -0.165612 -0.182163
0.15184 -0.0303604 -0.170275
-0.163583 0.0609804 -0.182163
-0.212523 -0.222064 -0.083971
-0.169083 -0.0303604 0.110223
-0.205145 -0.202403 -0.148526
-0.179944 -0.0539181 -0.151802
-0.160413 -0.0303604 -0.105114
0.143508 -0.0467469 0.182163
-0.19904 0.268461 -0.00615194
0.185488 -0.0303604 0.179126
0.177792 -0.403986 0.151802
0.161922 -0.227533 0.0308069
-0.184683 -0.0383247 -0.151802
-0.0617299 -0.0378844 -0.182163
-0.123968 -0.24946 -0.151802
0.164266 -2.57365e-07 0.200465
-0.212523 -0.0423565 -0.140867
-0.146454 -0.0303604 -0.111293
-0.0781644 -0.262839 -0.151802
-0.173524 0.318419 0.179831
-0.121282 -0.0395104 -0.182163
-0.0825091 -0.0303604 -0.170969
-0.146947 0.0526466 -0.164933
-0.188687 -0.232763 0.00309468
-0.134239 -2.57365e-07 -0.0375444
-0.141682 -0.272407 -0.167326
0.159096 -0.404805 -0.155452
-0.201353 -0.0303604 0.0944438
-0.212523 -0.0449917 0.0655648
-0.181861 -0.133113 0.151802
-0.189929 -0.232763 -0.0861183
-0.175975 0.245633 -0.0131842
-0.193797 -0.0303604 -0.0151085
-0.178092 0.350406 0.138196
-0.155047 -0.101912 0.182163
0.183653 -0.0303604 -0.180881
0.0674121 -0.0303604 0.105539
-0.116345 -0.0303604 0.15193
0.144619 -0.22128 -0.182163
-0.156869 0.151876 0.177707
-0.0460563 -0.0250889 0.187958
0.102845 -0.00674375 -0.091675
0.0291643 -0.0303604 0.186481
0.0800342 -0.00255226 0.0160869
0.0420095 -0.0303604 0.0766371
-0.0857385 -0.0016863 -0.040267
0.0354691 -0.00513064 -0.105874
-0.199924 0.108769 -0.151802
-0.141682 -0.260696 -0.17463
-0.108683 -0.0303604 -0.113012
0.187157 -0.00201221 0.0104142
-0.0300485 -0.0303604 -0.0860331
-0.198434 0.227942 -0.151802
0.128086 -0.0303604 0.169314
0.0169453 -0.263363 -0.182163
0.0359105 -0.00342315 0.0238901
-0.165343 0.0105903 -0.182163
-0.107998 -0.0303604 -0.0495441
-0.179198 0.00121119 0.151802
-0.182162 -0.228777 0.0380008
-0.170641 0.248844 -0.111337
-0.21144 -0.210785 -0.151802
-0.0582823 -0.0303604 0.0693603
-0.173752 0.272414 -0.105138
0.0758731 -0.0303604 0.0551668
0.192282 -0.0583628 0.0232846
-0.19395 0.217558 -0.0787257
0.174893 -0.0303604 0.173204
0.11324 -0.0303604 -0.148604
-0.212372 -0.215678 -0.178322
-0.194222 0.220279 0.126859
0.0690301 -0.00177162 -0.129318
0.0100219 -0.00262605 0.123355
0.192282 -0.217556 0.0720086
0.165118 -0.202403 0.0622731
0.170306 -0.0303604 -0.178153
-0.189642 0.3941 -0.0484298
-0.212523 -0.210136 0.10174
-0.0162881 -2.57365e-07 -0.162246
-0.209351 -0.0607206 0.129379
0.164679 -0.202403 0.144048
0.0746399 -0.0303604 -0.172683
0.145421 -0.133751 -0.182163
-0.141682 -0.0194059 -0.180429
-0.182453 0.379589 -0.12387
-0.0868771 -0.0303604 0.161738
-0.176985 0.00671161 -0.182163
-0.0696229 -0.0489086 -0.151802
-0.182162 -0.208792 -0.0183789
-0.182162 -0.226501 0.0509699
-0.0180487 -0.0303604 -0.0560441
0.175179 -0.404805 0.155254
0.192282 -0.0885626 -0.170588
-0.207184 0.155297 0.151802
0.0448513 -2.57365e-07 -0.148693
-0.0191473 -0.0041189 -0.0356197
-0.144967 0.0328508 -0.177976
-0.0719739 -2.57365e-07 0.159358
0.121441 -0.141571 0.175787
0.0678649 -0.263771 -0.182163
-0.097457 -2.57365e-07 -0.158805
-0.207965 -0.0234384 -0.182163
0.174479 -0.0303604 -0.160958
-0.0333833 -0.017656 0.188726
-0.207704 0.355105 -0.0929387
0.0915356 -0.0303604 0.15322
-0.141924 -0.293297 -0.151802
0.148277 -0.0303604 -0.180655
-0.196798 0.332148 0.0709675
0.18416 -0.202664 0.151802
0.147164 -0.0303604 0.0121171
0.0526018 -2.57365e-07 -0.178786
0.141319 -0.0303604 -0.0884049
0.142963 -0.285375 0.151802
-0.150721 -0.21363 0.151802
0.121441 -0.290162 0.167111
0.0747 -2.57365e-07 -0.16671
0.194874 -0.00515334 -0.105715
0.121441 -0.128378 0.157478
-0.0566652 -0.273243 0.162795
0.14378 -0.100153 -0.182163
-0.188539 0.390307 0.0700526
0.0740703 -0.0472121 -0.151802
-0.197129 0.266573 -0.182163
-0.0728789 -0.0303604 0.080654
0.170319 -0.202403 0.0954065
-0.199286 0.184317 -0.151802
-0.19924 -0.183243 0.182163
-0.160947 0.192655 -0.160373
-0.0165461 -0.268133 -0.151802
-0.0927055 -0.00233727 -0.0797932
-0.182162 -0.0375404 -0.0664487
0.0424116 -0.0303604 0.0251013
-0.210075 0.353941 0.182163
0.0830584 -0.0303604 0.16387
-0.178111 0.261745 -0.182163
-0.202005 -0.232763 -0.131932
-0.212372 0.341336 0.157272
0.187104 -2.57365e-07 -0.144512
-0.212372 -0.0876811 -0.168024
0.141579 -0.146173 0.182163
0.118447 -0.273243 -0.180526
-0.0595578 -0.00388 0.0932164
-0.182162 -0.203192 -0.0380963
-0.191829 0.0354724 -0.182163
-0.0842526 -0.0598076 0.151802
0.122951 -0.193485 0.151802
0.173772 -0.0607206 0.0313542
-0.212372 -0.155301 0.154722
-0.200213 -0.127712 0.151802
-0.206126 -2.57365e-07 -0.124354
-0.141682 -0.364787 0.154614
-0.182162 -0.0407593 -0.020144
-0.141682 -0.244494 -0.163866
-0.199327 -0.106368 -0.182163
0.192282 -0.222377 0.092723
-0.205065 -0.384798 0.151802
-0.194825 -0.320813 0.182163
-0.159706 -0.107615 0.151802
-0.166846 0.0843584 -0.151802
-0.186805 -2.57365e-07 -0.146572
0.175918 -0.376728 -0.182163
0.192282 -0.0424753 -0.0644301
-0.0829164 -0.0385101 -0.182163
0.150857 -0.373946 0.151802
0.201159 -2.57365e-07 0.181779
-0.207793 0.303558 0.151802
-0.0138191 -0.254504 0.182163
-0.189141 0.187828 0.151802
0.17767 -0.169309 0.151802
-0.182162 -0.045408 -0.0154004
-0.174978 -0.0582448 -0.151802
0.0582432 -0.268341 0.182163
-0.208204 -0.0303604 -0.0220685
0.162007 -0.404805 0.169651
-0.195666 0.23472 -0.141598
-0.0502214 -0.0598499 0.169524
-0.212372 0.315799 0.173872
0.192282 -0.337909 0.164593
0.161922 -0.0517739 0.134805
-0.187218 -0.0303604 0.115267
-0.155391 0.137095 0.160146
0.161922 -0.227142 0.0241309
-0.149111 -0.101745 -0.151802
-0.046225 -0.00624278 0.187948
-0.193564 -0.0687398 0.182163
0.0536209 -0.0194032 0.193999
-0.175853 0.159155 -0.151802
-0.164343 -0.113499 0.151802
-0.207513 -0.0607206 -0.0700865
-0.212372 -0.361519 -0.164789
-0.141682 -0.0733945 0.18018
0.024146 -2.57365e-07 0.14905
-0.187328 0.256149 0.151802
-0.212372 -0.312835 0.153841
0.121441 -0.132966 0.180765
-0.195586 0.233926 -0.0119847
-0.127595 -2.57365e-07 0.0128302
0.175118 -0.39096 0.151802
-0.184855 0.350613 0.061512
-0.173256 0.315743 0.170138
-0.0811792 -0.00287371 -0.056911
0.159171 -0.107744 0.182163
0.111149 -0.0351452 -0.182163
-0.18636 0.345776 -0.00208256
0.125554 -0.250143 -0.182163
-0.00423393 -0.0303604 -0.0227405
-0.187668 -0.0303604 0.051523
-0.146593 -0.404805 -0.164705
-0.173358 0.260515 0.151802
0.175737 -0.0303604 -0.13469
0.0648041 -0.0303604 -0.0774305
-0.210584 0.109476 -0.151802
-0.187315 0.199864 0.000919275
-0.00902377 -0.0533721 0.151802
0.071784 -0.0441517 -0.151802
-0.148802 -0.078165 0.151802
-0.020217 -0.0303604 0.163551
-0.0106148 -0.0303604 0.0764748
-0.0176518 -2.57365e-07 0.147209
0.192282 -0.219019 -0.0973477
-0.200528 -0.202403 0.0500268
0.187802 -0.228192 0.182163
-0.0246743 -0.00126735 0.0156634
-0.187983 0.362577 0.00377843
0.192282 -0.195113 0.179851
0.161922 -0.208553 -0.00982101
-0.212372 0.0584718 0.160944
0.121441 -0.301458 0.180834
-0.212523 -0.0129511 -0.0238829
0.187293 -0.284174 -0.182163
0.0535503 -0.0303604 0.189
0.173104 -0.0607206 -0.128345
0.192282 -0.0373795 0.164144
-0.17402 -0.295499 0.182163
-0.179937 0.382557 -0.174718
-0.170559 -0.404805 0.163469
0.176612 -0.165957 0.182163
0.116814 -0.0358492 -0.182163
-0.168486 0.201746 -0.151266
-0.212523 -0.0533215 -0.095617
0.0778729 -0.00674375 0.0670877
-0.164849 0.231669 -0.17452
-0.198064 -2.57365e-07 0.108574
0.169628 -0.0303604 -0.177145
0.184063 -0.0607206 -0.104258
0.117495 -0.00480737 -0.10813
0.121441 -0.310262 0.167568
-0.183021 0.174939 0.182163
-0.172873 0.132202 0.151802
0.0870326 -0.242883 0.177384
-0.20153 -0.0894653 0.151802
-0.0878235 -0.0303604 0.0445637
0.165115 -0.297724 0.182163
0.176929 -0.232763 0.112115
0.0917401 -0.0303604 0.123059
0.0140265 -0.00674375 0.0901891
-0.186533 -0.404805 -0.16545
0.0540865 -0.0303604 0.0936546
0.163118 -2.57365e-07 0.166068
0.192282 -0.377877 -0.176342
0.211673 -0.006575 -0.0957924
-0.198564 -0.202403 0.135424
0.121441 -0.254744 0.166867
-0.155144 0.134625 0.181121
-0.20924 -0.0303604 -0.0240015
0.141616 -0.115093 0.182163
0.205159 -2.57365e-07 -0.165464
0.155955 -0.321264 -0.151802
-0.212372 -0.0222908 0.16613
-0.20236 -0.0607206 -0.0204737
0.172089 -0.0303604 -0.105988
0.0719251 -0.0303604 -0.0102515
-0.212523 -0.0146235 -0.042723
-0.183916 -0.048588 0.151802
-0.0457795 -0.0303604 0.0909383
0.00553941 -0.249011 -0.182163
0.121441 -0.070703 -0.172466
-0.212523 -0.0489904 -0.0842015
-0.0937503 -0.261216 -0.151802
0.152472 -0.404805 0.154354
-0.192682 0.204883 -0.0572505
0.192282 -0.111523 -0.156103
0.0449586 -0.0292492 0.193474
-0.104074 -0.273243 -0.163725
-0.0879514 -2.57365e-07 -0.126914
-0.182162 -0.208773 -0.0315846
-0.166149 -2.57365e-07 -0.13057
-0.203658 0.379282 -0.151802
-0.136073 -2.57365e-07 0.029239
0.183283 -0.0303604 -0.138066
0.1836 -0.194322 0.182163
0.133147 -0.00674375 -0.0703068
0.12721 -0.279882 -0.182163
0.147392 -0.404805 0.15229
-0.207285 0.350915 0.00720226
-0.141682 -0.298653 0.162286
-0.212523 -0.227313 0.03001
-0.196876 -0.0303604 -0.0620751
-0.180165 0.372629 -0.151802
0.13891 -0.11269 -0.182163
-0.191465 -0.215428 -0.151802
0.188478 -0.0228083 -0.202172
-0.0330679 -0.0303604 0.161988
-0.023461 -0.242883 0.15708
-0.212372 -0.333379 -0.152446
-0.211171 0.389773 0.105833
-0.198124 -0.345671 0.182163
0.174037 -0.210192 0.151802
-0.159415 -0.268798 0.182163
-0.155627 -0.26158 -0.182163
-0.212372 0.179435 -0.164949
0.11128 -0.0473672 0.151802
-0.19611 0.239158 -0.14043
-0.0463775 -0.0303604 0.085302
0.148508 -0.381403 -0.182163
0.192282 -0.078888 0.176693
-0.0687554 -2.57365e-07 -0.185481
0.178717 -0.283891 0.182163
-0.179173 0.372226 -0.149128
-0.18875 0.261303 -0.151802
-0.188739 0.391502 0.151802
-0.108374 -0.0303604 0.152338
-0.182781 0.349541 0.0907732
0.0525876 -0.0303604 0.126881
0.0842726 -0.0322037 -0.151802
0.150663 -0.37497 -0.151802
-0.177694 0.360125 0.154617
-0.196986 0.247918 -0.0292982
-0.202341 0.0731371 -0.182163
0.00136258 -0.271983 0.182163
-0.146363 -0.195322 0.182163
0.192282 -0.365221 -0.160754
0.0192277 -0.00169642 0.00452494
-0.212523 -0.0536522 -0.139842
-0.111344 -0.242883 0.154328
-0.187938 -0.0890517 0.151802
-0.188097 0.229953 -0.151802
-0.193564 0.213698 0.000815246
0.164767 -0.211036 0.151802
-0.208013 -0.0303604 0.0977867
-0.142337 -0.0237238 0.151802
-0.206776 0.345827 0.013176
-0.0733043 -0.272813 -0.151802
-0.204529 0.229725 0.182163
-0.176892 0.2541 0.0110804
-0.184242 0.37197 -0.0985387
-0.153276 -0.300327 -0.151802
-0.196205 0.240111 0.0883436
-0.198542 -0.221565 -0.182163
-0.0729049 -0.0382059 0.182163
0.128044 -0.0303604 0.171475
-0.181522 -0.0303604 0.0951271
0.192282 -0.309505 -0.174971
0.124728 -0.360648 0.182163
0.0246781 -0.0157309 -0.192245
-0.00694178 -0.0303604 0.162944
0.192282 -0.249704 -0.154006
-0.212523 -0.02512 0.0885297
-0.212523 -0.0467815 -0.103897
-0.188944 0.39411 -0.0693026
-0.200234 0.402998 -0.17739
0.158876 -0.00674375 -0.0858225
0.121441 -0.100592 -0.165777
0.00273195 -0.242883 0.16632
-0.183983 0.286207 -0.151802
-0.0522368 -0.0303604 -0.0819099
-0.0968739 -0.0303604 0.0306003
-0.171699 -0.291058 0.182163
0.028848 -0.0584515 0.182163
-0.0675414 -2.57365e-07 0.142786
-0.0471241 -0.0303604 0.019098
-0.107899 -0.0503562 -0.151802
-0.141682 -0.243581 -0.168339
-0.189362 -0.0303604 -0.151
-0.18795 -0.294857 0.182163
-0.119043 -0.0303604 -0.171726
-0.212372 0.15264 0.15207
0.0893382 -0.0056696 0.0395699
-0.141682 -0.0846205 0.163294
0.0911964 -0.273243 -0.178751
-0.0773268 -0.273243 0.153278
0.121441 -0.0327053 -0.174725
-0.134919 -0.242883 0.179077
-0.212372 -0.395374 0.17023
-0.205854 0.393751 0.182163
0.0770424 -0.0303604 0.158674
-0.174434 0.243102 0.151802
-0.19293 0.207362 -0.0841633
0.136217 -0.404805 -0.164057
0.137607 -0.0303604 0.162244
0.0966386 -0.0303604 0.139642
0.143735 -0.0032738 0.118834
-0.182568 0.371774 0.114968
-0.206048 0.338546 -0.0318767
-0.18325 0.365085 0.101545
-0.19742 0.252265 -0.0493531
0.192282 -0.210778 -0.145255
-0.212523 -0.0359186 0.0272032
0.121441 -0.312842 0.157005
-0.168358 -0.117404 -0.182163
-0.212372 0.0842695 -0.169492
-0.212372 0.19329 0.181682
-0.201021 -0.232763 0.00306529
0.0779777 -0.0303604 0.0634124
0.0258052 -0.0229065 -0.192314
0.192282 -0.0329938 0.0605574
-0.0369356 -0.0303604 -0.117249
0.162307 -0.0303604 0.0364051
-0.126839 -0.0598499 0.168831
0.0329057 -0.00674375 -0.055823
-0.0401183 -0.0022499 -0.112288
-0.212372 0.109489 0.161008
-0.200239 -0.170963 0.182163
0.192282 -0.230684 -0.0832067
0.181551 -0.253693 -0.151802
0.0908598 -0.0303604 0.169934
-0.127866 -0.0152399 0.183
-0.0773008 -0.0303604 -0.164406
0.134704 -0.0303604 0.0786297
-0.205245 -0.0303604 -0.0785606
-0.040905 -0.00178728 -0.115258
-0.212372 0.133821 0.180805
-0.0298509 -0.00352333 -0.0349404
-0.00788566 -0.0303604 0.0132652
0.191635 -0.0040974 -0.113085
-0.179993 0.346138 -0.115079
0.192282 -0.076351 0.179325
0.166413 -0.197233 -0.151802
-0.187813 0.25317 -0.151802
0.212523 -0.0265049 -0.0500435
-0.0661521 -2.57365e-07 0.142212
-0.190706 -0.165569 0.182163
-0.0823897 -0.261532 0.151802
0.0028098 -0.00484911 0.107839
0.0213328 -0.273243 0.173369
0.12905 -0.147183 -0.182163
-0.108256 -0.0303604 -0.0718297
-0.200089 -0.0303604 0.114005
-0.212372 0.326419 0.161896
-0.187762 0.366287 0.0214698
-0.0807349 -0.00289439 0.0706997
0.112992 -0.0303604 -0.0465234
0.140516 -0.151319 0.182163
-0.0046546 -0.0303604 -0.124356
0.122158 -0.320378 -0.182163
-0.0979528 -0.0478137 -0.151802
-0.152827 -0.164473 0.151802
0.151493 -0.0536324 0.182163
-0.177005 0.266259 0.0440321
-0.145599 -0.00967819 -0.182163
0.175915 -0.232763 0.0547986
-0.195883 -0.2818 -0.182163
0.156941 -0.389529 -0.151802
-0.210764 0.385706 0.11231
0.161922 -0.053423 0.0964383
0.16697 -0.0607206 0.0181529
-0.0885199 -0.0303604 0.0622223
-0.198802 0.269909 0.0899287
0.192282 -0.0742106 -0.177913
-0.037956 -0.242883 -0.154266
0.157373 -0.3203 -0.182163
-0.183285 0.243138 -0.182163
0.121441 -0.166417 0.162415
0.122684 -0.279154 -0.182163
0.0264865 -0.00674375 0.0572342
-0.141682 -0.212591 0.173089
-0.0598628 -0.0018279 0.0328578
0.128817 -0.0563826 -0.182163
0.132522 -0.234224 -0.151802
0.102277 -0.00280832 -0.0187766
0.118145 -0.0291548 0.19791
-0.193161 0.262895 -0.182163
-0.192561 0.357108 -0.182163
-0.207478 0.352848 0.0534816
-0.169752 0.245863 0.117199
-0.0753928 -0.0303604 0.166663
0.156681 -0.088118 0.151802
-0.165165 0.234835 0.177409
0.0560336 -0.242883 -0.175071
-0.175898 0.0565084 -0.151802
-0.0446802 -0.0326853 -0.182163
-0.141682 -0.254906 0.158958
-0.194078 0.218842 0.0343481
0.114262 -0.0303604 0.0384552
0.127009 -0.110294 0.182163
0.185919 -0.0303604 0.112841
-0.124629 -0.0303604 -0.0411267
-0.175043 -0.235066 -0.151802
-0.00380859 -0.273243 -0.154505
-0.205052 -0.220968 -0.151802
0.0817878 -0.0394333 -0.151802
0.175457 -0.0303604 -0.158796
-0.113886 -2.57365e-07 -0.108772
-0.00544322 -0.0303604 0.152315
0.165466 -0.231008 0.151802
0.125217 -0.0021123 -0.126941
0.180742 -0.373951 -0.151802
0.134364 -0.00504462 -0.106474
0.167149 -0.0303604 -0.170443
-0.172327 0.306456 -0.161078
0.117653 -0.00674375 0.0564007
-0.189223 -0.100943 0.182163
-0.0885353 -0.242883 -0.178
-0.0737746 -0.00314392 0.0951335
0.122475 -2.57365e-07 0.168255
0.0110837 -0.242883 -0.172359
0.199168 -0.0012391 0.133035
0.0270314 -0.0303604 0.0566492
-0.0578046 -2.57365e-07 0.156207
-0.171585 -0.245949 0.182163
0.0659335 -0.00674375 0.0502001
-0.192422 0.202285 0.143345
-0.196684 -0.0303604 0.00453851
0.0861288 -0.0303604 0.0125124
0.192282 -0.213193 0.0132206
-0.212372 0.311477 -0.170604
-0.0242405 -0.0303604 0.160676
0.18374 -0.202403 -0.0478136
-0.176363 0.123164 -0.151802
-0.159513 -0.334698 0.151802
0.19788 -0.00482497 0.108007
-0.201764 -0.232763 -0.124707
0.192282 -0.124004 -0.157065
0.192282 -0.208284 -0.112828
-0.182751 0.326422 -0.182163
-0.212523 -0.206876 -0.140747
-0.200411 0.243803 -0.151802
0.173074 -0.230473 -0.151802
0.172113 -0.0607206 -0.143311
0.192282 -0.212376 0.0323121
-0.141682 -0.00772195 0.173688
-0.152019 -2.57365e-07 0.0656197
0.183069 -0.0843921 -0.182163
-0.212372 0.0494868 -0.156713
0.179193 -0.00101378 0.134608
-0.212372 -0.0696216 -0.180677
-0.131796 -0.0314233 -0.151802
0.212523 -0.0257764 -0.134211
0.157785 -0.0303604 0.146064
-0.21083 0.321766 0.182163
-0.0612319 -0.0303604 0.137128
-0.177431 -0.404805 -0.157228
0.212523 -0.0230902 0.162248
-0.145925 -0.360144 0.151802
0.191854 -0.23304 0.151802
-0.0388668 -2.57365e-07 0.13151
0.0962394 -2.57365e-07 0.182427
0.119459 -0.0303604 0.13875
-0.121503 -2.57365e-07 0.144179
-0.071617 -2.57365e-07 0.00313518
-0.0280518 -0.000239981 -0.130217
-0.167958 0.262764 -0.1773
-0.0171124 -0.00585546 -0.0914949
0.146157 -0.0303604 -0.173074
-0.0174305 -0.0303604 -0.0811084
-0.00360709 -0.0303604 0.0203326
0.0291495 -0.00674375 -0.0631565
0.121441 -0.217268 0.17249
0.188697 -0.0607206 -0.130921
0.132887 -0.236915 0.151802
-0.191548 -0.202403 0.0347353
-0.175318 -0.205667 0.151802
0.187072 -0.232763 -0.0686535
0.212523 -0.0117817 -0.0386124
0.128263 -0.134557 -0.182163
-0.187408 0.199854 -0.138174
-0.212523 -0.0420031 0.145088
0.184214 -0.015515 0.201914
-0.182162 -0.0366495 0.000786856
0.183554 -0.057624 0.151802
-0.00603474 -0.022988 -0.190384
-0.168492 0.235065 0.118991
