ply
format ascii 1.0
comment Created by Open3D
element vertex 1193
property double x
property double y
property double z
end_header
-0.190159 -0.292691 0.227711
0.22809 -0.352516 0.201797
0.22817 -0.346672 0.20168
-0.18979 -0.28664 0.224525
-0.180337 -0.284228 0.227162
0.23004 -0.337176 0.203893
-0.185249 -0.276227 0.227353
0.228478 -0.32622 0.201232
-0.182747 -0.266852 0.226867
-0.175188 -0.268204 0.225391
0.22865 -0.317473 0.200981
-0.175471 -0.260019 0.227464
0.228833 -0.305771 0.200716
-0.17985 -0.251113 0.223407
-0.170198 -0.249041 0.225044
0.228965 -0.296987 0.200523
-0.177292 -0.241694 0.222707
0.228712 -0.286646 0.195914
-0.17472 -0.232249 0.22197
0.229276 -0.276473 0.200071
-0.196806 -0.367527 -0.225107
-0.185249 -0.368074 -0.223478
-0.177418 -0.368859 -0.223702
-0.165583 -0.370133 -0.224318
-0.165222 -0.229702 0.224948
-0.153839 -0.36686 -0.223245
-0.145903 -0.367585 -0.223268
-0.133927 -0.36871 -0.223409
-0.12586 -0.369573 -0.223842
-0.113618 -0.37104 -0.225007
-0.204539 -0.358973 -0.225379
-0.196891 -0.359173 -0.2238
-0.177082 -0.362174 -0.227823
-0.093566 -0.36825 -0.223283
-0.0853648 -0.369039 -0.223467
-0.0770777 -0.369928 -0.223953
-0.0643705 -0.371632 -0.225811
0.231736 -0.267403 0.201442
-0.129348 -0.362477 -0.228105
-0.170179 -0.221826 0.224908
-0.0565675 -0.367403 -0.223124
-0.044037 -0.368573 -0.223333
-0.0356178 -0.369391 -0.223575
-0.0270964 -0.37031 -0.224125
-0.204658 -0.350415 -0.223324
-0.0146271 -0.366984 -0.223193
-0.00616428 -0.367692 -0.223087
0.00669843 -0.368901 -0.223371
0.0153599 -0.369762 -0.22372
0.0241204 -0.3707 -0.224297
0.0367871 -0.367248 -0.223085
0.0454855 -0.368002 -0.223094
0.0542715 -0.368818 -0.223287
0.0631247 -0.369669 -0.223577
0.0766929 -0.371179 -0.224717
-0.196904 -0.343236 -0.22359
0.0850497 -0.367165 -0.223057
0.0939278 -0.367908 -0.223005
0.102931 -0.368742 -0.223226
0.116568 -0.370053 -0.223727
0.12588 -0.371089 -0.224547
0.228394 -0.256778 0.19638
-0.167626 -0.212273 0.224404
-0.159916 -0.21336 0.222896
0.134417 -0.367079 -0.223023
0.143479 -0.367813 -0.222916
0.152704 -0.368661 -0.223154
0.166648 -0.369963 -0.223584
0.176155 -0.370965 -0.224274
0.210505 -0.371788 -0.217088
0.219995 -0.369518 -0.20646
-0.200833 -0.33471 -0.222674
0.184889 -0.366959 -0.222887
0.194148 -0.367694 -0.222756
0.230921 -0.364105 -0.199445
0.218134 -0.362566 -0.212996
0.229778 -0.247151 0.19934
-0.20071 -0.327359 -0.224684
-0.160254 -0.20525 0.225033
0.22722 -0.355794 -0.201628
0.234201 -0.354889 -0.196342
0.229535 -0.345911 -0.196331
-0.196945 -0.315285 -0.222952
0.228567 -0.23608 0.196127
-0.164606 -0.196068 0.220861
0.229396 -0.337224 -0.19602
-0.193182 -0.307198 -0.22126
-0.154873 -0.193825 0.222734
0.228641 -0.227205 0.196018
-0.185393 -0.299926 -0.221555
0.229233 -0.324231 -0.195653
-0.161988 -0.186458 0.220115
-0.189337 -0.291499 -0.220766
-0.152366 -0.18399 0.222787
0.229148 -0.315588 -0.195463
-0.181465 -0.28839 -0.221963
0.22874 -0.215368 0.195872
0.229056 -0.306944 -0.195256
-0.185512 -0.279674 -0.219956
-0.159359 -0.176808 0.219365
-0.149798 -0.174217 0.222513
0.228815 -0.206487 0.195763
-0.185401 -0.272091 -0.221438
0.228916 -0.293983 -0.19494
-0.156719 -0.167119 0.218613
0.228822 -0.285346 -0.194731
0.230834 -0.197248 0.197803
-0.181598 -0.260159 -0.220258
-0.147216 -0.164427 0.222201
0.228729 -0.276713 -0.19452
-0.177826 -0.252116 -0.218692
-0.152214 -0.156653 0.221887
0.229113 -0.1858 0.195326
-0.169976 -0.244746 -0.219145
0.228587 -0.263768 -0.194203
-0.173962 -0.236372 -0.218248
0.228515 -0.255153 -0.194041
0.229238 -0.176926 0.195144
-0.166008 -0.233142 -0.219681
-0.1496 -0.146882 0.221365
-0.141841 -0.147493 0.22054
0.228464 -0.246551 -0.193926
-0.170127 -0.224511 -0.217426
0.229404 -0.165087 0.1949
-0.169999 -0.21684 -0.218886
-0.162247 -0.217082 -0.217937
-0.146977 -0.137076 0.220842
0.228387 -0.233652 -0.193753
0.228337 -0.225055 -0.19364
0.228938 -0.156911 0.190547
-0.166192 -0.204886 -0.217675
-0.144342 -0.12724 0.220296
-0.136693 -0.12762 0.220306
0.228287 -0.21646 -0.193528
-0.162415 -0.196861 -0.216163
0.229653 -0.147313 0.194535
-0.13686 -0.122413 0.221187
0.231131 -0.207365 -0.189511
-0.162089 -0.185484 -0.219592
0.228286 -0.195028 -0.193526
0.228657 -0.135914 0.19096
-0.158469 -0.177185 -0.216394
-0.150493 -0.177685 -0.217393
-0.13926 -0.112334 0.220371
0.22843 -0.186509 -0.193849
-0.150771 -0.169309 -0.214756
-0.131441 -0.107715 0.219664
0.228701 -0.126963 0.190896
0.230671 -0.177273 -0.188486
-0.154545 -0.161405 -0.216322
-0.146749 -0.161604 -0.215497
-0.136605 -0.102415 0.219843
0.230467 -0.164391 -0.188031
0.228772 -0.11503 0.190792
-0.150735 -0.149435 -0.215098
-0.13394 -0.0924618 0.219313
0.23033 -0.155809 -0.187728
-0.146954 -0.14142 -0.213618
-0.125972 -0.0903521 0.218112
0.228832 -0.10608 0.190703
0.230196 -0.147232 -0.187428
-0.146589 -0.129848 -0.216963
-0.131267 -0.0824732 0.218781
0.228892 -0.0971268 0.190614
0.230005 -0.134378 -0.187004
-0.142989 -0.121639 -0.213791
-0.134941 -0.121997 -0.214911
0.229878 -0.125814 -0.186722
-0.128583 -0.0724496 0.218247
0.229035 -0.0851972 0.190403
-0.139155 -0.109683 -0.212759
-0.120697 -0.0701749 0.217675
0.229761 -0.117257 -0.186462
-0.131211 -0.105918 -0.212932
-0.138818 -0.101965 -0.215672
0.229157 -0.0762476 0.190222
-0.125886 -0.0623927 0.21769
0.229608 -0.104434 -0.18612
-0.131463 -0.0937577 -0.210874
0.229505 -0.0958887 -0.185892
0.22928 -0.0672938 0.190042
-0.131444 -0.0857904 -0.211034
-0.123178 -0.0523 0.217126
-0.115033 -0.0525712 0.215591
0.229406 -0.087348 -0.185671
-0.131033 -0.0740363 -0.21438
-0.115453 -0.0473148 0.217509
0.229443 -0.0553485 0.189801
0.22927 -0.0745451 -0.185369
-0.127459 -0.0659117 -0.211171
0.22918 -0.0660138 -0.185168
0.229425 -0.0466386 0.184727
-0.120098 -0.0371484 0.214849
-0.123607 -0.0539357 -0.210221
0.229089 -0.0574855 -0.184966
-0.115618 -0.0500456 -0.210375
-0.109741 -0.03213 0.215377
0.229647 -0.0374128 0.189501
-0.123236 -0.0460608 -0.213084
-0.115841 -0.0419783 -0.208748
0.22893 -0.0446967 -0.184611
-0.11499 -0.0218038 0.215397
-0.107027 -0.0218816 0.215013
0.228774 -0.0361718 -0.184266
0.228586 -0.0255331 0.185974
-0.115882 -0.0299764 -0.208443
-0.115694 -0.0220093 -0.20982
0.228588 -0.0233965 -0.183851
0.228578 -0.0165212 0.185986
-0.112231 -0.011565 0.214771
0.232252 -0.0151923 0.0769379
0.232329 -0.0150975 0.0831892
0.23249 -0.0149119 0.0954435
0.232952 -0.0147396 0.106903
0.233612 -0.0145773 0.117765
0.23326 -0.0143901 0.129971
0.235276 -0.0142742 0.138185
0.236296 -0.0141332 0.147752
0.238051 -0.013934 0.161357
-0.0584125 -0.00941329 0.195135
-0.0502904 -0.00942973 0.196118
-0.041666 -0.00946576 0.195592
-0.03004 -0.00951517 0.194812
-0.021219 -0.0095534 0.194158
-0.0122398 -0.00959515 0.193252
3.12626e-05 -0.00965766 0.191554
0.00955799 -0.00971261 0.189692
0.228485 -0.0148857 -0.183622
0.238869 -0.0147147 -0.166135
0.236764 -0.0145391 -0.151908
0.235177 -0.0143809 -0.139002
0.233105 -0.0142115 -0.125289
0.232817 -0.0140946 -0.115491
0.232003 -0.0139649 -0.104764
0.231261 -0.0138392 -0.0943501
0.230645 -0.0137187 -0.0843477
0.230061 -0.0136009 -0.0745596
0.229575 -0.0134875 -0.065115
0.229106 -0.0133762 -0.0558429
0.228713 -0.0132685 -0.0468577
0.228198 -0.0130649 -0.0297954
0.228032 -0.0129676 -0.0216236
0.227746 -0.0127784 -0.00570852
0.227755 -0.0126018 0.00921839
0.227838 -0.0124319 0.0236052
0.228137 -0.0122719 0.0372193
0.228294 -0.0121937 0.0438771
0.228767 -0.0120441 0.0566536
0.229018 -0.0119712 0.062893
0.214728 -0.0109815 0.142381
0.224576 -0.011067 0.13803
-0.11189 -0.0100022 -0.208466
-0.0540881 -0.010014 -0.192979
-0.04609 -0.0100281 -0.192309
-0.034032 -0.0100501 -0.191388
-0.0259563 -0.0100651 -0.190807
-0.00553337 -0.0101078 -0.189884
0.0180599 -0.00695006 0.1907
0.0304614 -0.00699033 0.189557
0.0399824 -0.00702367 0.188393
0.0497391 -0.0070605 0.186885
0.0597605 -0.0071012 0.184997
0.210217 -0.010244 -0.142969
0.220226 -0.0102071 -0.135675
0.198156 -0.00771981 0.152225
0.2302 -0.00749083 0.188685
-0.0661464 -0.00599278 -0.193415
0.00638741 -0.00607101 -0.187653
0.0145516 -0.00607957 -0.186956
0.0227326 -0.00608802 -0.186233
-0.0696227 -0.00401645 0.195374
0.0687526 -0.00427104 0.18559
0.0785607 -0.00429087 0.184543
0.088518 -0.00431158 0.183367
0.0986969 -0.00433396 0.181928
0.109205 -0.00435913 0.180034
0.225007 -0.00560363 -0.0315932
0.22448 -0.00551803 -0.0148643
0.224361 -0.00547774 -0.00695139
0.224257 -0.00540028 0.008295
0.226844 -0.00507497 0.0732149
0.182151 -0.00458977 0.155855
0.180506 -0.00454372 0.164457
0.210744 -0.00466777 0.148825
0.232917 -0.00470764 0.14744
0.235613 -0.00467698 0.154275
0.236911 -0.00463429 0.163073
0.227831 -0.00452512 0.181953
-0.108103 -0.00199984 -0.206997
-0.0543498 -0.00200041 -0.191628
-0.0860111 -0.00167882 -0.0105909
-0.0861572 -0.00164885 0.00709957
-0.0851149 -0.00163029 0.0183856
-0.0818939 -0.00160461 0.0345231
-0.0780578 -0.00158559 0.046898
-0.109461 -0.00128743 0.214143
-0.101537 -0.00129137 0.214129
-0.064524 -0.00155027 0.0717467
-0.0564834 -0.00154396 0.0778313
-0.0444852 -0.00154502 0.0807134
-0.0614071 -0.0013421 0.195833
-0.0500057 -0.00134885 0.195174
-0.0413409 -0.00135417 0.194554
-0.0296788 -0.00136135 0.193713
-0.0208489 -0.0013668 0.193071
-0.0119433 -0.00137231 0.192411
4.42863e-05 -0.00137974 0.191518
0.00913778 -0.00138545 0.190797
0.118763 -0.00145753 0.180177
0.128998 -0.00146429 0.179165
0.139277 -0.00147094 0.178236
0.14971 -0.00147785 0.177192
0.160323 -0.00148512 0.175996
0.169153 -0.00149576 0.172279
0.188805 -0.00152282 0.162006
0.200041 -0.00155017 0.149107
0.21961 -0.00156517 0.145948
-0.0782507 0.00199129 -0.193219
-0.0970242 0.00166587 -0.00614846
-0.0966918 0.00163901 0.00984478
-0.0956343 0.00161978 0.0215318
-0.0942689 0.00160401 0.0312629
-0.0927946 0.00158974 0.0401331
-0.0910831 0.00157804 0.0475605
-0.0875566 0.00155664 0.0612515
-0.0835237 0.00154074 0.0718355
-0.0703321 0.00150673 0.0958135
-0.0630732 0.0014966 0.103929
-0.07779 0.00133562 0.194885
0.200797 0.00153332 0.1593
0.20752 0.00152663 0.165223
0.216298 0.0015175 0.173188
-0.100018 0.00601402 -0.207507
-0.103421 0.00509428 -0.0270932
-0.104803 0.0049562 -0.000263035
-0.104129 0.00488336 0.0143018
-0.10294 0.00482795 0.0255777
-0.0984208 0.00469913 0.052306
-0.0930135 0.00460602 0.0722502
-0.0910988 0.00457986 0.077971
-0.0871304 0.00453341 0.0882906
-0.0746286 0.00442353 0.113616
-0.0652984 0.00438141 0.124651
-0.0697274 0.00401435 0.195754
0.0186076 0.00417791 0.189303
0.0278722 0.00419547 0.188546
0.0403769 0.00421953 0.187455
0.049863 0.00423792 0.186598
0.0594147 0.00425625 0.185773
0.0690834 0.00427517 0.184867
0.0788604 0.00429453 0.183906
0.0887505 0.00431435 0.182886
0.0986964 0.00433393 0.181929
0.10874 0.00435378 0.180949
0.181019 0.0045198 0.169321
0.224152 0.00451792 0.182293
-0.107678 0.0100252 -0.209957
-0.0862831 0.00993521 -0.193056
-0.108602 0.00856057 -0.0368988
-0.107863 0.00795719 0.0347223
-0.103168 0.00775153 0.060432
-0.0976506 0.00760263 0.0796648
-0.0938156 0.00751806 0.0907942
-0.0898527 0.00744405 0.100711
-0.0860217 0.00736931 0.110675
-0.07754 0.00726345 0.12568
-0.0709162 0.00720115 0.134988
0.189354 0.00757508 0.16678
0.199663 0.00764813 0.161147
0.209597 0.00761961 0.167425
0.216029 0.00758327 0.173604
-0.100318 0.0140082 -0.205518
-0.115506 0.0117126 -0.0159112
-0.115577 0.011471 0.00449204
-0.114594 0.0113151 0.0179566
-0.11045 0.0109637 0.0488693
-0.105436 0.0107058 0.0721401
-0.0882524 0.0101928 0.120522
-0.106681 0.00902901 0.213513
-0.0778738 0.0100074 0.139225
-0.0860184 0.00932186 0.194796
-0.0610331 0.0094114 0.194527
-0.0524455 0.0094482 0.193925
-0.0408738 0.0094984 0.193063
-0.0321032 0.00953683 0.192377
-0.0203123 0.00958801 0.191495
-0.011379 0.00962701 0.190809
-0.00237614 0.00966621 0.190126
0.00974444 0.00971904 0.189201
0.118897 0.0102061 0.179921
0.129023 0.0102506 0.179119
0.139241 0.0102956 0.178302
0.149569 0.0103414 0.177444
0.15998 0.0103875 0.176595
0.17046 0.0104333 0.175778
0.212452 0.0107964 0.15736
0.21893 0.0107439 0.16369
0.227859 0.010683 0.171445
-0.0944629 0.0178271 -0.191744
-0.103503 0.0134494 0.0934253
-0.0998753 0.0132864 0.105206
-0.0901436 0.0129697 0.12887
-0.0800285 0.0127234 0.148017
0.0190893 0.0125546 0.188075
0.0283553 0.0126068 0.187351
0.0377034 0.0126596 0.18661
0.0503014 0.0127312 0.185586
0.0598537 0.0127857 0.184788
0.0694769 0.0128404 0.184007
0.079208 0.0128964 0.183167
0.0890118 0.0129525 0.182345
0.0989073 0.0130093 0.181503
0.108881 0.0130662 0.180673
0.181853 0.0134983 0.173588
0.199985 0.0136065 0.171767
-0.123278 0.0182387 -0.00920546
-0.12296 0.0178936 0.00945455
-0.121864 0.0176545 0.0226357
-0.120552 0.0174501 0.0340125
-0.119087 0.0172712 0.0440657
-0.117566 0.0171054 0.0534254
-0.114148 0.0168327 0.0690954
-0.110585 0.0165946 0.0829408
-0.101504 0.0160846 0.113029
-0.0976137 0.0159271 0.122639
-0.0750936 0.0147018 0.195129
0.188153 0.0165176 0.17437
-0.106485 0.0256527 -0.190821
-0.0950803 0.0185058 0.137813
-0.0578914 0.0175246 0.193339
-0.0520999 0.0175744 0.192765
-0.0403836 0.0176774 0.191498
-0.0313706 0.0177655 0.190122
-0.107761 0.0293703 -0.182158
-0.127822 0.0241076 0.0195794
-0.125093 0.0235543 0.0422046
-0.123569 0.0233194 0.0519149
-0.121955 0.0231079 0.0607307
-0.120214 0.0229239 0.0684979
-0.116663 0.0225864 0.0828484
-0.113098 0.0222753 0.0961617
-0.111363 0.0221213 0.102741
-0.107727 0.0218514 0.114451
-0.105476 0.0194895 0.20828
-0.0917037 0.0199114 0.195661
-0.113068 0.032963 -0.172455
-0.130904 0.0285764 -0.0249845
-0.13152 0.0278125 0.00142545
-0.129306 0.0270392 0.0289849
-0.106567 0.0245219 0.12325
-0.103032 0.0242341 0.134298
-0.0973578 0.0238872 0.148033
-0.0805747 0.0226788 0.194996
-0.0720634 0.0227744 0.194156
-0.133033 0.0307481 0.0114598
-0.118467 0.0282758 0.0927112
-0.115081 0.0278617 0.106595
-0.113333 0.0276752 0.112914
-0.106609 0.024892 0.201554
-0.122911 0.0400694 -0.157029
-0.134277 0.0336792 0.0197068
-0.132908 0.0332688 0.0316698
-0.131437 0.0329003 0.0424831
-0.129839 0.0325764 0.0520753
-0.128249 0.0322642 0.0613365
-0.124998 0.031692 0.0784086
-0.105332 0.0295273 0.14515
-0.109786 0.0278306 0.191655
-0.0944078 0.027851 0.195574
-0.12434 0.0434628 -0.14657
-0.13697 0.0378612 -0.00615054
-0.113103 0.0329676 0.126719
-0.109206 0.0326452 0.136153
-0.113142 0.0308177 0.182016
-0.138167 0.0417682 -0.021051
-0.138402 0.0407148 0.00381476
-0.131381 0.0383588 0.0616288
-0.129721 0.0380145 0.0702612
-0.128031 0.037692 0.0783882
-0.0859857 0.0332982 0.194667
-0.133545 0.0503071 -0.133602
-0.129052 0.0493859 -0.112102
-0.138352 0.0429786 0.0255993
-0.126813 0.0402413 0.0889588
-0.123402 0.0396237 0.10349
-0.119653 0.0391387 0.115215
-0.118922 0.036641 0.170166
-0.101095 0.0365572 0.177212
-0.13468 0.0535885 -0.124852
-0.140394 0.0488152 -0.0291291
-0.140314 0.0465499 0.0171152
-0.137654 0.0453631 0.0421072
-0.136035 0.0449048 0.0519325
-0.122436 0.0398074 0.159912
-0.116108 0.0387581 0.18317
-0.107254 0.0384307 0.192439
-0.0970177 0.0384463 0.195111
-0.142106 0.0514998 -0.0166116
-0.142079 0.050271 0.00685012
-0.1223 0.0441528 0.12941
-0.139617 0.0603416 -0.114848
-0.137094 0.0506986 0.0587948
-0.135424 0.0502268 0.0677415
-0.131831 0.0494316 0.083051
-0.12825 0.0486947 0.0973086
-0.128129 0.0477908 0.113553
-0.128511 0.0458836 0.147638
-0.121868 0.0446808 0.171146
-0.0857522 0.0440091 0.193742
-0.142347 0.0595033 -0.0396479
-0.143398 0.0561784 0.0162574
-0.142201 0.0553715 0.0302477
-0.140796 0.0546892 0.0421936
-0.139181 0.0541232 0.0522342
-0.132208 0.0492432 0.136773
-0.125604 0.0478673 0.161963
-0.142864 0.0677924 -0.117982
-0.136234 0.0675938 -0.11287
-0.143962 0.062116 -0.0275257
-0.144872 0.0601515 0.00362527
-0.112324 0.0498328 0.178154
-0.10395 0.0492568 0.189812
-0.0968728 0.0490929 0.194501
-0.144871 0.0650064 -0.0207022
-0.138228 0.0594104 0.0661419
-0.136514 0.0588828 0.074647
-0.132865 0.057986 0.0893199
-0.131375 0.0541494 0.147965
-0.116041 0.0530211 0.169564
-0.14448 0.0652522 0.023976
-0.143241 0.0643413 0.0374837
-0.141786 0.0635782 0.0489216
-0.137068 0.059109 0.1148
-0.136677 0.0580851 0.129691
-0.142795 0.0788285 -0.118551
-0.136237 0.0785534 -0.112849
-0.146522 0.0707379 -0.0083077
-0.146048 0.0692559 0.0122254
-0.132658 0.0603032 0.139332
-0.121487 0.059401 0.155011
-0.106408 0.0581784 0.176242
-0.140549 0.0688664 0.0613095
-0.13891 0.0681992 0.0705616
-0.137169 0.0676117 0.0787954
-0.125386 0.0627657 0.145959
-0.102169 0.0596346 0.193914
-0.0911512 0.059918 0.193406
-0.145129 0.0744186 0.028605
-0.143944 0.0733525 0.0423727
-0.111699 0.0645993 0.161993
-0.142686 0.0899039 -0.119437
-0.136226 0.0895215 -0.112932
-0.14751 0.07997 -0.00088793
-0.146367 0.0787184 0.0145603
-0.141661 0.0696604 0.125318
-0.131284 0.0693985 0.131512
-0.142667 0.0785472 0.0549058
-0.141047 0.0777513 0.0646133
-0.117195 0.0712111 0.147463
-0.107474 0.0696522 0.16839
-0.104435 0.0676976 0.191955
-0.0966049 0.0677725 0.193374
-0.145736 0.0835154 0.0329311
-0.139502 0.0799643 0.0743986
-0.113292 0.0733297 0.156127
-0.139623 0.100565 -0.114799
-0.147753 0.0895863 0.000934362
-0.14687 0.088002 0.0182374
-0.144517 0.085452 0.0463589
-0.137815 0.0822385 0.082889
-0.141624 0.0782127 0.125087
-0.130882 0.0781201 0.129221
-0.121092 0.0775494 0.138222
-0.144723 0.0975873 -0.0474201
-0.143014 0.0875515 0.05726
-0.109523 0.0781216 0.164936
-0.1396 0.107897 -0.11498
-0.14601 0.092767 0.0348873
-0.141407 0.0896991 0.0670002
-0.13975 0.0888491 0.0760089
-0.137961 0.088123 0.0838135
-0.105693 0.0801722 0.17298
-0.104427 0.0783204 0.191921
-0.0964652 0.0784662 0.192785
-0.147954 0.0991973 0.00244766
-0.144623 0.0946942 0.0471017
-0.117274 0.0851306 0.147861
-0.14723 0.10051 0.0208765
-0.141549 0.0896405 0.124626
-0.130855 0.0895002 0.129068
-0.121219 0.0887539 0.138893
-0.139563 0.118903 -0.11527
-0.143111 0.0997637 0.0579208
-0.139806 0.0978433 0.0763688
-0.111574 0.0894095 0.161393
-0.107706 0.0886464 0.169469
-0.147729 0.109153 0.000758231
-0.146063 0.105301 0.0352691
-0.144605 0.104023 0.0469759
-0.138037 0.100015 0.0842903
-0.117353 0.0934559 0.148263
-0.104375 0.0889682 0.191689
-0.0963255 0.0891769 0.192198
-0.147082 0.110214 0.0197887
-0.141473 0.0982356 0.124151
-0.130853 0.0980251 0.129059
-0.103935 0.0932883 0.177545
-0.139522 0.12992 -0.115601
-0.143056 0.10902 0.0575416
-0.121285 0.0999803 0.139239
-0.111647 0.097618 0.161743
-0.147238 0.1194 -0.00292653
-0.145874 0.114904 0.0339196
-0.144477 0.113453 0.0460836
-0.139784 0.109904 0.0762254
-0.138003 0.109 0.0840752
-0.107779 0.0995123 0.169808
-0.14676 0.120108 0.0174357
-0.11738 0.104597 0.1484
-0.104315 0.0996265 0.191428
-0.0961908 0.0999017 0.191631
-0.139469 0.140955 -0.116022
-0.142876 0.118399 0.0563192
-0.14135 0.109729 0.123389
-0.13085 0.109393 0.129039
-0.121263 0.108445 0.139125
-0.104018 0.104052 0.177919
-0.14648 0.130004 -0.0086208
-0.1455 0.124719 0.0312492
-0.144227 0.12302 0.0443453
-0.141213 0.120285 0.0657117
-0.139602 0.119102 0.0750472
-0.137858 0.118086 0.0831612
-0.111627 0.108631 0.161647
-0.107783 0.107689 0.169823
-0.139428 0.148324 -0.116347
-0.146255 0.130243 0.0137423
-0.117358 0.112981 0.148286
-0.104253 0.107637 0.191154
-0.0960943 0.107953 0.191224
-0.142641 0.127858 0.0547225
-0.141243 0.118377 0.122728
-0.130845 0.117921 0.129013
-0.145549 0.14092 -0.015608
-0.14509 0.134629 0.0283254
-0.143913 0.132691 0.0421575
-0.140989 0.129644 0.0642238
-0.139425 0.12832 0.0738989
-0.121194 0.119767 0.138761
-0.103983 0.114887 0.177763
-0.139363 0.159389 -0.116859
-0.145674 0.14054 0.0094924
-0.111577 0.119669 0.161409
-0.107723 0.118637 0.169548
-0.144493 0.14879 -0.023534
-0.117288 0.124195 0.147934
-0.104161 0.118333 0.190744
-0.0959614 0.118705 0.190665
-0.144627 0.144661 0.0250214
-0.142196 0.140667 0.0517025
-0.140728 0.139073 0.0624943
-0.139192 0.13762 0.0723928
-0.141086 0.129943 0.121755
-0.136393 0.129193 0.128006
-0.125254 0.129412 0.129831
-0.121128 0.128278 0.138413
-0.103939 0.12303 0.177562
-0.139293 0.170472 -0.117416
-0.143161 0.157111 -0.0335368
-0.145072 0.150952 0.00509065
-0.143433 0.145726 0.0388192
-0.137416 0.139474 0.0803599
-0.111541 0.127951 0.161233
-0.117223 0.132624 0.147602
-0.107656 0.1296 0.169236
-0.139238 0.177877 -0.117847
-0.144677 0.157938 0.00219524
-0.14417 0.154755 0.0217629
-0.141826 0.15037 0.0491943
-0.140419 0.148593 0.0604461
-0.140949 0.138657 0.120904
-0.136373 0.137731 0.127885
-0.125221 0.137976 0.12965
-0.104069 0.12904 0.190341
-0.0958331 0.12947 0.190126
-0.132647 0.180968 -0.112475
-0.143011 0.155639 0.0358863
-0.13885 0.150106 0.0701759
-0.13723 0.148678 0.0791817
-0.12101 0.139665 0.13779
-0.111457 0.13903 0.160834
-0.107598 0.137834 0.168967
-0.139134 0.189029 -0.118674
-0.140874 0.177109 -0.050704
-0.143902 0.168734 -0.00347239
-0.14365 0.164999 0.0180571
-0.141463 0.16012 0.0467242
-0.140078 0.158195 0.0581851
-0.115227 0.143168 0.151776
-0.0957378 0.137553 0.189724
-0.142436 0.178387 -0.0389822
-0.142569 0.165641 0.0328087
-0.138531 0.159587 0.0681055
-0.137013 0.157944 0.077807
-0.13885 0.149368 0.1256
-0.130831 0.149192 0.128935
-0.120904 0.148234 0.137232
-0.103948 0.139784 0.189806
-0.139004 0.200237 -0.119699
-0.143717 0.183342 -0.0293614
-0.144305 0.177998 -0.000522792
-0.143556 0.174739 0.0173847
-0.141183 0.169813 0.0448225
-0.139803 0.167761 0.0563609
-0.111358 0.150135 0.160355
-0.107518 0.148824 0.168594
-0.141993 0.194136 -0.0684667
-0.142568 0.175108 0.0328006
-0.138271 0.169037 0.0664201
-0.138793 0.157971 0.125253
-0.130838 0.15771 0.128972
-0.116991 0.155195 0.146425
-0.106237 0.148008 0.187876
-0.0956018 0.148352 0.189152
-0.130867 0.220352 -0.184174
-0.144013 0.194547 -0.0528918
-0.145141 0.187949 -0.01867
-0.136658 0.170427 0.075558
-0.134957 0.168951 0.0837832
-0.120745 0.159696 0.1364
-0.141557 0.207184 -0.0994793
-0.145451 0.195754 -0.0418059
-0.144171 0.18347 0.0217748
-0.141447 0.178797 0.046616
-0.113186 0.159219 0.155609
-0.109356 0.157777 0.164146
-0.134787 0.227851 -0.183797
-0.144721 0.205648 -0.0744114
-0.146495 0.192514 -0.00850701
-0.145687 0.188983 0.00958449
-0.143184 0.18369 0.0370851
-0.140105 0.179661 0.0583646
-0.138477 0.177897 0.0677577
-0.116885 0.163695 0.145892
-0.146617 0.20603 -0.0593855
-0.147303 0.199583 -0.0275307
-0.135142 0.177681 0.0849266
-0.138714 0.169458 0.124775
-0.130839 0.169075 0.12898
-0.12066 0.168271 0.135949
-0.106252 0.158661 0.187942
-0.095467 0.159166 0.188585
-0.145849 0.216549 -0.0936668
-0.147969 0.207221 -0.0486707
-0.148134 0.201578 -0.0211234
-0.147643 0.197264 0.000112593
-0.1131 0.167617 0.155187
-0.142665 0.238777 -0.18245
-0.148224 0.215962 -0.0743172
-0.149127 0.208669 -0.0394967
-0.146896 0.196763 0.0184313
-0.145623 0.193993 0.0321249
-0.144172 0.191622 0.0439574
-0.142533 0.189636 0.0539896
-0.140882 0.187757 0.0635131
-0.109262 0.168851 0.163701
-0.148124 0.225828 -0.104371
-0.149811 0.216642 -0.0613812
-0.150099 0.210376 -0.0318017
-0.149612 0.205743 -0.0097295
-0.148662 0.202107 0.00775981
-0.139512 0.18858 0.0744655
-0.138627 0.178118 0.124249
-0.13084 0.177599 0.128983
-0.117044 0.174708 0.146698
-0.146122 0.239916 -0.15259
-0.150349 0.225297 -0.0857109
-0.151143 0.217697 -0.0505345
-0.146456 0.198974 0.0380692
-0.138089 0.189506 0.0846245
-0.10629 0.169289 0.188111
-0.0953205 0.170007 0.187968
-0.150589 0.249436 -0.180232
-0.151137 0.233933 -0.10928
-0.152204 0.225336 -0.0701587
-0.15216 0.219253 -0.0422438
-0.151672 0.214291 -0.0193391
-0.150916 0.210051 0.000329494
-0.148276 0.204072 0.0285254
-0.145202 0.19934 0.0511283
-0.136566 0.190598 0.0937511
-0.115514 0.178978 0.153203
-0.105744 0.175238 0.173212
-0.150822 0.245281 -0.144063
-0.153104 0.233672 -0.0922946
-0.153523 0.226297 -0.0591037
-0.1501 0.209324 0.0185605
-0.143925 0.199786 0.0634469
-0.142262 0.197852 0.0726692
-0.121715 0.183943 0.141499
-0.111838 0.179896 0.162661
-0.154853 0.23373 -0.0771894
-0.153986 0.222588 -0.0273692
-0.153057 0.218377 -0.00836295
-0.151962 0.214684 0.00838876
-0.140903 0.198532 0.0834808
-0.1385 0.1897 0.123477
-0.130882 0.188909 0.129222
-0.100831 0.177647 0.188102
-0.158406 0.260115 -0.178472
-0.156228 0.234444 -0.0653165
-0.155715 0.228866 -0.0407168
-0.149734 0.211034 0.0391888
-0.148064 0.208784 0.0495363
-0.139412 0.199444 0.0930019
-0.120427 0.18781 0.149542
-0.108554 0.183158 0.1734
-0.108925 0.179865 0.187724
-0.155251 0.262746 -0.172269
-0.157905 0.248853 -0.113039
-0.157483 0.235324 -0.0544814
-0.151714 0.215997 0.0306777
-0.146839 0.208954 0.0625201
-0.116864 0.18843 0.159922
-0.158928 0.258136 -0.137391
-0.159643 0.248615 -0.097069
-0.156266 0.228109 -0.00879157
-0.155145 0.224199 0.00818121
-0.153725 0.221055 0.0219816
-0.145602 0.209197 0.074833
-0.138358 0.202642 0.104855
-0.138409 0.198392 0.12293
-0.127021 0.195283 0.139491
-0.162782 0.269982 -0.172641
-0.160155 0.267466 -0.161317
-0.161154 0.248781 -0.0831944
-0.160433 0.242948 -0.0585075
-0.159549 0.237798 -0.0366358
-0.158285 0.233725 -0.0191724
-0.152767 0.220347 0.03858
-0.151101 0.217934 0.0491949
-0.144185 0.209782 0.0854235
-0.142344 0.208149 0.0928136
-0.131294 0.199683 0.131569
-0.114104 0.187778 0.186555
-0.106258 0.187986 0.187971
-0.162437 0.249372 -0.0714135
-0.161473 0.244083 -0.0492479
-0.156393 0.228173 0.0180708
-0.154891 0.22516 0.0309774
-0.149913 0.217839 0.0627251
-0.125834 0.198843 0.148363
-0.116049 0.1944 0.169603
-0.164742 0.272626 -0.152748
-0.16515 0.262696 -0.112345
-0.158387 0.23357 0.00848556
-0.148654 0.217932 0.0751472
-0.13962 0.209382 0.112674
-0.130141 0.2031 0.14108
-0.122357 0.199142 0.159505
-0.170751 0.279731 -0.167967
-0.166977 0.27059 -0.130069
-0.166692 0.26245 -0.097222
-0.161976 0.242533 -0.0156731
-0.160501 0.238893 -0.000587761
-0.156004 0.229245 0.0395586
-0.147295 0.218258 0.0863301
-0.136264 0.208896 0.127239
-0.169069 0.278184 -0.146219
-0.167966 0.262784 -0.0847389
-0.16686 0.257179 -0.0621572
-0.165675 0.252108 -0.0416751
-0.164231 0.247939 -0.0246959
-0.158187 0.234035 0.0322843
-0.154862 0.228734 0.0543095
-0.145939 0.218627 0.0970528
-0.144115 0.216938 0.104295
-0.121224 0.20261 0.167882
-0.119494 0.198064 0.186442
-0.111661 0.198293 0.187819
-0.171474 0.285277 -0.160083
-0.170273 0.269173 -0.096629
-0.169153 0.263253 -0.0731007
-0.167895 0.258049 -0.0523434
-0.153633 0.228476 0.0677118
-0.131324 0.209732 0.147677
-0.172645 0.275663 -0.108631
-0.170248 0.263879 -0.0623568
-0.16258 0.243979 0.0168433
-0.159339 0.237872 0.0414085
-0.152339 0.228415 0.080029
-0.146868 0.222831 0.10322
-0.143157 0.21962 0.116725
-0.141277 0.218155 0.12294
-0.137473 0.215475 0.134415
-0.127899 0.209729 0.159436
-0.178914 0.292221 -0.159916
-0.17497 0.282583 -0.12197
-0.169765 0.260095 -0.034604
-0.166567 0.252296 -0.00389725
-0.151006 0.228496 0.0915083
-0.177321 0.289758 -0.135959
-0.175043 0.275995 -0.0834227
-0.17057 0.261363 -0.0269675
-0.163865 0.247399 0.0276194
-0.160433 0.241707 0.0500748
-0.158683 0.239153 0.0602119
-0.136429 0.218426 0.144831
-0.126783 0.212981 0.168168
-0.124958 0.208177 0.186808
-0.117045 0.208562 0.187668
-0.182987 0.298217 -0.155357
-0.177584 0.282008 -0.0934577
-0.176115 0.276399 -0.0721527
-0.169652 0.258901 -0.00514895
-0.167951 0.255389 0.00841904
-0.15742 0.238723 0.0735163
-0.151935 0.232582 0.097972
-0.140634 0.223138 0.136419
-0.133039 0.218139 0.157245
-0.180167 0.288142 -0.103719
-0.177122 0.276916 -0.0615718
-0.175486 0.272193 -0.0437363
-0.173805 0.267905 -0.0274835
-0.166864 0.253758 0.0265374
-0.165125 0.250728 0.0381815
-0.163305 0.248049 0.0485579
-0.156085 0.23853 0.0856521
-0.150554 0.232762 0.108468
-0.14678 0.229499 0.121562
-0.184064 0.301992 -0.142142
-0.182827 0.29429 -0.11382
-0.181251 0.288255 -0.0914531
-0.179681 0.282636 -0.070596
-0.178057 0.277572 -0.0517371
-0.176304 0.273224 -0.035444
-0.185336 0.301243 -0.126538
-0.182257 0.288533 -0.0800577
-0.180622 0.283168 -0.0603406
-0.175291 0.270376 -0.0129116
-0.171691 0.263281 0.0135854
-0.164428 0.251568 0.0577121
-0.141973 0.229187 0.144535
-0.134336 0.224246 0.164482
-0.130404 0.218227 0.187219
-0.122404 0.218802 0.187494
-0.191086 0.309729 -0.145347
-0.175983 0.271681 -0.00612611
-0.174164 0.268094 0.00711703
-0.168667 0.258672 0.0421071
-0.163117 0.250878 0.0713423
-0.161255 0.248577 0.0800394
-0.157505 0.24437 0.0960422
-0.151911 0.238724 0.117681
-0.148086 0.235555 0.130026
-0.140526 0.229826 0.152533
-0.187629 0.300315 -0.0983917
-0.182305 0.284649 -0.041984
-0.180431 0.280464 -0.0267842
-0.172954 0.266247 0.0251796
-0.167348 0.257676 0.0568252
-0.156132 0.244257 0.107084
-0.13329 0.227115 0.173778
-0.192225 0.312645 -0.1301
-0.188612 0.300303 -0.0863372
-0.186793 0.294898 -0.0671049
-0.184956 0.289962 -0.0494882
-0.179238 0.277781 -0.00566751
-0.147092 0.23792 0.141658
-0.13949 0.232505 0.162616
-0.198913 0.317725 -0.136922
-0.193341 0.311839 -0.115162
-0.18951 0.300515 -0.0753115
-0.177949 0.275639 0.0131481
-0.174149 0.269238 0.0361542
-0.168428 0.261036 0.0658777
-0.166526 0.258589 0.0748012
-0.162745 0.254023 0.0915254
-0.157073 0.247997 0.113791
-0.14567 0.238339 0.150156
-0.13808 0.228692 0.185369
-0.130426 0.228772 0.187333
-0.194234 0.311831 -0.103209
-0.184457 0.287629 -0.0185171
-0.180533 0.280282 0.00746942
-0.172811 0.267873 0.0516844
-0.161341 0.253701 0.102952
-0.155622 0.248081 0.123625
-0.195128 0.311739 -0.091248
-0.191145 0.30132 -0.055252
-0.189109 0.296883 -0.0398239
-0.185112 0.288724 -0.0113808
-0.17918 0.278295 0.025217
-0.154184 0.248203 0.133116
-0.200194 0.322928 -0.118069
-0.195971 0.311773 -0.0799603
-0.193915 0.306685 -0.0625407
-0.189795 0.297733 -0.0317449
-0.173862 0.271071 0.0610446
-0.171918 0.268479 0.0701815
-0.168052 0.263662 0.0872334
-0.14699 0.244015 0.158334
-0.141214 0.240198 0.172637
-0.201006 0.322811 -0.106131
-0.192507 0.302894 -0.0385364
-0.1864 0.290838 0.00266266
-0.184329 0.287497 0.0141883
-0.180338 0.281008 0.0365697
-0.178376 0.277971 0.047071
-0.166611 0.263129 0.0990273
-0.162754 0.259028 0.113561
-0.153183 0.250235 0.145102
-0.14339 0.238821 0.185277
-0.135576 0.239214 0.186278
-0.20179 0.322736 -0.0945836
-0.191096 0.299527 -0.016414
-0.161292 0.258873 0.123745
-0.210782 0.332604 -0.117491
-0.202549 0.322703 -0.0834172
-0.200348 0.317585 -0.0664054
-0.198171 0.312817 -0.0505173
-0.187559 0.293207 0.0153047
-0.185491 0.289926 0.0264003
-0.179439 0.280866 0.0571485
-0.17742 0.27822 0.0662016
-0.173416 0.273295 0.0831226
-0.159836 0.258786 0.133496
-0.146362 0.248248 0.17114
-0.203263 0.322805 -0.0729083
-0.198795 0.313499 -0.042158
-0.196602 0.309267 -0.028127
-0.192337 0.301341 -0.0018003
-0.18401 0.288032 0.0427448
-0.171944 0.272519 0.0953581
-0.168039 0.268145 0.110339
-0.158361 0.258816 0.142685
-0.154523 0.2556 0.153985
-0.208535 0.333418 -0.0968696
-0.197194 0.3101 -0.0205511
-0.178416 0.28122 0.0753507
-0.16654 0.267816 0.120784
-0.150863 0.24962 0.182332
-0.140616 0.249841 0.184633
-0.214866 0.339569 -0.106843
-0.209195 0.333409 -0.0861015
-0.204598 0.32324 -0.0532575
-0.193443 0.303476 0.0112301
-0.191324 0.299994 0.0226361
-0.189201 0.296783 0.0332067
-0.185074 0.290606 0.0535458
-0.182989 0.287891 0.0625661
-0.165046 0.267571 0.130762
-0.153462 0.257655 0.164864
-0.209854 0.333323 -0.0753287
-0.20519 0.323727 -0.0445457
-0.202898 0.319413 -0.0306507
-0.198352 0.311715 -0.00571895
-0.179379 0.284196 0.0841939
-0.215433 0.343197 -0.096439
-0.210499 0.333244 -0.0647947
-0.190221 0.299234 0.0443295
-0.177834 0.283266 0.096404
-0.175844 0.280925 0.104086
-0.163991 0.269083 0.143484
-0.160114 0.265701 0.154878
-0.155819 0.25779 0.18014
-0.145528 0.258097 0.182214
-0.215981 0.343318 -0.0863884
-0.211077 0.333465 -0.0553607
-0.203998 0.320793 -0.0152315
-0.199432 0.313466 0.00810987
-0.197232 0.309907 0.0194433
-0.184429 0.292096 0.0766791
-0.174295 0.280301 0.11507
-0.222552 0.347606 -0.0906957
-0.216526 0.343387 -0.0763887
-0.211613 0.33385 -0.0465984
-0.209229 0.329429 -0.0327543
-0.195527 0.307724 0.0357864
-0.191217 0.301621 0.0551935
-0.189087 0.2988 0.0642017
-0.17272 0.27987 0.125271
-0.217071 0.343387 -0.0663913
-0.209749 0.329957 -0.0247145
-0.20506 0.322143 -0.000341356
-0.185351 0.294866 0.0857164
-0.179224 0.287642 0.108772
-0.171163 0.279503 0.135088
-0.165286 0.274016 0.152957
-0.161392 0.270729 0.163772
-0.217601 0.343418 -0.0566769
-0.210242 0.33057 -0.0170743
-0.196495 0.309903 0.0471806
-0.189987 0.301469 0.0736672
-0.183728 0.293806 0.0978305
-0.169633 0.279163 0.144631
-0.163112 0.269143 0.175743
-0.15555 0.268992 0.178393
-0.226527 0.353162 -0.0776417
-0.215583 0.339334 -0.0345314
-0.206007 0.323854 0.0129459
-0.203692 0.320472 0.0233869
-0.196969 0.310972 0.0527695
-0.178039 0.288543 0.123042
-0.22369 0.353147 -0.0669233
-0.216056 0.339735 -0.0263547
-0.211209 0.331748 -0.00210506
-0.201863 0.318243 0.0392288
-0.195215 0.309314 0.0666946
-0.190868 0.304079 0.0829278
-0.176426 0.28806 0.13294
-0.224164 0.353013 -0.0570211
-0.221536 0.348728 -0.0441204
-0.189185 0.302838 0.095252
-0.185045 0.297943 0.11032
-0.174851 0.287581 0.142635
-0.17092 0.283776 0.154557
-0.170257 0.278429 0.169888
-0.160248 0.277904 0.1743
-0.221972 0.34898 -0.0355987
-0.216952 0.340689 -0.0108789
-0.212082 0.333246 0.0114146
-0.202743 0.32028 0.0505039
-0.19607 0.311745 0.0763878
-0.222389 0.349312 -0.027453
-0.212506 0.333999 0.0179752
-0.210134 0.330564 0.0282108
-0.207765 0.32744 0.0375816
-0.200917 0.318411 0.0646645
-0.185864 0.300761 0.118093
-0.234132 0.360716 -0.053242
-0.228055 0.35775 -0.0433038
-0.217786 0.341819 0.00354183
-0.196906 0.314129 0.0858489
-0.184177 0.300072 0.128254
-0.228423 0.358007 -0.0350386
-0.223207 0.349923 -0.01147
-0.208578 0.329322 0.0489781
-0.201714 0.320718 0.0744449
-0.195148 0.312766 0.0980474
-0.190885 0.307921 0.112503
-0.182533 0.29938 0.138234
-0.177521 0.290327 0.164383
-0.169929 0.290024 0.167428
-0.228781 0.358296 -0.0270082
-0.218544 0.343249 0.0166392
-0.237872 0.365073 -0.0390485
-0.223946 0.350902 0.00296259
-0.218915 0.343949 0.0230497
-0.216495 0.340447 0.0331318
-0.20936 0.331211 0.0599451
-0.207033 0.328415 0.0681111
-0.202506 0.322913 0.0841653
-0.189555 0.30835 0.126941
-0.184502 0.298138 0.15576
-0.238154 0.365269 -0.0308836
-0.229472 0.358916 -0.0114903
-0.214439 0.338188 0.0479022
-0.177054 0.29984 0.160578
-0.203275 0.325083 0.0936038
-0.198882 0.320008 0.108235
-0.190356 0.310857 0.134792
-0.23862 0.366604 -0.0174217
-0.230118 0.359712 0.00302827
-0.227504 0.35626 0.01279
-0.215145 0.339977 0.0588446
-0.197106 0.318768 0.119399
-0.191712 0.308367 0.148089
-0.225252 0.353577 0.028491
-0.222758 0.350215 0.0379056
-0.213106 0.338134 0.0719417
-0.210771 0.335384 0.0797306
-0.208484 0.332622 0.0875359
-0.195361 0.317611 0.130157
-0.23912 0.367353 -0.00293988
-0.220633 0.347727 0.052736
-0.204385 0.328308 0.107225
-0.239405 0.367263 0.00528431
-0.233654 0.364411 0.0142079
-0.202572 0.326811 0.118775
-0.198906 0.319258 0.139027
-0.191321 0.318074 0.14425
-0.22872 0.358574 0.0382202
-0.221245 0.349482 0.0632993
-0.216458 0.343735 0.0791665
-0.203652 0.324442 0.131487
-0.23709 0.366001 0.0248523
-0.212174 0.33906 0.099395
-0.237511 0.364546 0.0359773
-0.229331 0.35945 0.0509839
-0.217123 0.345348 0.0894657
-0.213245 0.335726 0.114419
-0.208462 0.332527 0.123739
