ply
format ascii 1.0
comment Created by Open3D
element vertex 1599
property double x
property double y
property double z
end_header
-0.130237 -0.166411 -0.359766
-0.139694 -0.165993 -0.35976
-0.120733 -0.163712 -0.359773
-0.142963 -0.165852 -0.342483
-0.120733 -0.157476 -0.359773
-0.130237 -0.157079 -0.359766
-0.139694 -0.156685 -0.35976
0.173719 -0.166396 -0.359984
0.166351 -0.166094 -0.359979
-0.142963 -0.156375 -0.342483
0.188536 -0.163627 -0.359996
0.165664 -0.164814 -0.347311
-0.139694 -0.147377 -0.35976
0.188536 -0.15688 -0.359996
0.181114 -0.156595 -0.35999
0.170032 -0.156169 -0.359982
-0.120733 -0.145002 -0.359773
-0.130237 -0.144637 -0.359766
-0.142963 -0.146898 -0.342483
0.165664 -0.154619 -0.347311
0.188536 -0.146759 -0.359996
0.181114 -0.146492 -0.35999
0.170032 -0.146094 -0.359982
-0.120733 -0.135647 -0.359773
-0.130237 -0.135306 -0.359766
-0.139694 -0.134966 -0.35976
-0.142963 -0.13742 -0.342483
0.165664 -0.144425 -0.347311
0.188536 -0.136637 -0.359996
0.181114 -0.136389 -0.35999
0.170032 -0.136018 -0.359982
-0.120733 -0.126292 -0.359773
-0.130237 -0.125974 -0.359766
-0.139694 -0.125658 -0.35976
0.165664 -0.13423 -0.347311
-0.142963 -0.124784 -0.342483
0.188536 -0.126516 -0.359996
0.181114 -0.126286 -0.35999
0.170032 -0.125943 -0.359982
0.165664 -0.127433 -0.347311
-0.120733 -0.116937 -0.359773
-0.130237 -0.116643 -0.359766
-0.139694 -0.11635 -0.35976
-0.142963 -0.115307 -0.342483
0.188536 -0.116395 -0.359996
0.181114 -0.116183 -0.35999
0.170032 -0.115868 -0.359982
0.165664 -0.117239 -0.347311
-0.123906 -0.107492 -0.359771
-0.133395 -0.107221 -0.359764
-0.142836 -0.106952 -0.359757
-0.142963 -0.105829 -0.342483
0.188536 -0.106273 -0.359996
0.181114 -0.10608 -0.35999
0.170032 -0.105792 -0.359982
0.165664 -0.107044 -0.347311
-0.120733 -0.095109 -0.359773
-0.130237 -0.0948696 -0.359766
-0.139694 -0.0946313 -0.35976
-0.142963 -0.0963521 -0.342483
-0.124206 -0.162755 0.341955
-0.135186 -0.162488 0.341964
0.188536 -0.0961522 -0.359996
0.181114 -0.0959775 -0.35999
0.170032 -0.0957167 -0.359982
0.165664 -0.0968495 -0.347311
0.186564 -0.164553 0.341734
0.17454 -0.16427 0.341742
0.165165 -0.164919 0.350658
-0.124206 -0.157238 0.341955
-0.120733 -0.085754 -0.359773
-0.130237 -0.0855381 -0.359766
-0.139694 -0.0853233 -0.35976
-0.142963 -0.0868749 -0.342483
-0.135186 -0.151472 0.341964
0.186564 -0.153006 0.341734
0.17454 -0.152743 0.341742
0.165165 -0.153345 0.350658
-0.124206 -0.146204 0.341955
0.188536 -0.0860309 -0.359996
0.181114 -0.0858746 -0.35999
0.170032 -0.0856412 -0.359982
0.165664 -0.0866548 -0.347311
0.186564 -0.147232 0.341734
0.17454 -0.146979 0.341742
-0.135186 -0.140455 0.341964
0.165165 -0.141772 0.350658
-0.120733 -0.076399 -0.359773
-0.130237 -0.0762067 -0.359766
-0.139694 -0.0760153 -0.35976
-0.142963 -0.0773976 -0.342483
-0.124206 -0.13517 0.341955
0.186564 -0.135684 0.341734
0.17454 -0.135451 0.341742
-0.135186 -0.129439 0.341964
0.188536 -0.0759096 -0.359996
0.181114 -0.0757717 -0.35999
0.170032 -0.0755658 -0.359982
0.165664 -0.0764601 -0.347311
0.165165 -0.130199 0.350658
-0.150001 -0.0692132 -0.365014
-0.159309 -0.0690391 -0.365022
-0.16857 -0.0688659 -0.36503
-0.124206 -0.124135 0.341955
0.029265 -0.0693211 -0.365133
0.0224405 -0.0691992 -0.365139
0.0122489 -0.0690171 -0.365147
0.00211075 -0.0688359 -0.365155
-0.00797436 -0.0686557 -0.365163
-0.0180068 -0.0684764 -0.365172
-0.0279869 -0.068298 -0.36518
-0.0379153 -0.0681206 -0.365188
-0.0477921 -0.0679441 -0.365196
-0.0576179 -0.0677685 -0.365204
-0.0706402 -0.0675358 -0.365214
-0.0803485 -0.0673623 -0.365222
-0.090007 -0.0671897 -0.36523
-0.099616 -0.067018 -0.365238
-0.109176 -0.0668472 -0.365246
-0.118688 -0.0666772 -0.365253
-0.128151 -0.0665081 -0.365261
-0.137566 -0.0663398 -0.365269
-0.169046 -0.0671117 -0.34716
-0.169061 -0.0687281 -0.325189
-0.135186 -0.118423 0.341964
0.211625 -0.0691837 -0.365276
0.200418 -0.0689929 -0.365284
0.159849 -0.0683018 -0.365314
0.148926 -0.0681157 -0.365322
0.141676 -0.0679923 -0.365327
0.130851 -0.0678079 -0.365335
0.120085 -0.0676245 -0.365343
0.109377 -0.0674421 -0.365351
0.10227 -0.067321 -0.365356
0.0916573 -0.0671402 -0.365364
0.0811016 -0.0669604 -0.365372
0.0706024 -0.0667816 -0.36538
0.060159 -0.0666037 -0.365388
0.0497711 -0.0664267 -0.365395
0.0394383 -0.0662507 -0.365403
-0.169077 -0.0671488 -0.302133
-0.169094 -0.0688479 -0.277912
-0.124206 -0.113101 0.341955
0.18911 -0.0654249 -0.365581
0.181716 -0.0653051 -0.365586
0.170677 -0.0651263 -0.365593
0.00529093 -0.0624473 -0.365704
-0.00480485 -0.0622838 -0.36571
-0.0148479 -0.0621211 -0.365717
-0.0248387 -0.0619593 -0.365724
-0.0347775 -0.0617983 -0.36573
-0.0446648 -0.0616381 -0.365737
-0.054501 -0.0614788 -0.365743
-0.0642864 -0.0613203 -0.36575
-0.150136 -0.0599297 -0.365807
-0.159436 -0.0597791 -0.365813
-0.168688 -0.0596292 -0.36582
-0.169061 -0.0623349 -0.325187
-0.169112 -0.0671898 -0.252431
-0.169131 -0.0689806 -0.225594
-0.1297 -0.107495 0.34196
-0.140663 -0.107319 0.341968
0.211283 -0.0623922 -0.365856
0.200084 -0.0622201 -0.365862
0.159546 -0.0615973 -0.365887
0.152262 -0.0614854 -0.365891
0.141386 -0.0613183 -0.365897
0.130569 -0.0611522 -0.365904
0.119811 -0.0609869 -0.36591
0.0323681 -0.0596435 -0.365962
0.0221332 -0.0594862 -0.365968
-0.109351 -0.0574663 -0.366047
-0.118853 -0.0573203 -0.366053
-0.128307 -0.057175 -0.366058
-0.137713 -0.0570305 -0.366064
-0.169094 -0.0621312 -0.27791
-0.169151 -0.0672352 -0.197285
-0.169172 -0.0691282 -0.167383
0.105424 -0.0574643 -0.366201
0.0948042 -0.05731 -0.366207
0.084241 -0.0571565 -0.366212
0.0772302 -0.0570547 -0.366216
0.0667608 -0.0569026 -0.366221
0.056347 -0.0567513 -0.366227
0.0459885 -0.0566008 -0.366232
-0.074161 -0.0548552 -0.366295
-0.0838398 -0.0547146 -0.3663
-0.0934691 -0.0545747 -0.366305
-0.169045 -0.054626 -0.347156
-0.169077 -0.0573223 -0.30213
-0.169131 -0.0619058 -0.225591
-0.169194 -0.0672859 -0.135748
-0.169217 -0.0692933 -0.102227
-0.124206 -0.0965497 0.341955
-0.135186 -0.096391 0.341964
0.192325 -0.0553547 -0.366443
0.181237 -0.0552029 -0.366448
0.17021 -0.0550519 -0.366453
-0.0184493 -0.0524684 -0.366539
-0.0284125 -0.0523319 -0.366544
-0.0383241 -0.0521962 -0.366548
-0.0481843 -0.0520612 -0.366553
-0.0579937 -0.0519268 -0.366557
-0.150271 -0.0506632 -0.366599
-0.159562 -0.050536 -0.366603
-0.168805 -0.0504094 -0.366607
-0.169112 -0.0568531 -0.252428
-0.169172 -0.061655 -0.167381
-0.169242 -0.0673429 -0.066642
0.210771 -0.0522218 -0.366724
0.199585 -0.052078 -0.366728
0.159091 -0.0515572 -0.366744
0.151816 -0.0514637 -0.366747
0.140952 -0.0513239 -0.366751
0.130147 -0.051185 -0.366755
0.1194 -0.0510468 -0.366759
0.0354708 -0.0499674 -0.366791
0.0252285 -0.0498357 -0.366795
0.0150402 -0.0497047 -0.366799
0.00490519 -0.0495743 -0.366803
-0.00517675 -0.0494447 -0.366807
-0.169061 -0.0495485 -0.325184
-0.169094 -0.052056 -0.277906
-0.16915 -0.0563324 -0.197281
-0.169217 -0.0613742 -0.102224
-0.169269 -0.0652687 -0.0287992
-0.169297 -0.0674073 0.0115218
-0.140663 -0.0853048 0.341968
0.0979506 -0.0474814 -0.367048
0.0908971 -0.0473966 -0.367051
0.0803641 -0.0472699 -0.367054
0.0698871 -0.0471439 -0.367057
0.0594659 -0.0470186 -0.367061
0.0491 -0.0468939 -0.367064
-0.0678961 -0.0454868 -0.3671
-0.0775985 -0.0453701 -0.367103
-0.0904579 -0.0452154 -0.367107
-0.100045 -0.0451001 -0.36711
-0.109583 -0.0449854 -0.367113
-0.119073 -0.0448713 -0.367116
-0.128515 -0.0447577 -0.367119
-0.137909 -0.0446447 -0.367122
-0.169045 -0.0452617 -0.347153
-0.169077 -0.0474958 -0.302127
-0.16913 -0.0512935 -0.225588
-0.169193 -0.0557514 -0.135744
-0.169327 -0.0651947 0.0545766
-0.169359 -0.0674808 0.100649
0.191835 -0.0452449 -0.367307
0.180759 -0.0451209 -0.367309
0.169744 -0.0449976 -0.367312
0.112 -0.0443511 -0.367326
-0.0549577 -0.0424822 -0.367366
-0.150406 -0.0414137 -0.367389
-0.159688 -0.0413098 -0.367391
-0.168923 -0.0412064 -0.367394
-0.169111 -0.0465163 -0.252425
-0.169171 -0.0504452 -0.167377
-0.169242 -0.0550989 -0.0666374
-0.169268 -0.0568471 -0.0287958
-0.169394 -0.0651101 0.150072
-0.169431 -0.0675653 0.20322
0.21026 -0.042072 -0.367591
0.199086 -0.0419562 -0.367593
0.162282 -0.0415749 -0.367599
0.151371 -0.0414618 -0.367601
0.140519 -0.0413493 -0.367603
0.129725 -0.0412375 -0.367605
0.11899 -0.0411263 -0.367607
0.0420016 -0.0403285 -0.36762
0.0317338 -0.0402221 -0.367621
0.0215203 -0.0401163 -0.367623
0.0113603 -0.040011 -0.367625
0.00125343 -0.0399063 -0.367627
-0.00880057 -0.0398021 -0.367628
-0.0188023 -0.0396984 -0.36763
-0.028752 -0.0395953 -0.367632
-0.0386502 -0.0394928 -0.367633
-0.16906 -0.0399586 -0.325181
-0.169093 -0.0419808 -0.277903
-0.16915 -0.0454295 -0.197277
-0.169217 -0.0494956 -0.102219
-0.169296 -0.054361 0.0115273
-0.169327 -0.0562025 0.0545805
-0.169471 -0.0650121 0.260536
-0.169515 -0.0676636 0.322525
0.0834974 -0.0374868 -0.367892
0.0765015 -0.0374201 -0.367893
0.0660544 -0.0373206 -0.367894
0.0556626 -0.0372215 -0.367895
-0.0648691 -0.0360728 -0.367907
-0.0745784 -0.0359803 -0.367908
-0.0842381 -0.0358882 -0.367909
-0.0938485 -0.0357966 -0.36791
-0.10341 -0.0357055 -0.367911
-0.112923 -0.0356149 -0.367912
-0.125532 -0.0354947 -0.367913
-0.134933 -0.0354051 -0.367914
-0.169045 -0.0358973 -0.347151
-0.16913 -0.0406812 -0.225584
-0.169193 -0.0442168 -0.13574
-0.169241 -0.0469363 -0.0666342
-0.169359 -0.0535195 0.100655
-0.169393 -0.0554643 0.150076
-0.169431 -0.0575558 0.203225
-0.169514 -0.0622507 0.322528
0.191345 -0.0351552 -0.368168
0.180282 -0.035059 -0.368169
0.169279 -0.0349633 -0.368169
0.111598 -0.0344615 -0.368171
0.100966 -0.034369 -0.368171
-0.144333 -0.0322351 -0.368178
-0.153637 -0.0321542 -0.368178
-0.162894 -0.0320737 -0.368178
-0.169076 -0.0343937 -0.302123
-0.169111 -0.0361795 -0.252421
-0.169171 -0.0392353 -0.167373
-0.169216 -0.0415764 -0.102216
-0.169268 -0.0442146 -0.0287911
-0.169296 -0.0456634 0.0115309
-0.169326 -0.0472103 0.0545844
-0.169471 -0.0546104 0.260541
0.20975 -0.0319426 -0.368456
0.202302 -0.031884 -0.368456
0.161825 -0.0315655 -0.368454
0.150926 -0.0314798 -0.368454
0.140086 -0.0313945 -0.368453
0.129305 -0.0313096 -0.368453
0.122149 -0.0312533 -0.368452
0.0451056 -0.0306471 -0.368449
0.0348307 -0.0305663 -0.368449
0.0246097 -0.0304859 -0.368448
0.0144424 -0.0304059 -0.368448
0.0043284 -0.0303263 -0.368447
-0.00573289 -0.0302471 -0.368447
-0.0157417 -0.0301684 -0.368446
-0.0256986 -0.03009 -0.368446
-0.0356039 -0.0300121 -0.368446
-0.045458 -0.0299345 -0.368445
-0.0552613 -0.0298574 -0.368445
-0.16906 -0.0303686 -0.325178
-0.169093 -0.0319055 -0.2779
-0.169149 -0.0345266 -0.197274
-0.169193 -0.036527 -0.135737
-0.169358 -0.0442119 0.100659
-0.169393 -0.0458185 0.150081
-0.16943 -0.0475463 0.20323
-0.169515 -0.0514242 0.322519
0.0553214 -0.027485 -0.368727
-0.0650868 -0.0266375 -0.368713
-0.0747866 -0.0265693 -0.368712
-0.0844367 -0.0265013 -0.368711
-0.0940376 -0.0264338 -0.36871
-0.10359 -0.0263665 -0.368708
-0.113093 -0.0262997 -0.368707
-0.122549 -0.0262331 -0.368706
-0.135082 -0.0261449 -0.368705
-0.169044 -0.0265329 -0.347148
-0.169129 -0.0300688 -0.225581
-0.16917 -0.031762 -0.16737
-0.169241 -0.0346922 -0.0666294
-0.169267 -0.0357928 -0.0287875
-0.169296 -0.0369657 0.0115343
-0.169471 -0.0442082 0.260536
0.190857 -0.0250858 -0.369028
0.179806 -0.0250172 -0.369026
0.172472 -0.0249716 -0.369025
0.111197 -0.0245912 -0.369014
0.100577 -0.0245253 -0.369012
0.090014 -0.0244597 -0.36901
0.0795072 -0.0243945 -0.369008
0.0690563 -0.0243296 -0.369006
-0.169076 -0.024567 -0.30212
-0.16911 -0.0258426 -0.252418
-0.169149 -0.0272579 -0.197271
-0.169216 -0.0296975 -0.102212
-0.169326 -0.0337218 0.0545901
-0.169358 -0.0349042 0.100663
-0.169393 -0.0361726 0.150085
-0.16943 -0.0375366 0.203234
-0.169516 -0.0405978 0.322511
0.21297 -0.0218536 -0.36932
0.205518 -0.0218135 -0.369318
0.16137 -0.021576 -0.369307
0.150483 -0.0215175 -0.369304
0.139654 -0.0214592 -0.369302
0.132468 -0.0214206 -0.3693
0.121737 -0.0213628 -0.369297
0.0447756 -0.0209489 -0.369278
0.0345115 -0.0208937 -0.369275
0.0243012 -0.0208387 -0.369272
0.0141444 -0.0207841 -0.36927
0.00740278 -0.0207478 -0.369268
-0.00266564 -0.0206937 -0.369265
-0.0126817 -0.0206398 -0.369263
-0.0226457 -0.0205862 -0.36926
-0.0325581 -0.0205329 -0.369258
-0.045695 -0.0204622 -0.369254
-0.0554885 -0.0204096 -0.369252
-0.14452 -0.0199307 -0.369229
-0.153812 -0.0198807 -0.369227
-0.163058 -0.019831 -0.369224
-0.169059 -0.0207786 -0.325175
-0.169092 -0.0218302 -0.277897
-0.169192 -0.0249923 -0.135733
-0.16924 -0.0265294 -0.0666262
-0.169267 -0.0273711 -0.028784
-0.169472 -0.0338061 0.260528
-0.0653042 -0.0172199 -0.369517
-0.0749943 -0.0171758 -0.369514
-0.0846349 -0.017132 -0.369511
-0.0942264 -0.0170883 -0.369508
-0.103769 -0.0170449 -0.369505
-0.113264 -0.0170017 -0.369502
-0.12271 -0.0169587 -0.369499
-0.135231 -0.0169017 -0.369494
-0.169044 -0.0171684 -0.347145
-0.169129 -0.0194564 -0.225577
-0.16917 -0.0205519 -0.167366
-0.169215 -0.0217782 -0.102209
-0.169295 -0.0239191 0.0115397
-0.169325 -0.0247294 0.0545942
-0.169358 -0.0255965 0.100668
-0.169392 -0.0265267 0.15009
-0.169431 -0.0275266 0.20322
-0.169516 -0.0297716 0.322503
0.194062 -0.0150502 -0.369888
0.186683 -0.0150227 -0.369885
0.175665 -0.0149817 -0.369881
0.110797 -0.0147403 -0.369855
0.100189 -0.0147008 -0.369851
0.0896367 -0.0146615 -0.369847
0.0791411 -0.0146225 -0.369843
0.0721751 -0.0145965 -0.36984
0.0617721 -0.0145578 -0.369836
-0.169075 -0.0147402 -0.302117
-0.16911 -0.0155056 -0.252414
-0.169149 -0.0163548 -0.197268
-0.169192 -0.0173024 -0.13573
-0.169472 -0.0234041 0.260521
0.212458 -0.0117555 -0.370182
0.164553 -0.0116169 -0.37016
0.157284 -0.0115958 -0.370157
0.146428 -0.0115644 -0.370152
0.135631 -0.0115332 -0.370147
0.124893 -0.0115021 -0.370142
0.0513122 -0.0112892 -0.370108
0.0410226 -0.0112594 -0.370103
0.030787 -0.0112298 -0.370098
0.0206052 -0.0112003 -0.370093
0.0104767 -0.011171 -0.370088
0.00040105 -0.0111419 -0.370084
-0.00962213 -0.0111128 -0.370079
-0.0195933 -0.011084 -0.370074
-0.0295128 -0.0110553 -0.37007
-0.039381 -0.0110267 -0.370065
-0.0491984 -0.0109983 -0.37006
-0.14466 -0.0107221 -0.370016
-0.153943 -0.0106952 -0.370011
-0.16318 -0.0106685 -0.370007
-0.169059 -0.0111885 -0.325172
-0.169092 -0.0117548 -0.277894
-0.169129 -0.0123814 -0.225575
-0.16924 -0.0142851 -0.0666215
-0.169266 -0.0147383 -0.028779
-0.169295 -0.0152213 0.0115434
-0.169325 -0.0157369 0.0545979
-0.169357 -0.0162887 0.100672
-0.169394 -0.0168804 0.150072
-0.169432 -0.0175168 0.203213
-0.169517 -0.0189455 0.322495
-0.169169 -0.00934183 -0.167362
-0.169215 -0.00989925 -0.102204
-0.169473 -0.0130022 0.260513
0.200969 -0.00502089 -0.37075
0.189883 -0.00500715 -0.370743
0.178856 -0.00499348 -0.370736
0.117494 -0.00491742 -0.370699
0.106859 -0.00490424 -0.370693
0.096281 -0.00489113 -0.370686
0.0857592 -0.00487809 -0.37068
0.0752934 -0.00486512 -0.370674
0.064883 -0.00485221 -0.370667
-0.0591142 -0.00469852 -0.370592
-0.0688246 -0.00468649 -0.370586
-0.0784854 -0.00467451 -0.37058
-0.088097 -0.0046626 -0.370574
-0.0976597 -0.00465075 -0.370568
-0.110335 -0.00463504 -0.37056
-0.119785 -0.00462333 -0.370555
-0.129187 -0.00461167 -0.370549
-0.169043 -0.00468232 -0.347142
-0.169075 -0.00491344 -0.302114
-0.16911 -0.00516856 -0.252411
-0.169148 -0.00545162 -0.197264
-0.169191 -0.00576749 -0.135726
-0.16924 -0.00612221 -0.0666186
-0.169266 -0.00631646 -0.0287756
-0.169294 -0.00652343 0.011547
-0.169325 -0.00674442 0.0546007
-0.169359 -0.0069808 0.100652
-0.169394 -0.00723443 0.150066
-0.169432 -0.00750719 0.203206
-0.169518 -0.00811945 0.322487
0.211947 -0.00167768 -0.371043
0.171384 -0.00166093 -0.371016
0.160461 -0.00165642 -0.371008
0.149598 -0.00165193 -0.371001
0.142389 -0.00164895 -0.370996
0.131623 -0.00164451 -0.370989
0.0544148 -0.00161262 -0.370937
0.0441178 -0.00160836 -0.37093
0.0372832 -0.00160554 -0.370925
0.0270763 -0.00160132 -0.370918
0.0169228 -0.00159713 -0.370911
0.00682238 -0.00159296 -0.370904
-0.00322545 -0.00158881 -0.370897
-0.0132211 -0.00158468 -0.370891
-0.0231648 -0.00158057 -0.370884
-0.0330572 -0.00157649 -0.370877
-0.0428985 -0.00157242 -0.37087
-0.138591 -0.0015329 -0.370805
-0.147896 -0.00152905 -0.370799
-0.160231 -0.00152396 -0.370791
-0.169028 -0.00152492 -0.368102
-0.169058 -0.00159837 -0.325169
-0.169092 -0.00167927 -0.277891
-0.169128 -0.00176878 -0.225571
-0.169169 -0.00186838 -0.16736
-0.169215 -0.00197987 -0.102201
-0.169474 -0.00260045 0.260506
-0.169433 0.0025024 0.203199
-0.169474 0.00260044 0.260502
-0.169518 0.00270648 0.322479
0.200471 0.00501585 -0.371607
0.189397 0.00500213 -0.371598
0.182048 0.00499303 -0.371592
0.120642 0.00491699 -0.371542
0.11 0.00490381 -0.371533
0.0994137 0.0048907 -0.371524
0.092388 0.004882 -0.371519
0.0818961 0.004869 -0.37151
0.0714599 0.00485608 -0.371501
-0.0528421 0.00470215 -0.371399
-0.0625761 0.00469009 -0.371391
-0.0754775 0.00467412 -0.371381
-0.0850959 0.00466221 -0.371373
-0.0946655 0.00465036 -0.371365
-0.104187 0.00463857 -0.371357
-0.113659 0.00462683 -0.371349
-0.123085 0.00461516 -0.371342
-0.169043 0.00468231 -0.347139
-0.169074 0.00491343 -0.302111
-0.169109 0.00516855 -0.252408
-0.169148 0.00545162 -0.19726
-0.169191 0.00576749 -0.135722
-0.169239 0.00612221 -0.0666137
-0.169266 0.00631645 -0.0287706
-0.169296 0.00652331 0.0115308
-0.169327 0.00674427 0.0545778
-0.16936 0.00698072 0.100644
-0.169395 0.00723435 0.150057
0.211436 0.00837996 -0.371902
0.170919 0.00829636 -0.371866
0.160009 0.00827384 -0.371856
0.149157 0.00825145 -0.371847
0.141956 0.00823659 -0.37184
0.131202 0.0082144 -0.371831
0.0609637 0.00806948 -0.371768
0.0506412 0.00804818 -0.371759
0.0403731 0.00802699 -0.37175
0.0301588 0.00800591 -0.371741
0.0199981 0.00798495 -0.371732
0.00989047 0.00796409 -0.371723
-0.000164539 0.00794335 -0.371714
-0.0101672 0.00792271 -0.371705
-0.0201181 0.00790218 -0.371696
-0.0300175 0.00788175 -0.371687
-0.0398659 0.00786143 -0.371679
-0.132513 0.00767027 -0.371596
-0.144939 0.00764463 -0.371585
-0.154205 0.00762551 -0.371577
-0.163424 0.00760649 -0.371568
-0.169058 0.00799185 -0.325166
-0.169091 0.00839631 -0.277887
-0.169128 0.0088439 -0.225568
-0.169168 0.00934189 -0.167356
-0.169214 0.00989931 -0.102197
-0.169434 0.0125119 0.203192
-0.169475 0.0130021 0.260495
-0.169519 0.0135323 0.322471
-0.169147 0.0127205 -0.197257
-0.16919 0.0134575 -0.135719
-0.169239 0.0142852 -0.0666103
-0.169268 0.0147382 -0.0287902
-0.169297 0.015221 0.0115254
-0.169327 0.0157366 0.0545726
-0.16936 0.0162883 0.100638
-0.169396 0.0168801 0.15005
0.199974 0.0150326 -0.372462
0.188912 0.0149915 -0.372451
0.181571 0.0149643 -0.372443
0.120233 0.0147366 -0.37238
0.109602 0.0146971 -0.372369
0.0990275 0.0146579 -0.372358
0.0920093 0.0146318 -0.372351
0.0815285 0.0145929 -0.372341
0.0711034 0.0145542 -0.37233
-0.0498184 0.0141054 -0.372205
-0.0595594 0.0140692 -0.372195
-0.0692506 0.0140332 -0.372185
-0.0788923 0.0139974 -0.372175
-0.0884851 0.0139618 -0.372165
-0.0980291 0.0139264 -0.372155
-0.107525 0.0138912 -0.372145
-0.120111 0.0138444 -0.372132
-0.169042 0.014047 -0.347136
-0.169074 0.0147404 -0.302108
-0.169109 0.0155058 -0.252404
-0.169214 0.0178188 -0.102194
-0.169434 0.0225212 0.203185
-0.169475 0.0234036 0.260488
-0.16952 0.0243579 0.322463
0.210927 0.0184175 -0.372759
0.170455 0.0182339 -0.372715
0.159557 0.0181845 -0.372703
0.152324 0.0181517 -0.372695
0.141524 0.0181027 -0.372683
0.130781 0.018054 -0.372671
0.0606184 0.0177357 -0.372594
0.0503068 0.017689 -0.372583
0.0400493 0.0176425 -0.372571
0.0298457 0.0175962 -0.37256
0.0196954 0.0175501 -0.372549
0.00959817 0.0175043 -0.372538
-0.169058 0.0175821 -0.325163
-0.169091 0.018472 -0.277884
-0.169127 0.0194567 -0.225564
-0.169168 0.0205522 -0.167352
-0.169268 0.02316 -0.0287951
-0.169297 0.0239187 0.0115204
-0.169328 0.0247289 0.054567
-0.169361 0.0255958 0.100632
-0.169396 0.0265258 0.150044
-0.000540346 0.0206266 -0.372797
-0.0105295 0.020573 -0.372786
-0.0204669 0.0205198 -0.372774
-0.030353 0.0204668 -0.372763
-0.0401882 0.0204141 -0.372751
-0.129598 0.019935 -0.372646
-0.13893 0.019885 -0.372635
-0.148214 0.0198353 -0.372624
-0.160522 0.0197693 -0.37261
-0.169027 0.0198239 -0.368096
-0.169147 0.0236239 -0.197254
-0.16919 0.0249927 -0.135715
-0.169241 0.0265292 -0.0666337
-0.169435 0.0325305 0.203179
-0.169476 0.033805 0.26048
-0.16952 0.0351835 0.322455
0.199478 0.0250293 -0.373316
0.192105 0.0249837 -0.373307
0.181096 0.0249157 -0.373293
0.119825 0.0245369 -0.373217
0.109205 0.0244713 -0.373204
0.102157 0.0244277 -0.373195
0.0916313 0.0243627 -0.373182
0.0811617 0.024298 -0.373169
0.0707476 0.0242336 -0.373156
-0.0500501 0.0234869 -0.373006
-0.0597814 0.0234268 -0.372994
-0.069463 0.0233669 -0.372982
-0.0790953 0.0233074 -0.37297
-0.0886786 0.0232482 -0.372958
-0.0982133 0.0231892 -0.372947
-0.1077 0.0231306 -0.372935
-0.120274 0.0230529 -0.372919
-0.169042 0.0234118 -0.347133
-0.169073 0.0245674 -0.302105
-0.169108 0.025843 -0.252401
-0.169168 0.0280258 -0.167349
-0.169216 0.0296975 -0.102212
-0.169298 0.0326163 0.0115151
-0.169328 0.033721 0.0545614
-0.169362 0.0349033 0.100626
-0.169397 0.0361714 0.150038
0.210419 0.0284349 -0.373615
0.169992 0.0281517 -0.373562
0.159105 0.0280755 -0.373547
0.151881 0.0280249 -0.373538
0.141092 0.0279493 -0.373524
0.130362 0.0278742 -0.37351
-0.16909 0.0285476 -0.277881
-0.169127 0.0300694 -0.22556
-0.16919 0.0326826 -0.135718
-0.169242 0.0346919 -0.0666381
-0.169269 0.0357924 -0.0288023
-0.169435 0.0425397 0.203172
-0.169477 0.0442063 0.260473
-0.169521 0.0460089 0.322447
0.060159 0.0305951 -0.373692
0.0498617 0.0305145 -0.373678
0.0396186 0.0304344 -0.373664
0.0294291 0.0303547 -0.37365
0.0192928 0.0302753 -0.373636
0.00920942 0.0301964 -0.373622
-0.00082162 0.0301179 -0.373608
-0.0108006 0.0300399 -0.373595
-0.0207279 0.0299622 -0.373581
-0.030604 0.0298849 -0.373567
-0.0404294 0.029808 -0.373553
-0.129752 0.0291091 -0.37343
-0.139074 0.0290362 -0.373417
-0.14835 0.0289636 -0.373404
-0.15758 0.0288914 -0.373391
-0.169027 0.0289735 -0.368093
-0.169057 0.0303692 -0.32516
-0.169108 0.0327346 -0.252399
-0.169146 0.0345274 -0.19725
-0.169216 0.0376167 -0.102219
-0.169329 0.0427131 0.0545559
-0.169362 0.0442106 0.10062
-0.169398 0.0458168 0.150031
0.198983 0.035006 -0.374168
0.191618 0.0349424 -0.374157
0.180621 0.0348473 -0.374141
0.119417 0.0343181 -0.374053
0.112339 0.0342569 -0.374042
0.101768 0.0341655 -0.374027
0.0912539 0.0340746 -0.374012
0.0807956 0.0339842 -0.373997
0.0703925 0.0338942 -0.373981
-0.0502813 0.0328509 -0.373806
-0.060003 0.0327669 -0.373792
-0.069675 0.0326832 -0.373778
-0.0792978 0.0326 -0.373764
-0.0888717 0.0325173 -0.37375
-0.169042 0.0327766 -0.347131
-0.169073 0.0343944 -0.302102
-0.169168 0.039236 -0.167352
-0.169242 0.0428545 -0.0666425
-0.169269 0.044214 -0.0288073
-0.169298 0.0456625 0.0115075
-0.169436 0.0525487 0.203165
-0.169477 0.0546076 0.260466
-0.169522 0.0568343 0.322439
0.209912 0.0384323 -0.374468
0.16953 0.03805 -0.374407
0.162274 0.0379813 -0.374396
0.151438 0.0378787 -0.374379
0.140662 0.0377767 -0.374363
0.129943 0.0376752 -0.374347
-0.0984583 0.035513 -0.373999
-0.107933 0.0354233 -0.373985
-0.120491 0.0353045 -0.373966
-0.16909 0.0386234 -0.277878
-0.169126 0.0406823 -0.225557
-0.169193 0.0442168 -0.13574
-0.169363 0.0535178 0.100614
-0.169398 0.0554622 0.150025
0.0598152 0.040218 -0.374514
0.0495287 0.0401122 -0.374498
0.0392962 0.0400069 -0.374482
0.0291173 0.0399022 -0.374465
0.0223609 0.0398327 -0.374455
0.0122703 0.0397289 -0.374439
0.00223219 0.0396256 -0.374423
-0.00775391 0.0395229 -0.374407
-0.0176883 0.0394207 -0.374391
-0.0275715 0.039319 -0.374375
-0.0406701 0.0391843 -0.374354
-0.129905 0.0382664 -0.374212
-0.139219 0.0381706 -0.374197
-0.148486 0.0380752 -0.374183
-0.157707 0.0379804 -0.374168
-0.169027 0.0381231 -0.368091
-0.169057 0.0399596 -0.325157
-0.169107 0.0430719 -0.252395
-0.169147 0.0454306 -0.197253
-0.169217 0.0494953 -0.102225
-0.16927 0.0526355 -0.0288118
-0.169299 0.0543599 0.0115024
-0.16933 0.0562011 0.0545477
-0.169437 0.0625577 0.203158
-0.169478 0.0650087 0.260458
-0.169522 0.0676595 0.322431
0.202177 0.0450039 -0.375024
0.191132 0.0448813 -0.375006
0.180147 0.0447593 -0.374988
0.11901 0.0440802 -0.374886
0.11194 0.0440017 -0.374874
0.10138 0.0438844 -0.374857
0.0908774 0.0437678 -0.37484
0.0804301 0.0436517 -0.374822
0.070038 0.0435363 -0.374805
-0.169073 0.0442216 -0.302099
-0.169126 0.0477576 -0.225554
-0.169171 0.0504453 -0.167374
-0.169243 0.0550984 -0.0666494
-0.169363 0.062825 0.100608
-0.169399 0.0651075 0.150019
0.213113 0.0484539 -0.375327
0.169068 0.0479287 -0.375251
0.16182 0.0478422 -0.375238
0.150997 0.0477132 -0.375219
0.140232 0.0475848 -0.375201
-0.050589 0.0453091 -0.374871
-0.0602978 0.0451933 -0.374854
-0.0699571 0.0450781 -0.374837
-0.0795673 0.0449635 -0.37482
-0.0891287 0.0448495 -0.374804
-0.0986417 0.044736 -0.374787
-0.108107 0.0446231 -0.374771
-0.117524 0.0445108 -0.374754
-0.169041 0.0452631 -0.347127
-0.169089 0.0486993 -0.277874
-0.169149 0.0526985 -0.197274
-0.169194 0.0557513 -0.135746
-0.169299 0.0630572 0.0114971
-0.16933 0.065193 0.0545422
-0.169437 0.0725667 0.203151
-0.169478 0.0754097 0.260451
-0.169523 0.0784847 0.322423
-0.172025 0.0802485 0.358571
-0.176295 0.0809877 0.374499
0.129386 0.0507134 -0.37546
0.0594721 0.0498224 -0.375334
0.0491964 0.0496914 -0.375316
0.0423758 0.0496045 -0.375304
0.0321897 0.0494747 -0.375285
0.0220567 0.0493456 -0.375267
0.0119765 0.0492171 -0.375249
0.00194862 0.0490893 -0.375231
-0.00802729 0.0489621 -0.375213
-0.0179517 0.0488357 -0.375195
-0.0278249 0.0487098 -0.375177
-0.0376474 0.0485846 -0.37516
-0.169056 0.0495501 -0.325154
-0.169107 0.0534094 -0.252392
-0.169171 0.0579185 -0.167378
-0.169218 0.0613738 -0.102232
-0.169243 0.0632608 -0.0666538
-0.169271 0.0652676 -0.0288192
-0.169399 0.0747527 0.150012
-0.170463 0.0799895 0.248986
-0.178459 0.0813762 0.277061
-0.182563 0.0820869 0.291451
-0.18674 0.0828101 0.306095
-0.190991 0.0835462 0.321
-0.19432 0.0851205 0.351481
-0.19661 0.0877733 0.402042
0.205371 0.0550001 -0.375881
0.194318 0.0548502 -0.37586
0.186983 0.0547507 -0.375846
0.122146 0.0538714 -0.375725
0.111541 0.0537275 -0.375705
0.100993 0.0535845 -0.375685
0.0905016 0.0534422 -0.375666
0.0800653 0.0533006 -0.375646
0.0696842 0.0531598 -0.375627
-0.130109 0.0504501 -0.375253
-0.139411 0.0503239 -0.375235
-0.148666 0.0501984 -0.375218
-0.157875 0.0500735 -0.375201
-0.169026 0.0503228 -0.368087
-0.169072 0.0540488 -0.302096
-0.169129 0.0583689 -0.225581
-0.169194 0.0634409 -0.13575
-0.169331 0.0741848 0.0545367
-0.169364 0.0767856 0.100599
-0.172797 0.0804057 0.165534
-0.176556 0.0810587 0.178009
-0.180378 0.0817208 0.190658
-0.184264 0.0823938 0.203515
-0.188214 0.0830779 0.216586
-0.192231 0.0837735 0.229876
-0.194795 0.0857531 0.265551
-0.196972 0.0882781 0.310791
-0.199282 0.0909563 0.358777
-0.201735 0.0938021 0.409764
0.212603 0.0584205 -0.376178
0.175874 0.0578923 -0.376107
0.164985 0.0577357 -0.376085
0.154154 0.0575799 -0.376064
-0.0475751 0.0546789 -0.375673
-0.0605184 0.0544928 -0.375648
-0.0701681 0.054354 -0.375629
-0.0797689 0.054216 -0.375611
-0.089321 0.0540786 -0.375592
-0.0988248 0.053942 -0.375574
-0.108281 0.053806 -0.375555
-0.117689 0.0536707 -0.375537
-0.169041 0.054628 -0.347124
-0.169089 0.0587751 -0.277871
-0.16915 0.0636012 -0.197279
-0.169218 0.0692927 -0.102236
-0.169271 0.0736889 -0.028824
-0.1693 0.076103 0.0114894
-0.171365 0.0801655 0.0798167
-0.174884 0.0807778 0.0908924
-0.178459 0.0813992 0.102132
-0.182092 0.0820284 0.113517
-0.185781 0.0826674 0.125078
-0.189528 0.0833164 0.136822
-0.193256 0.0840398 0.149802
-0.195221 0.0863212 0.188369
-0.201815 0.0939747 0.317748
0.14682 0.0607411 -0.376329
0.13609 0.060578 -0.376308
0.0591296 0.0594084 -0.376153
0.0522803 0.0593043 -0.376139
0.0420512 0.0591488 -0.376119
0.0318756 0.0589942 -0.376098
0.0217531 0.0588403 -0.376078
0.0116833 0.0586873 -0.376058
0.00166562 0.058535 -0.376038
-0.00830016 0.0583836 -0.376018
-0.0182145 0.0582329 -0.375998
-0.0280778 0.058083 -0.375978
-0.0378905 0.0579338 -0.375958
-0.169056 0.0591407 -0.325151
-0.169111 0.0637449 -0.252419
-0.169172 0.0691282 -0.167383
-0.169244 0.0755045 -0.0666609
-0.176763 0.0811127 0.023734
-0.180171 0.0817053 0.0339179
-0.183631 0.0823047 0.0442231
-0.187143 0.0829131 0.0546805
-0.190706 0.0835304 0.0652936
-0.193723 0.0846478 0.0836711
-0.195606 0.0868344 0.118662
-0.201886 0.0941292 0.235393
-0.20422 0.096841 0.278787
-0.209318 0.102762 0.373535
0.204871 0.0649354 -0.376729
0.19383 0.0647586 -0.376706
0.186503 0.0646413 -0.376691
0.12528 0.0636608 -0.376563
0.114668 0.0634908 -0.376541
0.104113 0.0633218 -0.376519
0.0971074 0.0632096 -0.376505
0.0866453 0.0630421 -0.376483
0.0762385 0.0628754 -0.376462
-0.130262 0.0595683 -0.376032
-0.139555 0.0594195 -0.376013
-0.148801 0.0592714 -0.375993
-0.158002 0.0591241 -0.375974
-0.169026 0.0594725 -0.368085
-0.169072 0.063876 -0.302093
-0.16913 0.0689811 -0.225586
-0.169195 0.0749752 -0.135756
-0.172084 0.0803059 -0.0551823
-0.175251 0.0808569 -0.0461596
-0.178462 0.0814156 -0.037012
-0.185021 0.0825543 -0.0183622
-0.188371 0.0831347 -0.00885439
-0.191769 0.0837233 0.000787735
-0.194149 0.0852009 0.0235031
-0.195955 0.0873002 0.0553952
-0.20195 0.0942682 0.161254
-0.204167 0.0968449 0.200398
-0.211609 0.105495 0.331816
-0.213196 0.110305 0.404264
0.175407 0.0677497 -0.376948
0.164529 0.0675666 -0.376925
-0.0478081 0.0639927 -0.376469
-0.0575142 0.0638294 -0.376448
-0.0703788 0.0636128 -0.37642
-0.0799702 0.0634514 -0.3764
-0.0895129 0.0632908 -0.376379
-0.0990075 0.063131 -0.376359
-0.108454 0.062972 -0.376338
-0.117854 0.0628138 -0.376318
-0.16904 0.063993 -0.347121
-0.169093 0.0688489 -0.277899
-0.169151 0.0745039 -0.197284
-0.170899 0.0801062 -0.117013
-0.176931 0.0811557 -0.100594
-0.180006 0.0816909 -0.0922225
-0.186283 0.0827808 -0.075168
-0.189486 0.0833358 -0.0664833
-0.194538 0.0857063 -0.0314736
-0.202008 0.0943941 0.0941597
-0.204118 0.0968484 0.129651
-0.211162 0.105042 0.248134
-0.213123 0.108944 0.304229
0.157161 0.0707119 -0.377189
0.146385 0.0705217 -0.377165
0.135666 0.0703326 -0.377141
0.065654 0.0690971 -0.376986
0.0553637 0.0689155 -0.376963
0.0451274 0.0687348 -0.37694
0.0349446 0.0685551 -0.376917
0.0248149 0.0683764 -0.376895
0.0147379 0.0681985 -0.376873
0.00471315 0.0680216 -0.37685
-0.00525972 0.0678456 -0.376828
-0.0151811 0.0676706 -0.376806
-0.169055 0.0687312 -0.325148
-0.169111 0.0740816 -0.252424
-0.169829 0.0799259 -0.172826
-0.172672 0.0804206 -0.165415
-0.178465 0.0814286 -0.150314
-0.184405 0.0824622 -0.13483
-0.187433 0.0829874 -0.12696
-0.193297 0.0843102 -0.107564
-0.194895 0.0861699 -0.0819036
-0.196565 0.0881135 -0.0550861
-0.200142 0.0922761 0.0023495
-0.202061 0.0945085 0.0331516
-0.204074 0.0968516 0.0654809
-0.210761 0.104634 0.172857
-0.213059 0.107739 0.215611
-0.213196 0.121618 0.404264
0.211757 0.0749873 -0.377593
0.200688 0.074783 -0.377567
0.18968 0.0745798 -0.377542
0.124868 0.0733832 -0.377394
0.114268 0.0731874 -0.37737
0.107232 0.0730575 -0.377353
0.0967256 0.0728636 -0.377329
0.0862746 0.0726706 -0.377305
-0.0251365 0.0706137 -0.377051
-0.0349529 0.0704324 -0.377028
-0.130414 0.06867 -0.37681
-0.139698 0.0684986 -0.376788
-0.148936 0.068328 -0.376767
-0.158128 0.0681583 -0.376746
-0.169025 0.0686224 -0.368082
-0.169076 0.0737009 -0.302121
-0.169131 0.0795932 -0.225591
-0.171563 0.080233 -0.216694
-0.177069 0.0811912 -0.202918
-0.179871 0.0816789 -0.195907
-0.185579 0.0826721 -0.181627
-0.191431 0.0836866 -0.167036
-0.193681 0.0848005 -0.152027
-0.195224 0.0865967 -0.128328
-0.202109 0.094613 -0.0225625
-0.210398 0.104265 0.104779
-0.212742 0.106993 0.140779
-0.213123 0.119573 0.304229
0.182217 0.0777279 -0.377806
0.171312 0.0775177 -0.37778
0.0757591 0.0756757 -0.377555
-0.0447975 0.0733517 -0.37727
-0.0545105 0.0731644 -0.377248
-0.064174 0.0729781 -0.377225
-0.0737885 0.0727928 -0.377202
-0.0833542 0.0726084 -0.37718
-0.16904 0.0733581 -0.347119
-0.169093 0.078924 -0.277903
-0.170553 0.0800621 -0.263399
-0.178467 0.0814395 -0.244358
-0.183896 0.0823844 -0.231296
-0.189454 0.0833502 -0.217942
-0.192284 0.0838406 -0.21116
-0.194036 0.085254 -0.193162
-0.200389 0.0926538 -0.0996217
-0.202153 0.0947088 -0.0736439
-0.203997 0.0968571 -0.0464875
-0.207948 0.10146 0.0116967
-0.210068 0.103929 0.0429132
-0.212294 0.106522 0.0756869
-0.213059 0.117761 0.215611
-0.213196 0.132931 0.404264
0.162272 0.0803556 -0.381086
0.151926 0.0802141 -0.38027
0.141616 0.080073 -0.379457
0.0653057 0.078663 -0.377803
0.0550261 0.0784564 -0.377778
0.0448005 0.078251 -0.377753
0.0346282 0.0780466 -0.377728
0.024509 0.0778433 -0.377704
0.0144423 0.077641 -0.377679
-0.0929344 0.0754836 -0.377418
-0.105546 0.0752302 -0.377388
-0.114949 0.0750413 -0.377365
-0.169059 0.0783192 -0.325176
-0.177184 0.0812208 -0.288605
-0.182361 0.0821218 -0.276607
-0.187654 0.083043 -0.26434
-0.192978 0.0840571 -0.250958
-0.194366 0.0856748 -0.231329
-0.198871 0.0909245 -0.167631
-0.200497 0.0928203 -0.144629
-0.202193 0.0947969 -0.120646
-0.209767 0.103623 -0.0135525
-0.212951 0.110196 0.0656054
-0.213002 0.116145 0.136559
-0.213123 0.130201 0.304229
0.210704 0.0832228 -0.397537
0.200325 0.083077 -0.396695
0.189982 0.0829317 -0.395856
0.179675 0.082787 -0.39502
0.169404 0.0826427 -0.394187
0.159169 0.082499 -0.393357
0.152365 0.0824034 -0.392805
0.142189 0.0822605 -0.391979
0.132048 0.0821181 -0.391157
0.121942 0.0819762 -0.390337
0.111871 0.0818347 -0.38952
0.101835 0.0816938 -0.388706
0.0918333 0.0815533 -0.387894
0.00656834 0.0803551 -0.380986
-0.00310904 0.0802191 -0.380202
-0.0127538 0.0800835 -0.379421
-0.0255628 0.0799035 -0.378384
-0.0351981 0.0797488 -0.377824
-0.124357 0.0778849 -0.377601
-0.133663 0.0776903 -0.377578
-0.169025 0.0777723 -0.368079
-0.173574 0.0805966 -0.334617
-0.178469 0.0814486 -0.32367
-0.183468 0.0823188 -0.312489
-0.188576 0.0832077 -0.301067
-0.193326 0.0844968 -0.285147
-0.199029 0.0911455 -0.207585
-0.200598 0.0929744 -0.186249
-0.207558 0.101088 -0.0915974
-0.209492 0.103343 -0.0652957
-0.211514 0.1057 -0.037794
-0.212905 0.109106 0.00156569
-0.213059 0.127783 0.215611
0.200018 0.0857366 -0.403217
0.189362 0.08552 -0.403026
0.182287 0.0853763 -0.4029
0.17172 0.0851615 -0.40271
0.161206 0.0849478 -0.402522
0.140336 0.0845235 -0.402148
0.129978 0.084313 -0.401962
0.119673 0.0841035 -0.401777
0.109504 0.0839128 -0.401418
0.0996052 0.0837702 -0.400594
0.0897398 0.0836281 -0.399774
0.0799079 0.0834865 -0.398956
0.0701092 0.0833453 -0.398141
0.0603436 0.0832046 -0.397328
0.0506109 0.0830644 -0.396518
0.0409109 0.0829247 -0.395711
0.0312435 0.0827854 -0.394907
0.0216086 0.0826466 -0.394105
0.0120059 0.0825082 -0.393306
0.0024353 0.0823703 -0.39251
-0.0102759 0.0821872 -0.391453
-0.0197724 0.0820503 -0.390663
-0.0292376 0.0819139 -0.389877
-0.0386713 0.0817778 -0.389093
-0.0480738 0.0816423 -0.388312
-0.060562 0.0814622 -0.387275
-0.069892 0.0813277 -0.3865
-0.0791913 0.0811936 -0.385728
-0.08846 0.08106 -0.384958
-0.0976982 0.0809268 -0.38419
-0.109969 0.0807498 -0.383171
-0.143438 0.0802673 -0.380391
-0.155509 0.0800932 -0.379388
-0.164529 0.0799632 -0.378639
-0.177283 0.0812459 -0.361409
-0.182067 0.0820788 -0.351067
-0.186951 0.0829289 -0.340512
-0.191938 0.083796 -0.329744
-0.193652 0.0849074 -0.317076
-0.197718 0.0896499 -0.263802
-0.200691 0.0931173 -0.224852
-0.205609 0.0988521 -0.16043
-0.207385 0.100924 -0.137156
-0.209238 0.103085 -0.112885
-0.212863 0.108117 -0.0565237
-0.212951 0.119192 0.0656054
-0.213002 0.125626 0.136559
0.149398 0.0876683 -0.404817
0.061169 0.0858122 -0.403183
0.0512285 0.0856031 -0.402998
0.0413364 0.085395 -0.402815
0.0314923 0.0851879 -0.402633
-0.0106196 0.084302 -0.401853
-0.0202136 0.0841001 -0.401675
-0.0297095 0.0839157 -0.401336
-0.0390214 0.0837782 -0.400543
-0.0483028 0.0836413 -0.399752
-0.0575539 0.0835047 -0.398963
-0.0698419 0.0833233 -0.397916
-0.0790229 0.0831878 -0.397134
-0.0881741 0.0830528 -0.396354
-0.10033 0.0828733 -0.395319
-0.109412 0.0827391 -0.394546
-0.118465 0.0826054 -0.393776
-0.130491 0.0824277 -0.392752
-0.139476 0.082295 -0.391988
-0.148432 0.0821627 -0.391226
-0.160329 0.0819869 -0.390214
-0.169218 0.0818556 -0.389457
-0.178079 0.0817247 -0.388703
-0.183104 0.0822625 -0.381773
-0.187828 0.0830854 -0.371887
-0.19265 0.0839239 -0.36181
-0.193956 0.0852918 -0.346961
-0.197902 0.089895 -0.297097
-0.202298 0.0950235 -0.241544
-0.205518 0.0987804 -0.200848
-0.212905 0.117663 0.00156569
0.211196 0.0919565 -0.408494
0.0207689 0.0878161 -0.404851
0.0110503 0.0876048 -0.404665
0.00137815 0.0873945 -0.40448
-0.0805407 0.0856132 -0.402913
-0.0897785 0.0854124 -0.402737
-0.0989731 0.0852124 -0.402561
-0.138324 0.0843568 -0.401809
-0.150273 0.084097 -0.40158
-0.159162 0.0839183 -0.401261
-0.167944 0.0837856 -0.400495
-0.179609 0.0836093 -0.399479
-0.188326 0.0834776 -0.39872
-0.193048 0.0842586 -0.38957
-0.198074 0.090124 -0.328221
-0.202328 0.0950886 -0.276294
-0.210565 0.104701 -0.175753
-0.212951 0.128187 0.0656054
-0.213002 0.135107 0.136559
0.199034 0.0946559 -0.410772
0.191984 0.0944977 -0.410633
0.181453 0.0942613 -0.410425
0.170975 0.0940261 -0.410218
0.160548 0.0937921 -0.410012
0.139851 0.0933276 -0.409604
0.129579 0.093097 -0.409401
0.119358 0.0928676 -0.409199
0.109187 0.0926393 -0.408999
0.102433 0.0924877 -0.408865
0.0923452 0.0922613 -0.408666
0.0823063 0.092036 -0.408468
0.0723163 0.0918118 -0.408271
-0.108655 0.0877495 -0.404703
-0.117738 0.0875457 -0.404523
-0.129782 0.0872753 -0.404286
-0.202356 0.0951494 -0.308731
-0.206941 0.100501 -0.254613
-0.208586 0.102422 -0.235195
-0.210295 0.104417 -0.215021
-0.21279 0.110124 -0.157887
-0.212825 0.115013 -0.109455
-0.212863 0.120357 -0.0565237
0.211659 0.0978961 -0.413526
0.0613246 0.0944168 -0.41047
0.0514627 0.0941885 -0.410269
0.0416484 0.0939614 -0.41007
0.0318812 0.0937353 -0.409871
-0.00033927 0.0929896 -0.409217
-0.00990567 0.0927681 -0.409022
-0.0194266 0.0925478 -0.408829
-0.0289025 0.0923284 -0.408637
-0.0383335 0.0921102 -0.408445
-0.0477201 0.0918929 -0.408254
-0.0601668 0.0916048 -0.408002
-0.0694508 0.0913899 -0.407813
-0.199674 0.0920438 -0.37003
-0.201005 0.0935983 -0.354815
-0.202382 0.0952062 -0.339079
-0.206813 0.100379 -0.288447
-0.208399 0.102231 -0.270325
-0.212758 0.109215 -0.202369
-0.212905 0.130499 0.00156569
0.150942 0.0993898 -0.414747
0.100083 0.0981774 -0.413683
0.0900598 0.0979384 -0.413473
0.0800852 0.0977006 -0.413265
-0.0793057 0.0939007 -0.409932
-0.0884759 0.0936821 -0.409741
-0.0976034 0.0934645 -0.40955
-0.127725 0.0927463 -0.40892
-0.139644 0.0924622 -0.408671
-0.148535 0.0922502 -0.408485
-0.160328 0.091969 -0.408239
-0.169125 0.0917593 -0.408055
-0.177882 0.0915505 -0.407872
-0.189496 0.0912736 -0.407629
-0.198161 0.0910671 -0.407448
-0.201072 0.0937001 -0.38232
-0.206693 0.100266 -0.320059
-0.208224 0.102053 -0.303106
-0.212728 0.108377 -0.243366
-0.21279 0.11759 -0.157887
-0.212825 0.122811 -0.109455
-0.212863 0.128516 -0.0565239
0.20157 0.103515 -0.418278
0.191075 0.103258 -0.418052
0.180632 0.103002 -0.417828
0.170241 0.102747 -0.417605
0.0723825 0.100346 -0.4155
0.020324 0.0990692 -0.414381
0.0107102 0.0988334 -0.414174
-0.0304261 0.0978242 -0.413289
-0.0398001 0.0975943 -0.413088
-0.20243 0.0953097 -0.394264
-0.205151 0.0984888 -0.365024
-0.20806 0.101887 -0.333767
-0.212701 0.107602 -0.281271
0.161975 0.10542 -0.419863
0.141481 0.104903 -0.41941
0.131309 0.104647 -0.419185
0.121187 0.104391 -0.418962
0.111115 0.104137 -0.418739
0.0614772 0.102885 -0.417643
0.0516925 0.102639 -0.417427
-0.0498294 0.100078 -0.415185
-0.059088 0.0998449 -0.41498
-0.0683035 0.0996125 -0.414777
-0.107747 0.0986177 -0.413906
-0.119725 0.0983156 -0.413642
-0.137556 0.0978659 -0.413249
-0.149352 0.0975684 -0.412988
-0.209387 0.103461 -0.347067
-0.212503 0.107101 -0.314559
-0.212758 0.119957 -0.202369
0.210239 0.109754 -0.421491
0.150696 0.108057 -0.421449
0.0409794 0.105146 -0.419544
0.0313182 0.104896 -0.419324
-0.00055626 0.104071 -0.418602
-0.010021 0.103825 -0.418388
-0.0194412 0.103581 -0.418174
-0.158533 0.0999783 -0.415022
-0.170172 0.0996768 -0.414759
-0.178856 0.0994519 -0.414562
-0.190373 0.0991535 -0.414301
-0.198965 0.0989309 -0.414107
-0.206377 0.0999652 -0.403553
-0.207763 0.101585 -0.389498
-0.209195 0.103258 -0.374981
-0.212728 0.118698 -0.243366
-0.21279 0.128789 -0.157887
-0.212825 0.134507 -0.109455
0.199596 0.112623 -0.421484
0.0996666 0.109693 -0.421413
0.0896251 0.109399 -0.421405
0.0796373 0.109106 -0.421398
0.0697029 0.108814 -0.421391
-0.0786996 0.104728 -0.419103
-0.0877763 0.104487 -0.418892
-0.0998137 0.104167 -0.418612
-0.129587 0.103375 -0.41792
-0.207628 0.101447 -0.414899
-0.212675 0.113264 -0.316423
-0.212701 0.117534 -0.281271
0.189011 0.115476 -0.421476
0.181987 0.115265 -0.421471
0.1715 0.114948 -0.421464
0.161069 0.114634 -0.421456
0.140379 0.11401 -0.421442
0.130118 0.113701 -0.421434
0.119913 0.113393 -0.421427
0.109762 0.113087 -0.42142
0.0208159 0.110406 -0.421356
0.0111927 0.110116 -0.421349
-0.0299302 0.108876 -0.42132
-0.0392889 0.108594 -0.421314
-0.0485993 0.108313 -0.421307
-0.0578617 0.108034 -0.4213
-0.0701374 0.107664 -0.421292
-0.212758 0.1307 -0.202369
0.210239 0.119298 -0.421491
0.0598213 0.114639 -0.421384
0.0499923 0.114334 -0.421377
0.0402153 0.114031 -0.42137
0.03049 0.11373 -0.421363
0.00161985 0.112836 -0.421343
-0.00790289 0.112541 -0.421336
-0.109459 0.109396 -0.421264
-0.118411 0.109118 -0.421257
-0.139122 0.108477 -0.421242
-0.147925 0.108204 -0.421236
-0.159592 0.107843 -0.421228
-0.168292 0.107573 -0.421222
-0.212609 0.107886 -0.408058
-0.212652 0.11545 -0.349109
-0.212728 0.12902 -0.243366
0.150696 0.120585 -0.421449
0.0996666 0.118963 -0.421413
0.0896251 0.118643 -0.421405
0.0796373 0.118326 -0.421398
0.0697029 0.11801 -0.421391
-0.0205227 0.115141 -0.421327
-0.0792892 0.113272 -0.421285
-0.0883942 0.112983 -0.421279
-0.100462 0.112599 -0.42127
-0.179824 0.110075 -0.421214
-0.188423 0.109802 -0.421207
-0.199822 0.109439 -0.421199
-0.208322 0.109169 -0.421193
-0.21263 0.114515 -0.379582
-0.212675 0.122835 -0.316423
0.199596 0.125313 -0.421484
0.189011 0.124968 -0.421476
0.181987 0.124738 -0.421471
0.1715 0.124396 -0.421464
0.161069 0.124056 -0.421456
0.140379 0.123381 -0.421442
0.130118 0.123046 -0.421434
0.119913 0.122713 -0.421427
0.0208159 0.11948 -0.421356
0.0111927 0.119166 -0.421349
-0.0299302 0.117825 -0.42132
-0.0392889 0.117519 -0.421314
-0.130276 0.114551 -0.421249
-0.212701 0.130777 -0.281271
0.210239 0.128841 -0.421491
0.109762 0.12548 -0.42142
0.0598213 0.12381 -0.421384
0.0499923 0.123481 -0.421377
0.0402153 0.123154 -0.42137
0.03049 0.122829 -0.421363
-0.0485993 0.120183 -0.421307
-0.0578617 0.119873 -0.4213
-0.0701374 0.119463 -0.421292
-0.109459 0.118147 -0.421264
-0.118411 0.117848 -0.421257
-0.212652 0.124687 -0.349109
0.150696 0.129982 -0.421449
0.0996666 0.128233 -0.421413
0.0896251 0.127888 -0.421405
0.0796373 0.127546 -0.421398
0.00161985 0.124872 -0.421343
-0.00790289 0.124545 -0.421336
-0.0205227 0.124113 -0.421327
-0.139122 0.120048 -0.421242
-0.147925 0.119746 -0.421236
-0.159592 0.119346 -0.421228
-0.168292 0.119048 -0.421222
-0.179824 0.118652 -0.421214
-0.188423 0.118358 -0.421207
-0.199822 0.117967 -0.421199
-0.208322 0.117676 -0.421193
-0.212609 0.119394 -0.408058
-0.21263 0.123438 -0.379582
0.199596 0.13483 -0.421484
0.189011 0.134459 -0.421476
0.181987 0.134212 -0.421471
0.1715 0.133844 -0.421464
0.161069 0.133478 -0.421456
0.140379 0.132752 -0.421442
0.0697029 0.130271 -0.421391
0.0208159 0.128555 -0.421356
0.0111927 0.128217 -0.421349
-0.0792892 0.125041 -0.421285
-0.0883942 0.124721 -0.421279
-0.100462 0.124297 -0.42127
-0.130276 0.123251 -0.421249
-0.212675 0.135598 -0.316423
0.210606 0.138485 -0.420907
0.130118 0.135507 -0.421434
0.119913 0.13514 -0.421427
0.109762 0.134775 -0.42142
0.0598213 0.132981 -0.421384
0.0499923 0.132628 -0.421377
-0.0299302 0.129756 -0.42132
-0.0392889 0.12942 -0.421314
-0.0485993 0.129085 -0.421307
-0.0578617 0.128753 -0.4213
-0.0701374 0.128312 -0.421292
-0.212652 0.133923 -0.349109
0.151568 0.139649 -0.419879
0.0996666 0.137502 -0.421413
0.0402153 0.135317 -0.42137
0.03049 0.13496 -0.421363
0.00161985 0.133899 -0.421343
-0.00790289 0.133549 -0.421336
-0.0205227 0.133085 -0.421327
-0.109459 0.129816 -0.421264
-0.118411 0.129487 -0.421257
-0.139122 0.128726 -0.421242
-0.147925 0.128402 -0.421236
-0.159592 0.127973 -0.421228
-0.168292 0.127654 -0.421222
-0.212609 0.128025 -0.408058
0.199977 0.14536 -0.415077
0.18909 0.144889 -0.415469
0.181871 0.144576 -0.415728
0.1711 0.14411 -0.416116
0.160398 0.143646 -0.4165
0.139201 0.142729 -0.417262
0.090777 0.140632 -0.419003
0.080585 0.140191 -0.41937
0.0704567 0.139753 -0.419734
0.0208159 0.137629 -0.421356
-0.0792892 0.133867 -0.421285
-0.0883942 0.133525 -0.421279
-0.100462 0.133071 -0.42127
-0.179824 0.130089 -0.421214
-0.188423 0.129766 -0.421207
-0.199822 0.129337 -0.421199
-0.208322 0.129018 -0.421193
-0.21263 0.135335 -0.379582
0.212942 0.149628 -0.411472
0.130343 0.145961 -0.414518
0.119867 0.145496 -0.414905
0.109457 0.145034 -0.415289
0.0617402 0.142916 -0.417049
0.0121374 0.140714 -0.418878
-0.0296316 0.13886 -0.420419
-0.0391148 0.138439 -0.420769
-0.0485406 0.13802 -0.421116
-0.0578617 0.137632 -0.4213
-0.130276 0.134851 -0.421249
0.203906 0.152948 -0.408653
0.196574 0.152615 -0.40893
0.149684 0.150481 -0.410704
0.100631 0.148249 -0.412559
0.0903088 0.14778 -0.41295
0.0496643 0.145931 -0.414487
0.0396617 0.145476 -0.414865
0.0297212 0.145023 -0.415241
0.000267208 0.143683 -0.416355
-0.0094302 0.143242 -0.416722
-0.0190682 0.142803 -0.417086
-0.0694906 0.140509 -0.418994
-0.109281 0.138699 -0.420499
-0.118318 0.138288 -0.42084
0.183894 0.155762 -0.406256
0.176624 0.155423 -0.406537
0.165779 0.154918 -0.406958
0.140746 0.153751 -0.407928
0.130132 0.153256 -0.40834
0.119587 0.152765 -0.408749
0.0814926 0.150989 -0.410225
0.0712564 0.150512 -0.410622
0.0210309 0.148171 -0.412569
0.0111727 0.147711 -0.412952
-0.0779714 0.143556 -0.416407
-0.0902985 0.142981 -0.416885
-0.0994793 0.142554 -0.417241
-0.138636 0.140728 -0.418759
-0.14753 0.140314 -0.419104
-0.159307 0.139765 -0.41956
-0.16808 0.139356 -0.4199
-0.179698 0.138814 -0.420351
-0.188352 0.138411 -0.420686
-0.199813 0.137877 -0.421131
-0.208322 0.137525 -0.421193
0.211609 0.160835 -0.401979
0.200498 0.160304 -0.40242
0.156778 0.158217 -0.404157
0.11068 0.156017 -0.405988
0.100224 0.155518 -0.406403
0.0898345 0.155022 -0.406816
0.06245 0.153715 -0.407903
0.0522996 0.15323 -0.408306
0.0422128 0.152749 -0.408707
-0.029863 0.149308 -0.41157
-0.0394407 0.148851 -0.41195
-0.04896 0.148397 -0.412328
-0.0584213 0.147945 -0.412704
-0.129088 0.144572 -0.415511
0.137034 0.160997 -0.401789
0.126372 0.160476 -0.402222
0.0809595 0.158257 -0.404069
0.0706575 0.157754 -0.404488
0.0300963 0.155772 -0.406138
0.0201148 0.155284 -0.406544
0.0101956 0.154799 -0.406948
0.000338078 0.154318 -0.407349
-0.00945827 0.153839 -0.407747
-0.019194 0.153363 -0.408143
-0.0701176 0.150875 -0.410214
-0.110292 0.148912 -0.411848
-0.119415 0.148466 -0.412219
0.0617925 0.160982 -0.401748
0.0515772 0.160472 -0.402173
-0.0598227 0.154901 -0.406811
-0.0786836 0.153958 -0.407597
-0.0880282 0.153491 -0.407986
-0.1004 0.152873 -0.408501
-0.139928 0.150896 -0.410147
-0.148905 0.150447 -0.41052
-0.157829 0.150001 -0.410892
-0.169645 0.14941 -0.411384
-0.178446 0.14897 -0.41175
-0.190101 0.148387 -0.412236
-0.198783 0.147953 -0.412597
-0.0105694 0.160968 -0.401708
-0.0203646 0.160467 -0.402125
-0.030099 0.159969 -0.40254
-0.0397733 0.159475 -0.402952
-0.0493878 0.158983 -0.403362
-0.0684401 0.158008 -0.404174
-0.130295 0.154845 -0.406809
-0.0802142 0.160955 -0.40167
-0.0896134 0.160463 -0.40208
-0.0989553 0.159975 -0.402487
-0.108241 0.159489 -0.402892
-0.120534 0.158846 -0.403427
-0.138788 0.157891 -0.404223
-0.198084 0.15479 -0.406807
-0.150307 0.16078 -0.401768
-0.159314 0.160299 -0.402169
-0.168268 0.15982 -0.402568
-0.180123 0.159187 -0.403097
-0.188953 0.158714 -0.40349
