ply
format ascii 1.0
comment Created by Open3D
element vertex 1612
property double x
property double y
property double z
end_header
0.0851675 -0.0765188 0.417781
-0.121157 0.15988 0.254662
-0.178857 -0.12085 0.417781
0.167234 -0.0299946 -0.0034022
-0.174708 -0.160846 0.00378452
0.0724234 0.00105351 -0.266276
-0.130261 0.00816862 0.417781
-0.213069 0.0555232 0.160139
-0.121157 0.0659562 0.128993
-0.0533053 -0.160846 -0.104374
0.213067 0.00417774 -0.121263
0.200175 -0.160846 -0.122845
-0.213069 -0.0201283 0.224193
0.105156 0.00417774 0.222659
0.0912692 0.0694838 -0.321913
-0.065836 0.0448453 -0.33428
0.201275 0.00417774 0.195112
-0.0140789 0.0919881 -0.332639
-0.0715271 -0.160846 0.177179
0.162935 -0.169309 -0.376865
-0.213069 -0.0929648 0.186606
-0.213069 -0.144841 -0.245786
0.116359 -0.0161034 -0.321873
0.147392 -0.160846 0.174845
0.0458607 -0.0132498 0.306596
0.132744 0.015806 -0.310073
0.213069 -0.00534545 0.210505
-0.0527645 0.00417774 -0.223971
-0.121157 0.147776 0.0357396
-0.213069 -0.122484 0.114834
-0.17666 -0.141068 0.417781
-0.0494427 -0.160846 0.235832
-0.213069 0.0879765 -0.217109
-0.213069 0.0528562 -0.0696427
-0.213069 0.0706212 0.283895
-0.121157 0.00121737 -0.312762
0.0216011 0.0553817 0.35281
-0.0850225 -0.0132286 0.314282
-0.121157 0.15113 -0.109763
0.0913194 0.103984 0.358063
-0.213069 0.0505221 -0.0781283
-0.2034 0.173379 0.269021
-0.0988447 0.00417652 0.226573
-0.0525235 -0.160846 0.00267531
0.19259 -0.0983313 -0.417781
0.102798 -0.115079 -0.417781
-0.213069 -0.0797797 0.319662
-0.0137912 0.00417774 0.133457
0.201863 0.00319036 -0.250369
-0.121157 0.120044 -0.315878
0.15274 -0.00819703 -0.417781
0.0384768 -0.0048298 -0.277978
0.0197937 0.0326424 0.417781
-0.121157 0.075936 0.140619
-0.121157 0.0604353 0.0989755
-0.0417853 0.00417774 0.20081
0.213069 -0.0175614 0.183353
0.0293 -0.0183224 0.28037
-0.130402 -0.0945614 -0.417781
0.0636786 -0.000974747 -0.327464
0.213069 -0.146858 -0.101929
-0.122229 0.00592955 -0.279206
0.213069 -0.0622581 -0.216556
0.115783 0.00417774 0.207919
-0.0838264 -0.160846 -0.388024
0.0183886 -0.0119278 0.311119
0.213069 -0.0317013 0.00162958
-0.213069 0.0514654 -0.169673
-0.207015 -0.160846 -0.289068
-0.11088 0.0719095 0.32127
-0.213069 -0.0199544 0.151033
-0.213069 -0.124562 0.299391
0.0518516 -0.160846 -0.389249
-0.0428294 0.046719 -0.282804
-0.213069 -0.1192 -0.355036
-0.0434488 0.0812989 0.351758
0.0911349 -0.160846 0.141029
0.00885566 -0.160846 -0.333255
0.0484569 0.0133603 0.281168
-0.0409191 0.0038108 -0.10294
0.106403 -0.160846 -0.0333989
0.106137 -0.00618575 -0.0514395
0.213069 -0.1351 -0.0173147
0.016994 -0.0348282 0.417781
0.0653173 0.00417774 0.148699
-0.0329164 0.0407846 0.417781
-0.0476135 -0.0802148 0.417781
-0.145237 0.173379 0.177328
-0.213069 0.108969 -0.200917
0.213069 -0.0138618 0.285481
-0.213069 -0.13035 0.0193689
0.213069 -0.0976949 0.126397
0.213069 -0.0874953 -0.413778
0.123966 0.0317684 -0.417781
-0.213069 -0.156442 0.302284
0.101621 -0.160846 -0.00223555
-0.124692 -0.0683055 0.417781
0.0757999 -0.00442939 0.417781
-0.0874261 0.00417774 -0.144457
0.213069 0.034688 -0.352788
-0.175633 0.156702 0.347895
0.180851 -0.160846 0.347217
-0.213069 0.156048 0.221304
-0.121157 0.162987 -0.192469
-0.0995917 0.0564019 0.399798
-0.136907 -0.160846 -0.413826
-0.0779041 0.0405087 -0.280607
0.155431 -0.160846 -0.0278999
0.1202 -0.0234602 -0.282427
-0.213069 0.0518952 -0.282049
-0.196026 -0.0256125 0.417781
-0.147108 -0.160846 0.325814
-0.0814303 -0.0204739 -0.330768
-0.213069 0.153049 0.211329
-0.148778 0.155987 0.348247
-0.213069 -0.0441783 -0.151088
0.211524 -0.160846 0.289917
-0.121157 0.0588304 0.0291166
-0.0185154 -0.160846 -0.381489
0.123769 0.0151441 -0.319276
-0.213069 -0.0211728 0.202285
-0.168598 0.130424 -0.350937
-0.213069 0.152762 -0.0934477
0.0756127 0.103581 0.356334
-0.213069 -0.107138 -0.181146
-0.213069 0.0491247 -0.0572817
-0.095903 -0.160846 -0.297143
0.14434 -0.160846 0.17751
-0.17582 0.173379 0.150887
-0.0388885 0.0164584 0.277261
0.125188 -0.160846 0.297078
0.0390056 0.0573146 0.304438
-0.0641309 -0.160846 0.03225
0.0734179 -0.160846 -0.237662
-0.121157 0.0635616 0.187726
0.123564 0.0781315 -0.359433
-0.213069 -0.126236 0.337932
-0.0267163 0.00417774 0.171587
0.18493 0.0164739 0.350937
-0.153966 -0.160846 -0.390015
-0.192309 -0.119484 0.417781
0.0920062 -0.160846 0.0798635
-0.176385 0.173379 0.134352
0.194872 0.00408742 0.230318
-0.0106453 -0.0961777 -0.417781
-0.0379946 -0.160846 -0.363347
0.107837 0.001054 -0.282948
-0.213069 0.00626632 0.0664282
-0.0317723 0.0167795 -0.328393
-0.213069 -0.0653379 -0.316324
0.0112613 -0.134932 0.417781
0.213069 -0.0875567 0.169097
-0.161691 -0.160846 -0.358386
0.148539 0.0858446 -0.35791
-0.138526 -0.0666978 -0.417781
0.10398 -0.00220007 0.0596823
-0.0817114 -0.0234216 0.335768
-0.213069 -0.115416 0.0192728
-0.158618 0.173379 0.179146
-0.190359 -0.160846 0.0244858
-0.165569 -0.160846 -0.0630767
-0.0390959 -0.123013 -0.417781
0.0795176 -0.0693928 -0.417781
-0.210779 -0.0669936 -0.417781
-0.121157 0.141425 0.157505
-0.170475 -0.160846 0.212058
-0.0613909 -0.160846 0.3721
-0.0638001 0.0359563 -0.350937
-0.126446 0.173379 -0.0168933
0.0481405 0.0797635 -0.327628
-0.213069 -0.0107684 -0.380734
-0.14187 -0.160846 0.21252
-0.109946 -0.160846 0.220134
-0.0117867 0.0524064 0.417476
0.195758 -0.00327613 -0.417781
0.116387 -0.0200405 0.329264
-0.0279651 -0.00570796 -0.294776
-0.213069 -0.11347 -0.401975
0.190925 0.00417774 -0.133628
0.0191828 -0.0893986 0.417781
-0.213069 0.150133 -0.263504
0.13952 -0.160846 -0.376491
-0.0631706 -0.0263397 0.280813
-0.213069 0.11226 0.252806
0.12604 -0.160846 0.377119
-0.0572727 -0.0321738 -0.417781
-0.121157 0.00143401 -0.27263
0.204046 0.00417774 -0.14512
-0.0907162 0.0732499 0.313071
0.0978462 -0.0214856 -0.319121
-0.213069 -0.0126246 -0.135069
-0.0808528 -0.0260408 -0.00939843
-0.104715 0.0154592 0.305197
-0.213069 -0.0295209 -0.300494
0.189784 -0.0217572 -0.350937
-0.0928972 -0.0321891 0.350793
0.126778 -0.000158727 0.270926
0.00596444 -0.0133203 -0.315538
0.0109785 -0.00739161 -0.319098
-0.213069 0.0444719 -0.140066
0.213069 -0.147536 0.0792671
0.18119 0.00417774 -0.127556
-0.0613536 -0.1407 0.417781
0.104262 -0.160846 -0.232848
0.0149429 0.00406947 -0.110261
0.0770998 0.0924348 0.342802
-0.113136 0.00417774 -0.169505
0.17527 0.00417774 0.134844
-0.122148 -0.160846 -0.313902
0.0965783 0.0555369 0.356978
-0.213069 -0.127073 -0.0474044
0.035962 0.00417774 -0.210079
-0.0651634 -0.160846 -0.0680135
0.113912 0.0658631 -0.356715
-0.154543 0.173379 0.0939884
-0.0308887 0.0361917 -0.417781
-0.0676594 0.00396214 -0.10608
0.11254 -0.00377908 0.326315
0.213069 -0.0168651 0.416283
0.0663078 0.0147002 -0.350937
0.0637664 -0.0601528 0.417781
-0.213069 0.122174 0.344389
0.0835028 0.0730305 0.320486
0.199752 -0.0174645 -0.024558
0.171288 -0.160846 -0.296359
0.0750929 0.0888098 -0.357494
-0.0888078 -0.0787845 -0.417781
0.213069 -0.104979 0.166019
0.0620114 0.0523024 0.303439
-0.0995894 0.0852241 -0.310276
0.0350052 0.0804246 0.326191
-0.208265 -0.160846 0.263951
-0.213069 0.0076316 -0.0190528
0.117534 0.0440267 -0.341505
0.0386499 0.067346 -0.311544
0.0865413 -0.160846 0.39979
-0.144242 0.0564004 -0.364735
-0.213069 0.0882996 0.0869722
-0.098253 0.0219488 -0.311711
0.213069 0.0392094 0.406543
-0.208605 -0.160846 -0.393255
-0.108504 -0.160846 0.312889
0.213069 -0.121515 -0.0824649
-0.121157 -0.0123812 0.345417
-0.0451601 0.028254 -0.266698
0.0381525 0.110311 0.361632
0.0951695 -0.160846 -0.30076
0.154139 -0.0807539 -0.417781
0.0921508 0.00417774 0.187176
-0.0283443 -0.145384 0.417781
0.0327636 -0.0125037 -0.0349646
0.0448005 0.00417774 -0.124663
0.0385837 0.0176472 0.350937
0.0106209 -0.0167994 -0.301745
-0.157038 0.055497 -0.413144
-0.0342559 0.0383327 0.417781
0.213069 -0.0349768 0.383394
-0.154413 0.0421576 0.417781
-0.121157 0.125337 0.126734
0.138101 -0.00192264 0.0607769
-0.213069 -0.0327408 -0.00499453
0.126717 -0.160846 -0.242087
0.0153689 -0.00467499 -0.417781
0.114799 -0.160846 -0.354472
0.0347379 4.16736e-05 -0.0742432
-0.121157 0.0253892 0.249267
-0.213069 0.0332091 0.152053
0.17627 -0.160846 -0.22633
-0.213069 -0.105856 -0.146262
-0.213069 0.0500379 0.180635
-0.213069 0.0793881 -0.214963
-0.0234071 0.00417774 0.138765
-0.0254517 -0.0232364 0.285725
0.19294 -0.11662 0.417781
0.152778 0.0444688 0.417781
-0.0091322 0.0277289 0.350937
0.0658229 -0.160846 -0.0953742
-0.110842 -0.160846 0.0861248
-0.101235 -0.0128822 0.350937
-0.121157 0.015003 0.09346
-0.121157 0.161194 0.0890526
0.110678 -0.160846 0.384289
0.155934 -0.00999729 0.0377598
-0.121876 0.0847195 -0.323234
-0.121157 0.0041017 -0.322154
0.213069 -0.0979005 -0.367092
0.140583 -0.0975392 0.417781
-0.0126341 -0.00115221 -0.320241
-0.123203 0.173379 -0.173341
0.17819 -0.160846 0.39752
0.00462196 -0.019482 0.0190016
0.0532002 -0.160846 0.151317
-0.213069 0.078093 -0.241523
-0.109555 0.00380356 -0.241988
-0.133137 0.173379 -0.154795
-0.213069 0.0367578 -0.407729
0.00562368 -0.160846 -0.368546
0.123482 -0.160846 -0.31082
-0.0324943 -0.160846 0.340344
0.213069 0.0393184 0.399852
-0.213069 -0.0321952 -0.0601523
0.171205 -0.0158897 -0.0277117
0.147989 -0.00379628 0.28638
-0.191325 0.173379 -0.14204
-0.0882801 0.0303217 0.350937
-0.213069 -0.0352337 0.338537
-0.0418193 0.00417774 -0.135504
-0.0478074 -0.0266987 0.00766835
-0.106324 0.0552351 -0.413642
-0.213069 0.155845 0.233914
-0.162672 -0.160846 0.279429
0.2023 0.00322285 -0.249925
0.146143 -0.160846 0.119901
-0.134286 -0.160846 0.263387
-0.121157 0.155909 0.200504
-0.160711 0.173379 0.120999
-0.213069 -0.0711283 -0.085709
-0.0784769 -0.160846 0.339354
0.158455 0.0465831 -0.350937
0.0467201 -0.017304 -0.313773
0.135318 0.00417774 0.203709
-0.0496704 0.0313234 0.279956
0.093324 0.0726983 0.320532
-0.213069 -0.0163666 0.257465
0.110304 -0.160846 -0.194142
-0.121157 0.147539 0.0199151
0.131989 -0.160846 0.413062
0.164317 -0.160846 -0.240204
0.211839 -0.067074 0.417781
-0.151238 -0.160846 0.252348
0.179421 0.00417774 -0.115323
2.75355e-05 -0.0340382 0.417781
0.0591275 -0.160846 -0.0559588
0.111932 -0.160846 -0.10619
0.213069 -0.0348434 -0.0793348
0.13051 0.0371575 0.417781
0.17288 -0.138058 -0.417781
-0.0466997 0.0474392 0.289526
0.0336156 -0.160846 0.396249
-0.0309979 -0.0203914 0.350937
-0.213069 -0.0770258 -0.0551801
0.0202058 -0.0977791 -0.417781
0.213069 -0.149988 0.125072
-0.126405 -0.160846 0.24766
0.213069 -0.126091 0.0296072
0.0548298 -0.00432124 -0.290062
0.213069 -0.0494333 -0.251271
-0.0909122 -0.00875336 0.0405937
0.213069 -0.0214648 0.0198489
0.213069 -0.144915 0.237918
0.0385704 -0.0298347 0.28067
-0.0413145 -0.113164 -0.417781
-0.0175224 -0.160846 0.0275485
0.00802176 0.00739877 0.350937
-0.121157 0.031349 0.0904925
-0.213069 0.141153 -0.111944
0.147093 -0.160846 -0.193559
-0.213069 0.0994228 -0.127322
-0.0682525 -0.0571665 -0.417781
-0.172603 0.0141206 0.417781
0.203954 0.0564004 -0.365367
-0.16394 0.055784 -0.412516
0.0434384 -0.160846 0.305348
-0.213069 0.13431 0.105582
0.213069 -0.0418342 0.364476
-0.00861023 -0.0212009 -0.350937
0.0741916 -0.160846 -0.357043
0.120371 -0.0240981 -0.337425
0.0718365 -0.160846 0.146374
-0.213069 0.0527377 0.010217
-0.0192476 -0.0267103 -0.281339
-0.0626466 -0.0246872 -0.27011
0.213069 -0.0898002 -0.117052
-0.0637416 0.0115102 -0.350937
-0.121157 0.0631816 -0.247199
-0.0303364 0.107982 0.353397
0.193031 0.00417774 0.167157
0.148088 0.00417774 0.156173
0.132741 0.00590391 -0.417781
0.0753151 0.00417774 0.209427
-0.200025 -0.160846 0.135834
0.213069 -0.158735 -0.0602779
-0.213069 -0.000434045 0.186282
0.213069 -0.0181232 0.147971
-0.173432 0.173379 -0.0168278
0.0408098 0.0675139 0.313113
-0.13454 -0.123074 -0.417781
-0.0874021 -0.160846 -0.300772
0.213069 -0.0174886 0.159134
0.0278401 0.00766209 -0.277953
-0.011654 0.0564031 0.380919
-0.213069 0.074387 0.19905
-0.0989929 -0.160846 -0.0545713
-0.0640496 -0.160846 0.373587
-0.121157 0.0891853 -0.100285
-0.121157 0.0715567 -0.295848
-0.0125812 0.0796207 -0.317533
-0.186951 -0.0914695 0.417781
-0.0649075 -0.00793994 -0.301589
-0.213069 0.16981 -0.0316125
-0.15187 0.159579 0.346301
-0.00169503 0.105081 0.352095
-0.121157 0.0767924 -0.141287
-0.121535 0.0548317 0.317504
-0.0494606 0.00417774 0.190099
0.198066 -0.160846 -0.0101283
0.212922 -0.0723018 0.417781
0.0841472 0.0988767 -0.357232
0.00450876 0.021026 0.417781
-0.17686 -0.160846 0.402332
0.129525 -0.160846 0.203489
-0.0282519 0.0114027 0.417781
0.213069 -0.0555506 -0.333765
-0.212506 0.173379 0.158255
-0.173755 0.173379 -0.314489
-0.0130293 -0.1399 -0.417781
-0.0273904 0.00417774 0.157511
-0.0363838 0.00417774 0.19419
-0.213069 0.00655052 -0.07075
0.125392 0.0553017 -0.355569
-0.213069 0.025284 0.403382
-0.121157 0.0483084 0.335187
0.213069 -0.020333 0.279461
-0.0938568 0.00358074 -0.245033
-0.213069 -0.0535931 0.265972
0.213069 -0.0330308 -0.0751177
-0.213069 -0.159589 -0.0903244
-0.213069 0.153744 0.0120673
-0.0862292 0.0538365 -0.353599
0.0363716 -0.0235007 0.350937
-0.213069 0.079599 0.124219
0.154318 -0.160846 -0.312143
0.106017 -0.0139409 0.310268
0.109538 0.0563804 -0.358793
0.0320766 -0.160846 0.130346
0.205666 0.0437928 -0.350937
0.198691 0.0157523 -0.417781
-0.0494718 0.0564004 -0.363276
-0.184097 -0.160846 0.028368
0.0362609 -0.160846 0.0963866
-0.0823978 0.00225616 0.0808288
-0.121157 0.031041 0.229164
-0.213069 -0.0266741 -0.335706
-0.121157 0.158119 0.326865
-0.213069 0.119171 -0.262807
-0.213069 -0.0218323 0.295537
-0.121157 0.0386938 0.329863
-0.121157 0.0649937 0.101652
0.127268 0.0470135 0.34557
0.18294 0.00414311 -0.231161
0.0843167 -0.160846 0.0324862
-0.113194 -0.0287911 0.345204
-0.0452824 0.0849637 0.327697
0.213069 -0.12158 -0.105416
-0.213069 -0.124317 -0.297583
0.0936671 -0.160846 -0.176188
0.0285506 0.000624582 0.266511
-0.0922282 -0.0152007 -0.319818
0.123392 0.0564004 -0.36018
0.13509 0.00417774 -0.12141
0.141051 0.0284807 0.326819
0.18343 -0.160846 -0.0759297
-0.19909 -0.160846 -0.196523
-0.122682 -0.160846 -0.206621
0.104344 0.110129 0.367891
0.213069 -0.139832 -0.322034
0.18981 -0.160846 -0.121148
-0.213069 0.0969739 -0.00538201
0.199117 -0.160846 -0.288593
0.191287 0.00417774 -0.191309
-0.213069 0.0405913 0.359027
0.160524 0.00417774 0.129743
0.213069 -0.0689846 0.254684
-0.132012 0.172687 0.0108346
-0.213069 -0.058133 0.333311
-0.211109 0.173379 0.0154872
-0.213069 0.0594032 0.100027
-0.121157 0.0753328 -0.341518
-0.213069 -0.00855255 0.240795
0.0989332 -0.00149526 -0.329118
-0.121157 0.0834505 -0.25952
0.0743631 -0.0113536 0.417781
0.000339775 0.00464457 -0.324948
-0.114134 -0.0240898 0.0115629
0.0228218 0.042085 0.2929
0.0528313 0.056404 0.40571
0.0242811 -0.0148896 -0.417781
-0.121157 0.132798 0.0598757
-0.0149717 0.0246814 -0.269625
0.213069 -0.0383418 0.116232
-0.213069 -0.15043 0.138849
0.125135 -0.150494 -0.417781
0.209581 -0.00972453 -0.0417549
-0.169873 0.173379 -0.122853
0.058502 0.0361286 0.350937
-0.121157 0.109115 -0.197119
-0.0758596 -0.00331732 -0.0607386
-0.202833 0.173379 -0.110896
-0.142386 -0.160846 0.0446201
-0.13046 0.162206 -0.000584578
-0.0423214 -0.0215969 0.289659
0.20585 0.00417774 -0.204768
0.213069 -0.0501628 0.210289
-0.0818816 0.00417774 0.117947
0.184546 -0.160846 -0.207485
0.0988087 0.0282037 0.291348
0.0266332 -0.114432 0.417781
-0.0576323 -0.160846 0.0130091
-0.0944143 0.0266424 -0.316815
0.159852 0.0532505 0.417105
-0.213069 0.0395378 0.149252
-0.04956 0.0564004 -0.383332
0.0514282 -0.0494309 -0.417781
-0.188316 -0.160846 0.406536
0.213069 -0.0162744 -0.203728
0.213069 -0.0610312 0.0530658
0.213069 -0.0316714 -0.2635
-0.0580254 0.0385122 0.350937
-0.121157 0.100226 0.0851586
-0.0589674 -0.0251237 0.00998157
0.213069 -0.00747691 -0.227666
-0.0506794 0.00417774 0.174825
-0.121157 0.116894 -0.158809
0.12053 0.00417774 0.165689
0.213069 -0.0148864 0.306152
-0.152388 -0.160846 0.130201
0.0970244 0.0608571 0.312481
0.213069 -0.0146932 0.0906233
0.138822 -0.0266676 -0.341991
0.0262924 -0.0269256 -0.342402
0.167421 -0.0638782 -0.417781
-0.0798078 0.00391236 -0.240501
0.019545 0.0564035 0.393676
0.0369777 0.0115111 -0.331546
0.128657 -0.00485741 -0.350937
-0.213069 -0.00710061 -0.270664
-0.166219 -0.0752667 -0.417781
0.213069 -0.0297676 0.173008
-0.213069 0.0431504 -0.138115
0.147288 -0.160846 0.349834
-0.213069 0.106253 0.232983
-0.0224121 -0.0285305 0.344775
0.139289 -0.00588185 0.293722
0.0375369 -0.160846 -0.0117714
0.204376 0.0238459 -0.417781
-0.173629 -0.12785 0.417781
-0.0811198 -0.0183842 0.325845
0.10146 -0.0172328 0.304878
0.0732992 0.00379762 -0.10277
-0.0122608 0.00414292 0.104863
0.213069 -0.0219586 0.107363
0.040047 0.0899009 -0.355018
-0.129314 0.173379 0.29948
-0.213069 -0.0824708 0.411805
0.08845 -0.0127275 -0.32359
-0.206946 0.173379 0.0256261
-0.213069 0.0393651 0.2039
0.0678858 0.0983201 0.349285
0.20142 -0.00610914 -0.0516603
0.197737 -0.160846 -0.167469
-0.0682642 0.0239575 -0.350937
-0.0993009 -0.0149362 0.0272901
0.0330504 -0.160846 0.299201
-0.164786 -0.158996 0.417781
-0.144061 0.173379 0.0743304
-0.151612 -0.0448486 -0.417781
-0.213069 0.100379 0.202632
0.193354 -0.160846 -0.243899
0.0688227 0.0694611 0.316227
-0.0590675 -0.0256293 0.281778
0.213069 -0.0016696 0.379706
0.182241 -0.160846 -0.0392566
0.103284 -0.070548 0.417781
0.0503004 -0.0112253 -0.31041
-0.0939525 -0.0020142 -0.0654715
0.080774 0.0562003 0.413523
0.062185 -0.118536 0.417781
0.0484534 -0.00328857 -0.286299
0.0966642 -0.160846 -0.0195343
0.097965 0.00349845 0.243339
-0.195857 0.173379 0.227584
0.0807329 -0.160846 0.26615
-0.0974916 -0.160846 -0.180992
-0.0232211 -0.0227236 -0.27286
-0.00598989 -0.160846 0.401625
0.186894 0.00401203 0.233486
-0.150701 -0.160846 -0.0842719
0.0446326 -0.160846 -0.294364
0.0309958 -0.00946672 -0.0423905
-0.11387 -0.08966 -0.417781
0.0362222 -0.105915 -0.417781
0.130772 0.0312434 0.417781
-0.213069 -0.150181 -0.414729
-0.073274 -0.12923 -0.417781
-0.213069 -0.137533 -0.189643
-0.0943453 0.0283968 -0.281701
-0.121157 0.145966 -0.0621943
0.162935 -0.166089 0.38026
-0.121157 0.150821 0.311869
0.213069 -0.0197492 -0.186426
-0.121157 0.139733 -0.0035455
-0.0820531 -0.0296336 -0.0039404
0.170228 0.00417774 0.168294
0.213069 -0.019938 -0.135815
0.213069 0.0311552 -0.385836
0.213069 0.0124675 0.386222
-0.213069 0.0229949 -0.35819
0.0425922 -0.00625801 0.294901
-0.213069 0.0588829 -0.00953886
0.184949 0.00417774 0.21468
-0.0113193 -0.160846 -0.33453
-0.213069 -0.0773273 -0.133907
-0.0548778 0.0944664 0.337113
-0.168577 -0.135233 0.417781
-0.213069 0.051155 0.142163
0.158495 -0.116455 0.417781
-0.213069 0.0174554 -0.212577
-0.190903 0.0564007 0.398052
-0.213069 0.0907938 0.265506
0.213069 -0.0577782 0.0682985
0.194418 0.00417774 -0.177066
0.111071 0.033076 0.29706
0.0154787 -0.0169441 0.322873
0.213069 -0.144997 0.329944
-0.12878 0.0924856 -0.350937
0.213069 -0.152168 -0.189975
-0.148555 0.173379 0.0477733
0.213069 0.0164282 -0.409131
0.0259923 -0.160846 0.0555767
-0.0179461 0.00914797 -0.350937
0.180765 -0.0186008 -0.0224177
-0.0410962 0.0260804 -0.332331
0.0626025 0.0900948 0.361471
0.066801 -0.0259059 0.340329
-0.200089 -0.160846 -0.229287
0.213069 -0.0121458 0.384856
-0.213069 -0.0581721 -0.241485
-0.213069 0.0957204 -0.186892
-0.0443003 -0.160846 -0.214036
-0.213069 -0.156815 -0.372236
-0.0232419 0.0196959 -0.330599
0.02252 -0.0219683 -0.350937
-0.121157 0.0365096 -0.161852
-0.0953031 -0.160846 0.172606
-0.213069 0.0444193 0.0379214
-0.181044 -0.160846 -0.14952
-0.164264 0.173379 0.0476781
-0.213069 0.0493353 0.182634
0.131746 0.101675 0.358412
-0.0521057 -0.0787246 0.417781
0.0109176 -0.0943364 -0.417781
0.0662453 0.0617845 0.357322
-0.0540782 -0.0258002 0.340134
-0.146323 -0.160846 0.304195
-0.144062 -0.0437041 0.417781
-0.179789 0.0794926 -0.350937
0.213069 -0.0516728 -0.217027
0.103704 -0.0215235 -0.281429
-0.0339974 0.0427591 -0.337294
0.0356619 -0.160846 0.153305
-0.213069 -0.127392 0.353581
-0.0802587 -0.160846 -0.080546
-0.153665 0.172756 -0.331661
-0.0961274 -0.160846 -0.148282
-0.0582084 0.00366769 -0.243845
0.0759878 -0.125382 -0.417781
0.0858334 -0.0574871 0.417781
-0.213069 0.00199633 -0.117068
0.209782 -0.0178922 0.32483
0.165936 -0.160846 0.0988067
-0.213069 -0.0736153 -0.300057
0.110609 0.0442242 -0.350937
0.213069 -0.0973054 -0.0141832
-0.213069 0.0525554 0.0862044
-0.0802656 -0.160846 0.034511
0.129119 0.00277919 -0.09143
-0.213069 -0.032959 -0.265138
0.213069 -0.101945 -0.33229
-0.213069 0.00692586 0.164372
-0.213069 -0.134916 0.135367
-0.155659 -0.160846 0.156995
0.0285583 -0.0148611 0.318102
0.0415674 0.0195015 0.417781
0.208076 -0.00420024 0.0531819
-0.213069 0.0788475 0.0667013
-0.213069 0.116643 -0.143295
0.0152843 0.0564008 0.364432
-0.213069 -0.120442 0.31521
-0.213069 0.0306564 -0.171291
-0.036063 -0.160846 -0.0710942
-0.156087 -0.160846 0.0262648
0.122108 0.00110555 -0.417781
-0.213069 -0.132319 0.00177635
-0.0516654 0.0564026 0.386035
-0.178704 -0.0287074 -0.417781
-0.213069 0.00883152 0.298174
-0.115257 -0.0717407 0.417781
0.185008 -0.160846 -0.233429
-0.20398 -0.160846 -0.046054
-0.118373 -0.136732 0.417781
-0.213069 -0.0797715 -0.0499503
0.0440678 -0.160846 0.264764
0.213069 -0.00513539 -0.212735
-0.141237 -0.160846 0.243602
0.115262 -0.160846 -0.267013
-0.213069 -0.10009 -0.327692
0.106076 0.0564004 -0.397872
-0.213069 -0.034371 -0.0589947
-0.0761797 -0.160846 -0.241262
-0.11792 -0.160846 0.29523
0.00962993 0.0225643 0.350937
0.213069 -0.113153 -0.00945261
0.145332 0.0560036 0.358166
-0.138933 0.0564004 -0.363613
0.0169081 0.0218301 -0.417781
-0.110066 -0.160846 0.0326999
-0.166273 0.173379 0.0680856
-0.0424326 0.0710986 0.350239
-0.142004 0.173379 -0.285036
0.089624 -0.160846 0.39493
-0.121157 0.03248 0.069967
0.0196017 -0.0226046 -0.350937
0.152068 -0.0238179 0.288863
-0.100542 0.000877478 -0.267298
0.213069 -0.0412792 0.081763
-0.0531157 0.000202029 -0.266534
0.172404 -0.160846 0.143525
-0.00695633 0.0768044 0.353921
0.0623355 -0.160846 -0.0261049
0.045094 0.0564039 0.397271
-0.0586769 -0.160846 0.0863229
0.00135202 -0.00198197 0.279324
-0.213069 -0.135195 0.00762847
-0.213069 0.00347984 -0.216502
0.0761991 0.0259518 0.350937
-0.15307 -0.160846 0.104178
-0.0754028 0.0478896 0.351001
0.0333726 -0.0590624 0.417781
-0.0578824 -0.00577638 0.0484538
-0.00768639 -0.160846 -0.41686
-0.121157 0.100319 0.135021
0.196406 -0.160846 -0.328514
0.204027 0.0563821 0.359911
0.0206503 -0.160846 -0.165412
-0.0396051 0.00417774 0.137232
-0.211591 0.173379 0.185841
-0.0573715 0.00417774 -0.200727
-0.213069 0.0519699 0.168849
0.0232726 0.0276691 -0.350937
-0.00292814 0.0971169 0.342245
-0.121157 0.0567579 -0.1871
-0.213069 -0.113767 0.350937
0.164505 0.00415936 0.105459
-0.00733547 -0.0700358 -0.417781
0.120765 -0.0376654 -0.295054
0.202402 -0.160846 -0.213741
0.213069 -0.0562683 0.0312501
-0.121157 0.0692984 -0.159789
0.213069 -0.0503184 -0.329719
0.0805821 0.0564004 -0.363302
0.213069 -0.0397672 -0.219814
0.029113 -0.160846 0.243933
-0.213069 -0.103281 0.203102
0.213069 -0.0789939 -0.00911855
-0.213069 -0.095956 -0.0292431
-0.0595985 0.00952347 -0.263305
0.213069 -0.107347 -0.293291
0.0749101 0.0480406 -0.350937
-0.088204 0.0158679 -0.350937
-0.0775597 -0.160846 0.20446
-0.196674 -0.160846 0.0158426
-0.0899174 0.0245758 -0.350937
-0.213069 -0.101639 0.0554223
-0.121157 0.00216271 0.344246
0.213069 -0.104605 0.0866409
0.213069 -0.00075915 -0.106129
-0.163745 0.173379 -0.0882949
-0.0303166 0.00157521 -0.0826805
-0.213069 0.0980911 -0.32353
-0.213069 -0.0321908 -0.0161329
-0.213069 -0.142718 0.285
0.127543 -0.140436 0.417781
0.152268 -0.160846 0.327595
0.0824271 0.00682463 0.417781
0.122093 -0.0102394 -0.286101
-0.213069 -0.0399429 -0.288232
0.135405 -0.0254223 -0.339785
-0.199628 0.0313772 0.417781
0.0178077 0.00377142 -0.102431
-0.0474159 -0.0275174 -0.343346
0.151663 0.0564004 -0.405042
-0.102956 -0.160846 0.366868
0.00417361 -0.160846 0.0747405
-0.201882 0.158207 -7.76534e-06
-0.121157 0.126719 0.198467
0.044445 -0.160846 0.177099
0.128916 0.00417774 -0.132637
0.198564 0.0025996 0.350937
-0.213069 0.0279361 -0.332745
-0.213069 -0.0479719 -0.145241
-0.164803 -0.160846 -0.10588
-0.213069 -0.0857996 -0.120241
-0.213069 -0.084143 0.178824
-0.175923 -0.173379 0.388881
-0.205704 -0.160846 -0.0664201
-0.0372279 0.0508828 -0.287035
-0.0405589 -0.160846 -0.186408
0.138247 -0.160846 -0.115342
-0.121157 0.0118421 0.0502605
-0.11898 -0.0404922 -0.417781
0.138777 -0.160846 -0.305078
0.0862048 -0.160846 0.378722
-0.056008 -0.00468986 -0.0560123
0.123292 -0.0244627 0.350937
0.117637 0.0947269 -0.361671
0.168586 0.0564026 0.405241
0.0121363 0.0156725 0.417781
0.182343 -0.0281629 -0.417781
0.18323 -0.00729835 -0.29963
0.156308 0.00149924 0.0760432
-0.121157 0.0599742 -0.0819649
-0.213069 0.0119853 0.370775
-0.0266249 0.00142819 0.261722
0.136879 -0.0058964 0.293767
-0.121157 0.0667285 -0.21686
0.125646 0.0497937 -0.351212
-0.0446105 0.0704279 0.312741
-0.213069 0.122235 0.190312
0.119025 0.0690087 0.329844
0.213069 -0.142564 0.186746
-0.0418093 -0.0147708 -0.350937
-0.0726863 0.0920573 -0.345218
0.213069 0.000780642 0.356316
-0.0301948 -0.0913409 0.417781
0.199473 -0.160846 0.355
-0.213069 0.0262545 -0.240619
-0.0633445 0.00417774 -0.224971
-0.213069 -0.0938028 -0.385936
-0.103792 -0.160846 -0.24171
0.0120859 -0.0270379 -0.28663
-0.121157 0.0983437 0.116188
-0.121157 0.0545538 0.017514
-0.184314 0.173379 -0.121327
0.213069 -0.156256 0.0743217
-0.213069 -0.097166 0.0710604
-0.0240695 -0.160846 0.040496
0.12505 -0.160846 -0.0220768
-0.200393 0.173379 0.197864
0.0417032 -0.160846 0.033021
0.204606 0.00212354 0.079873
-0.121157 0.145003 -0.121089
-0.213069 -0.116683 -0.14924
-0.208936 0.173379 0.105358
0.213069 -0.105479 0.196432
0.116955 0.0564004 -0.378247
-0.121157 0.0407968 0.330836
-0.213069 0.0933216 -0.259465
-0.0497992 0.0564026 0.391892
0.103314 -0.160846 0.0299201
-0.190114 -0.097512 0.417781
-0.213069 0.144034 -0.00358631
-0.13695 -0.0658134 -0.417781
0.213069 -0.110699 0.202857
-0.198887 0.173379 0.0713858
-0.213069 -0.0867746 0.324839
0.170158 -0.160846 0.000773737
-0.0858514 -0.160846 -0.293165
0.168392 -0.160846 0.199808
-0.0838002 -0.0312705 -0.417781
0.0423914 -0.00469722 -0.291433
-0.0890149 0.085824 0.348885
0.186324 0.00417774 -0.181228
-0.121157 0.0242913 -0.191935
-0.126096 -0.160846 0.160148
-0.150554 0.169931 0.335084
-0.213069 -0.157064 -0.0498517
0.103583 -0.00596624 -0.350937
0.132312 -0.160846 0.0858535
-0.0430382 -0.0727124 0.417781
-0.0795482 -0.00551071 -0.0533849
-0.0546217 -0.160846 -0.0337922
-0.167363 0.165106 0.00174187
-0.0100603 -0.160846 0.0542836
0.0163461 -0.024489 -0.338122
-0.0515456 -0.160846 -0.249865
-0.121157 0.108352 -0.0677461
0.160454 -0.160846 -0.13068
-0.172865 0.173379 0.288009
-0.115438 -0.00959037 -0.0420856
0.213069 -0.00401011 -0.28495
-0.213069 -0.0832278 -0.352056
-0.0462111 -0.0105268 -0.300681
-0.213069 -0.0846512 -0.320782
0.0488052 -0.160846 -0.000454083
-0.0304522 0.0933781 0.336956
-0.0043719 -0.00227705 -0.417781
-0.213069 -0.0341633 -0.247076
-0.213069 0.165693 0.0164975
-0.213069 -0.0391817 -0.0127059
-0.213069 -0.00885689 0.314657
-0.213069 0.03327 -0.300621
-0.130896 0.103902 0.350937
-0.00375119 0.00417774 -0.157508
-0.121157 0.0777501 -0.150695
0.21262 0.00417774 -0.187318
-0.0323734 0.026671 -0.333371
0.0648191 0.00107036 -0.417781
0.00565276 0.00417774 -0.164976
0.119121 0.00417774 -0.173433
-0.213069 -0.139813 -0.128549
-0.0506977 -0.0292913 -0.350937
-0.213069 0.111237 -0.344758
-0.213069 0.0189869 0.306528
0.162356 -0.0148561 0.350937
-0.213069 0.135662 0.127849
-0.213069 0.139591 0.0169491
-0.00530034 -0.0104161 0.314967
0.213069 -0.121187 0.166117
0.131661 -0.00733889 0.29829
0.213069 -0.112744 -0.4099
-0.213069 0.0620328 -0.242675
-0.121157 0.110549 -0.210558
-0.121157 0.116819 0.191892
-0.0966056 -0.0241079 0.285907
-0.213069 0.0910877 -0.0747534
0.213069 0.0436634 0.369417
0.00958487 0.0778003 0.322482
0.20378 -0.11694 -0.417781
0.00274983 -0.100737 -0.417781
0.191371 -0.160846 -0.268194
0.164073 -0.0301227 0.417781
0.204846 -0.160846 -0.0128672
-0.0428476 0.0564027 0.41032
0.150389 9.4172e-05 -0.27185
0.0416839 -0.0267238 -0.00827804
0.177036 -0.160846 -0.0589172
-0.11483 -0.160846 0.277485
0.0364804 0.00417774 0.166495
-0.0517322 -0.102984 0.417781
0.213069 -0.138379 0.275423
0.213069 -0.139338 -0.392263
-0.199833 -0.0766977 -0.417781
-0.162769 -0.160846 0.276105
-0.213069 -0.1454 0.1074
-0.213069 0.0187348 -0.315556
-0.0520183 -0.160846 0.294929
0.213069 -0.131 -0.0663825
-0.121157 0.0572034 -0.155511
-0.213069 -0.115736 0.39135
-0.0473338 -0.160846 -0.367848
-0.213069 -0.0304895 -0.229489
-0.213069 0.00136396 -0.410523
0.21126 0.00417774 0.208286
0.213069 -0.0413526 -0.0121843
-0.0705776 -0.160846 -0.263554
-0.213069 -0.0894422 0.325567
-0.0623613 -0.160846 -0.0510238
0.049816 -0.0802227 -0.417781
-0.213069 -0.0851822 0.213577
-0.0201567 0.00417774 0.162121
-0.194793 0.0564004 -0.405882
0.0203475 0.0460732 -0.350937
-0.034553 -0.0340158 -0.417781
-0.0716332 0.0305027 0.417781
-0.213069 -0.0616497 0.299416
0.117554 0.0386729 -0.417781
-0.213069 -0.0905822 -0.275854
-0.00138354 -0.0310278 -0.278149
-0.00480082 -0.0235315 -0.288782
-0.213069 0.0299372 -0.0511191
-0.0718655 -0.0267032 0.00766217
0.0891207 -0.00342652 0.284998
-0.121157 0.150929 0.135489
0.0466342 -0.160846 -0.39934
-0.120446 -0.0210347 -0.271189
-0.0120874 -0.160846 -0.276035
-0.193549 -0.160846 0.0365223
-0.213069 0.149643 0.0198632
-0.167236 -0.160846 0.398144
0.213069 -0.0425234 0.208858
0.145635 -0.160846 -0.0555252
0.136299 -0.0118329 -0.417781
-0.213069 -0.0205964 0.263632
-0.213069 -0.022905 0.0411812
-0.213069 0.119924 0.146273
-0.213069 -0.109659 -0.208542
-0.213069 -0.0324156 -0.315803
-0.121157 0.12095 0.102225
0.16201 0.0413418 0.417781
0.0410727 -0.0625768 -0.417781
-0.213069 0.169903 -0.329303
0.0220668 -0.0292965 0.280196
-0.000570972 -0.160846 -0.184319
0.0454583 0.00392979 0.236942
-0.213069 -0.160832 0.1568
-0.213069 -0.0846853 -0.408438
0.108459 0.0527735 -0.416344
-0.167663 -0.160846 0.289632
-0.0267201 -0.160846 -0.31536
-0.132849 -0.0476886 0.417781
0.121306 0.00417774 0.14037
-0.0578699 -0.0281101 -0.270242
-0.192179 -0.161393 0.380586
-0.213069 -0.035965 0.0122602
-0.0199298 0.103819 0.349116
-0.000593064 0.110273 0.35854
0.0561335 0.0203563 0.28226
0.0768021 -0.160846 -0.0544336
-0.213069 -0.149588 -0.399883
0.123128 0.00417774 -0.227593
-0.212715 0.120965 0.350937
-0.213069 -0.0769478 0.314232
0.0793122 -0.0228411 0.417781
0.130441 0.00252245 -0.256122
-0.205233 0.173379 -0.106941
0.116891 -0.0269015 -0.00801315
-0.124219 0.0886493 0.340676
-0.14198 0.0316889 -0.417781
-0.128959 0.173379 -0.284364
0.167949 0.0516756 -0.41701
-0.14926 0.0564004 -0.377093
0.152866 0.0564004 -0.380071
-0.213069 0.00786195 0.28768
0.0132444 0.0229145 -0.274525
0.108099 0.0151919 -0.417781
0.213069 -0.0600069 0.176667
0.0899308 0.0253953 0.417781
-0.168741 0.0284255 -0.417781
-0.121157 0.0197705 0.23958
-0.157737 -0.160846 -0.402017
-0.00650961 -0.00826507 -0.302581
0.187799 0.00417774 -0.181674
-0.213069 0.119314 -0.315733
0.0235514 -0.160846 0.308722
0.208099 0.00417774 0.183935
-0.121157 0.152623 -0.143128
-0.213069 -0.000865608 -0.260089
0.0826761 0.029406 -0.417781
-0.138764 0.173379 0.159767
-0.143207 -0.00060815 -0.417781
0.0487305 -0.0187573 0.326615
0.104307 -0.160846 0.305474
0.213069 -0.0413329 0.0358483
0.111792 -0.0110306 0.308708
-0.0150188 0.0855037 -0.349989
-0.121157 0.159223 -0.338406
-0.121157 0.144426 0.322336
-0.00611376 -0.160846 0.0432082
-0.213069 0.121358 -0.217133
-0.15111 0.0721109 0.350937
0.135802 -0.0158458 0.320406
0.0475582 -0.00166244 0.350937
0.0538738 -0.0520185 0.417781
-0.121157 0.130806 0.0459702
-0.0525944 -0.0907127 -0.417781
-0.213069 0.0911445 -0.180899
-0.213069 0.115134 0.0543545
0.00293002 -0.160846 -0.216604
-0.213069 0.139347 0.0703212
-0.124783 0.0564004 -0.357094
-0.213069 0.0475024 -0.0247621
0.0734365 0.0962521 0.347189
-0.213069 -0.140753 -0.185183
0.179959 -0.0286592 0.00497329
0.213069 -0.0762774 0.191546
0.213069 -0.124251 -0.277406
-0.0394834 -0.00367218 -0.312223
0.0215595 -0.160846 -0.0572138
-0.0270568 0.1096 -0.352378
0.122167 -0.0280791 -0.00625775
0.213069 -0.160393 0.226832
-0.213069 0.0898489 0.0732888
-0.121157 0.13068 0.0377183
-0.0773583 0.0564004 -0.373918
0.0983198 -0.160846 -0.330158
-0.127059 0.0378472 -0.300488
-0.129321 -0.160846 -0.360983
-0.142937 -0.160846 0.191903
0.123944 -0.0133453 0.314555
-0.0318557 -0.00332972 -0.0606959
0.152958 0.00417774 -0.118888
0.141929 0.00398638 -0.107024
0.0886488 0.0353787 -0.350937
-0.176078 0.173379 0.301436
-0.168632 0.173379 -0.196347
-0.0312281 -0.0967114 -0.417781
-0.100345 0.0564004 -0.367769
-0.149493 0.148047 -0.350937
0.213069 -0.0809703 0.331067
-0.213069 -0.149534 0.357952
0.166769 0.0442136 -0.417781
-0.0200027 -0.000210096 -0.319991
-0.213069 0.0311309 0.36734
-0.0178876 -0.0184756 -0.417781
0.162489 -0.160846 0.240617
0.134309 0.00417774 0.184679
-0.213069 -0.00686281 0.0506104
-0.121157 0.0920202 0.10205
0.181525 -0.160846 0.0352097
-0.0661636 -0.156998 0.417781
-0.00401401 -0.00439969 0.288637
0.177598 0.00417774 -0.167323
0.0258023 -0.160846 0.218537
-0.213069 -0.0505716 0.400298
-0.213069 -0.0166119 0.282425
-0.118666 -0.160846 -0.0880352
0.166699 -0.160846 -0.417601
0.205186 -0.160846 -0.333973
-0.0320514 0.0263213 0.278586
0.208054 0.0564013 0.372847
0.190053 -0.0821326 -0.417781
-0.100706 -0.0254907 -0.267418
-0.213069 0.148185 0.15366
-0.209621 0.173379 0.182118
0.16165 -0.03181 -0.417781
0.104788 -0.160846 0.415899
-0.205461 0.170911 0.333097
-0.213069 0.170176 0.139279
-0.193977 -0.160846 -0.115402
0.105969 0.00417774 -0.134435
-0.121157 0.110198 0.0600296
-0.213069 -0.106319 -0.179616
-0.121157 0.0815404 0.343686
0.183861 0.00351394 0.0917655
0.0594617 -0.160846 -0.370138
0.0775257 0.0747202 -0.326168
-0.163533 0.173379 0.195441
-0.213069 0.12666 -0.290396
0.213069 -0.070892 0.0419981
-0.213069 -0.104577 0.408761
-0.121157 0.135054 0.288263
0.0716872 -0.00262677 0.282007
0.0836297 -0.00963608 0.0385827
0.165597 0.00404339 -0.235255
0.104584 0.0886851 -0.34792
-0.0610642 0.00417774 -0.134948
0.213069 -0.157018 0.00631316
0.175491 -0.144047 -0.417781
0.213069 -0.0415873 0.0969248
-0.121157 0.0480913 0.179433
-0.123073 0.173379 0.283327
-0.120328 -0.160846 0.243579
0.067312 -0.0110646 0.311623
-0.113005 0.000448249 0.417781
0.142052 0.00417774 0.183372
-0.213069 0.0227362 -0.170739
-0.201349 -0.160846 0.335216
0.155815 0.0558097 -0.412441
-0.133343 0.173379 0.291092
0.127248 -0.160846 0.0118814
-0.000569925 0.0399574 -0.340307
0.0175781 0.10213 -0.355298
-0.0905127 -0.0425712 0.417781
-0.0389785 0.0599723 0.302187
-0.121157 0.0276542 0.0461089
0.117728 -0.160846 -0.304616
0.0629668 -0.160846 -0.138644
-0.213069 0.0167652 -0.131179
-0.121157 0.0223833 -0.135854
0.0322275 0.0428134 0.349051
0.0894611 -0.160846 -0.250049
-0.213069 -0.083114 -0.0840111
0.11332 0.0522338 0.352868
0.146294 0.00403292 -0.108838
-0.213069 -0.140339 -0.0666432
-0.213069 0.151777 0.0517995
-0.0206722 0.0332719 -0.417781
-0.0421738 0.0287227 0.338555
-0.201376 -0.160846 0.387783
0.156271 0.00184684 0.0778788
-0.127337 0.165558 -0.344294
0.0852562 0.00417774 -0.121833
-0.182166 0.173379 0.24722
-0.213069 0.10573 -0.329516
-0.0755761 -0.0236569 -0.0133797
-0.213069 0.0625082 0.161749
0.102361 0.0564004 -0.362201
0.071164 0.00760319 -0.350937
-0.182178 -0.160846 -0.00141788
0.213069 -0.113542 0.302083
-0.121157 0.126 0.130872
0.0240992 0.00327897 -0.249158
-0.213069 -0.120946 0.238755
0.213069 -0.0951508 -0.340283
-0.187286 0.103508 0.350937
0.213069 -0.141368 0.347647
-0.195834 -0.160846 -0.00611378
-0.213069 0.0575062 -0.21414
0.133058 0.0582218 -0.332849
-0.0792498 -0.128254 -0.417781
0.0491603 -0.160846 0.0433111
-0.213069 0.161463 0.0934862
0.0375323 0.00403238 -0.235707
-0.210725 0.0458401 -0.417781
-0.0358642 0.00668512 -0.350937
0.0574529 0.00417774 0.22358
0.126882 -0.160846 -0.367644
-0.0170834 -0.160846 -0.359212
0.213069 -0.155973 0.390873
-0.213069 0.051507 -0.333054
-0.121157 0.0509649 -0.235618
-0.0849074 0.00352601 0.272807
0.204602 -0.1493 0.417781
0.102125 -0.160846 -0.204774
-0.0247709 -0.160846 -0.142019
-0.141398 -0.160846 0.164007
-0.199445 0.173379 0.202374
-0.174514 0.173379 0.184246
0.00257052 0.0262894 -0.350937
-0.186231 0.173379 -0.203323
-0.0456886 -0.160846 -0.410822
-0.213069 0.086296 -0.101813
0.213069 -0.0775452 0.118605
-0.121157 0.0122066 0.196385
0.195937 -0.00551186 0.350937
-0.121157 0.166696 0.165113
0.0207452 0.00417774 0.112467
0.00227253 -0.00769874 0.417781
-0.121157 0.0484299 -0.0376278
-0.133937 -0.160846 -0.164564
-0.121157 0.0249936 0.0642476
0.06733 -0.0178661 -0.0238015
-0.0740031 -0.117731 -0.417781
-0.0474499 -0.124405 -0.417781
-0.121157 0.0283841 0.0418788
-0.16392 0.173379 0.066483
0.141844 0.00417774 -0.156845
0.09296 -0.160846 0.0902792
-0.0530497 0.0716302 -0.342334
0.0382286 -0.160846 0.0452031
-0.1365 0.172553 -0.0101787
-0.0896341 0.00417774 0.210108
0.139674 -0.119382 0.417781
-0.078808 0.00220245 -0.0869654
-0.213069 0.0983604 -0.207104
0.213069 -0.158115 0.325595
0.197566 -0.160846 0.0686807
-0.213069 -0.04554 0.359571
-0.213069 0.142682 0.273463
0.0462746 -0.160846 0.105105
-0.213069 0.161759 0.0443256
0.106897 0.0503215 0.354867
-0.192179 -0.168187 0.389242
-0.0618068 -0.0596628 0.417781
-0.213069 -0.0230472 -0.132477
0.179894 0.0564012 0.372099
0.0595887 -0.148252 -0.417781
0.0495493 -0.0203486 -0.330517
-0.0589699 0.0833771 -0.314618
0.119284 0.105919 0.36263
-0.120573 0.0564016 0.372581
0.0721497 0.000669008 -0.329018
-0.213069 0.1058 0.0878908
0.0295197 0.00922681 -0.329752
0.213069 -0.0692838 0.0482006
-0.0998918 -0.160846 -0.347209
-0.0414438 0.0725122 0.350538
-0.0966155 0.00363036 -0.244355
-0.213069 0.103353 0.224684
0.111592 -0.160846 0.346269
-0.0714301 -0.160846 0.195292
-0.0522935 -0.0167033 -0.0259918
0.213069 -0.0959544 -0.383004
0.1043 -0.0198604 0.301084
-0.0784201 -0.0305721 -0.350937
0.0308567 -0.00808994 0.300644
-0.0884973 0.00417774 -0.169597
-0.110792 -0.0220147 -0.417781
-0.0807706 -0.160846 0.17094
-0.119551 0.0453123 -0.310352
-0.121157 0.140407 -0.084863
0.0756682 -0.160846 0.285996
-0.213069 0.111606 0.045899
-0.0207207 -0.160846 -0.060385
-0.176404 -0.160846 -0.0714646
0.102193 -0.0180842 -0.417781
-0.186525 -0.160846 -0.158619
-0.213069 0.115157 -0.256932
-0.0660836 -0.160846 -0.122852
0.213069 -0.0298687 0.314522
-0.213069 0.109617 0.14666
-0.213069 -0.0311803 0.058659
-0.185204 -0.0190412 -0.417781
-0.213069 -0.00180939 0.416696
0.213069 -0.122612 -0.240528
0.206357 -0.160846 -0.195605
-0.101712 0.00417774 -0.179349
-0.213069 0.0757477 0.00529772
-0.213069 0.0176825 0.287979
0.213069 0.0308981 -0.410137
-0.188721 -0.101864 -0.417781
0.162699 0.00417774 -0.20424
0.206322 -0.104687 0.417781
-0.0674515 -0.160846 0.140804
-0.12675 -0.160846 -0.151478
-0.0316375 -0.160846 -0.0966507
-0.213069 0.13102 0.292982
-0.172674 -0.160846 0.3352
0.180758 -0.160846 -0.416627
0.0101976 0.0421171 -0.417781
-0.213069 -0.0156913 -0.0976756
-0.15616 0.0957001 -0.350937
-0.0714302 -0.160846 -0.00232477
-0.213069 0.0264644 -0.261026
-0.121157 0.164715 -0.162379
0.118812 -0.0348804 -0.281705
-0.062043 -0.0186873 -0.327185
-0.0200842 -0.11049 0.417781
-0.0991941 0.0483577 -0.350937
-0.213069 0.0997538 -0.155336
0.0595718 -0.160846 0.316637
0.0628965 -0.00646558 0.417781
0.206389 -0.00217956 -0.282154
-0.142059 0.171495 -0.335806
-0.213069 -0.00716872 -0.212221
-0.168703 0.167292 0.339309
0.213069 -0.0999663 -0.0673137
0.143666 -0.160846 0.0347225
-0.129564 -0.160846 -0.129723
0.188421 -0.0642064 -0.417781
-0.213069 0.033932 0.350677
0.172001 -0.0017328 0.278176
-0.147868 -0.0925347 -0.417781
-0.213069 0.159303 -0.0508224
0.0922677 -0.00175534 0.061437
-0.179324 0.173379 0.235001
0.213069 -0.142428 0.130185
0.125195 -0.151596 -0.417781
-0.0305465 -0.160846 0.311584
-0.0427272 -0.0113958 -0.350937
-0.213069 -0.156214 0.225078
-0.213069 -0.148148 -0.101579
0.191095 -0.0201715 -0.0194595
-0.145096 0.173379 -0.103764
-0.194721 -0.160846 -0.263717
-0.121157 0.142807 0.264531
-0.0363448 0.0193836 0.350937
0.0437939 -0.0184421 0.325965
0.0582277 -0.160846 -0.29815
0.108145 -0.138797 0.417781
0.0329571 0.0417519 -0.34447
-0.213069 0.102368 0.0671031
0.213069 -0.0640702 -0.100013
0.213069 -0.00200308 0.376528
-0.213069 0.066752 -0.120673
0.0183078 -0.0250045 -0.350937
-0.0348334 -0.00434193 -0.417781
0.0351427 0.0792875 0.357619
-0.0891706 0.0274588 0.417781
0.213069 -0.0382977 0.186719
-0.0393528 -0.0237721 -0.282043
0.0662505 -0.160846 0.199839
-0.0921577 -0.00478926 0.290094
-0.162848 0.173379 -0.256162
0.153118 0.0415169 -0.350937
-0.0376997 0.0040408 -0.235362
0.0647388 0.00417774 0.125746
-0.121157 0.0338787 0.272327
0.00696969 -0.160846 -0.203279
0.0901944 -0.0199733 -0.0198327
0.0200819 -0.157785 0.417781
-0.205276 0.083703 -0.350937
0.123257 0.00199847 0.284865
-0.121157 0.0591913 -0.060755
0.03435 0.00417774 0.180702
-0.213069 0.0132521 -0.205306
0.0615459 -0.124962 -0.417781
-0.0429054 0.0956251 0.354045
-0.121157 0.111918 -0.00167064
0.213069 -0.139623 -0.0372813
0.135716 0.00417774 -0.13861
-0.0124936 0.00292409 -0.0925517
0.213069 -0.0258958 0.336706
-0.142432 -0.160846 0.402849
-0.121157 0.129648 0.348696
0.0198674 -0.160846 0.159672
-0.117698 0.0803456 0.342131
0.213069 -0.0669064 0.308729
-0.121157 0.140622 0.086002
0.0957716 -0.160846 0.196112
0.134621 0.0018828 0.25891
-0.121157 0.10095 0.081591
-0.0457921 -0.155934 0.417781
0.181121 0.00417774 0.106475
0.0445916 -0.160846 0.243241
-0.196864 -0.160846 -0.297558
0.0384855 0.0576146 -0.349013
-0.17799 -0.160846 -0.166633
0.148056 -0.0232124 0.298783
0.104519 -0.0258163 0.00892209
0.0824358 -0.160846 0.0796024
-0.0460669 -0.150905 -0.417781
0.0210862 0.00253495 0.082838
-0.213069 -0.156403 0.120533
0.199538 -0.160846 -0.289545
-0.213069 0.106941 -0.153827
-0.0567304 0.0100211 -0.263357
-0.189722 0.161727 0.000458953
0.213069 -0.111642 -0.0807459
-0.121157 0.0458539 -0.266292
0.0377037 0.0135611 -0.417781
0.100633 0.0721744 -0.326782
0.152755 0.00417774 -0.220416
0.213069 -0.0179948 -0.144263
0.213069 -0.00763928 0.136796
-0.121157 0.117878 -0.0607785
-0.213069 0.120369 -0.288813
0.0761696 0.0551536 0.415488
0.210364 -0.0207239 -0.331269
-0.213069 0.105055 -0.309693
-0.0250501 0.0235738 -0.332417
0.108529 -0.160846 0.12028
-0.213069 -0.0926979 -0.415839
0.0415065 -0.160846 0.0134549
-0.121157 0.136549 -0.203076
-0.213069 0.0719563 -0.282796
0.201411 0.00417774 0.173499
0.213069 -0.0862173 -0.117243
0.213069 -0.0650988 -0.310399
0.166436 0.00417774 -0.220554
-0.0525056 0.110019 0.354148
-0.213069 -0.00079662 0.329677
-0.0561064 -0.160846 -0.0870022
-0.0187927 -0.160846 0.369787
-0.213069 -0.0443109 0.250477
0.125709 -0.132679 0.417781
0.137663 -0.160846 -0.360839
0.213069 -0.13093 -0.19975
-0.0708667 -0.160846 0.274251
-0.134086 -0.0822316 -0.417781
-0.213069 -0.132432 0.180621
-0.0972725 0.0564019 0.402347
-0.0780931 -0.0100126 -0.0410446
0.213069 -0.0582736 -0.0905717
0.185537 0.0564006 0.397413
0.213069 -0.0835066 0.0135322
0.124841 0.0623259 -0.353324
-0.104245 0.03559 -0.288193
-0.184279 -0.0178353 -0.417781
-0.213069 -0.0698677 0.0274119
-0.00369894 0.00694939 -0.273071
-0.213069 0.039042 -0.0601976
0.136276 -0.160846 -0.31134
-0.0290792 -0.112309 -0.417781
0.100669 -0.0178513 -0.0238295
0.185968 0.0288065 0.350937
-0.213069 -0.113192 0.0548629
0.129066 0.0177691 -0.317197
-0.213069 -0.107737 -0.066643
-0.101227 0.00372559 0.276669
0.213069 -0.0644326 0.165856
-0.213069 0.0394259 0.0650412
0.155763 0.00417774 -0.200202
0.113481 -0.0253889 0.293354
-0.199276 0.0538241 0.416737
-0.213069 0.0575145 0.270603
0.213069 -0.15575 -0.276642
-0.174071 -0.160846 -0.254047
-0.062853 -0.139852 -0.417781
0.111056 -0.160846 0.0934198
0.0597399 -0.115512 0.417781
-0.213069 0.146855 -0.308168
0.18249 0.0564004 -0.398971
-0.189592 -0.160846 -0.240412
0.088197 -0.160846 0.210279
-0.0983556 -0.00786111 -0.26446
-0.104683 0.00224932 -0.0873282
-0.121157 0.136185 -0.250408
0.0659311 -0.0270488 -0.417781
-0.213069 0.161876 -0.0436717
-0.151785 -0.160846 0.148259
0.182046 0.00417774 0.137758
0.117434 0.00130057 -0.26484
0.213069 -0.121827 -0.28585
-0.075764 -0.0253501 -0.350937
-0.195276 0.173379 0.206676
-0.206848 -0.160846 0.0366854
0.203022 -0.0205108 0.0172209
-0.121157 0.156433 -0.27452
0.213069 -0.0826928 0.270819
-0.213069 -0.0591284 -0.0296249
-0.0649898 0.0471909 -0.280595
-0.17296 -0.160846 0.260035
0.173866 0.00417774 -0.198703
-0.183916 -0.160846 0.283048
0.0300717 -0.160846 -0.388196
-0.121157 0.1451 -0.263008
-0.213069 -0.088315 -0.388671
-0.213069 0.12993 0.303883
-0.140518 -0.160846 -0.308682
-0.196823 0.065313 0.350937
-0.197298 0.173379 -0.0969864
-0.0837415 0.00169366 -0.263502
-0.213069 0.115438 0.257514
-0.213069 -0.0715716 -0.349727
-0.0408934 0.0777639 0.32045
0.130788 0.0430432 -0.417781
0.110458 -0.160846 -0.0637091
-0.0867678 -0.160846 0.0129168
-0.121157 0.0245937 0.209653
-0.190418 -0.160846 0.0283303
-0.0239556 -0.000952016 -0.271787
-0.213069 0.0631025 0.294535
0.213069 -0.0285618 -0.39969
-0.0830479 0.00417774 0.152934
0.0539478 -0.011558 0.282745
-0.14577 -0.160846 0.0328196
0.213069 -0.0531524 0.248091
-0.0576964 -0.139252 0.417781
0.213069 -0.132599 -0.324643
-0.213069 -0.0465147 -0.333355
-0.141045 -0.160846 -0.367856
0.0685641 0.0869168 0.335373
0.195335 0.0564004 -0.378271
0.213069 -0.0319847 -0.15695
-0.170633 0.173379 0.104582
0.0704184 0.048244 -0.350233
0.0511769 -0.000304974 0.2716
-0.121157 0.0417563 0.32822
-0.185039 0.172406 -0.333138
-0.036126 0.0777764 0.351781
-0.141422 0.0802304 -0.350937
0.11189 0.0629958 -0.320194
-0.104541 -0.00689854 -0.29841
0.0742382 -0.160846 -0.313351
-0.0484081 0.0699973 -0.302104
0.213069 -0.0911964 -0.404293
-0.213069 0.0492799 0.148675
0.00877497 0.0686668 -0.307864
-0.121157 0.126382 0.276066
0.0981753 0.00232091 -0.0878824
0.204236 -0.151692 0.417781
0.0254874 0.047177 -0.344986
-0.10262 0.0198235 -0.281008
0.213069 -0.142258 0.333427
0.0658026 -0.160846 -0.316345
0.213069 -0.0238037 0.138309
0.0211805 0.0477772 0.350974
-0.13862 0.0213491 -0.417781
0.0305177 0.0562387 0.413357
0.213069 -0.0691691 0.0383268
0.138393 -0.160846 -0.266435
-0.0443533 -0.160846 0.137114
-0.0954554 -0.00165877 0.271643
0.140593 0.00459159 0.315328
0.0664627 0.00395747 -0.105898
0.0116148 0.0619657 0.306241
0.00974424 -0.104304 -0.417781
0.123132 -0.160846 0.145807
0.199629 0.00417774 0.206483
0.0968339 -0.160846 0.262571
-0.184703 0.155149 -0.350105
-0.052312 -0.160846 0.0752824
0.213069 -0.148251 -0.0188739
-0.0419976 -0.0194493 0.297013
-0.210629 -0.106026 -0.417781
-0.00809686 0.0019266 -0.08483
0.196129 0.00417774 0.140012
0.0993435 0.0105852 -0.417781
0.0163896 -0.160846 0.25029
-0.0120029 -0.00535614 -0.417781
-0.121157 0.130443 0.0512337
0.192078 -0.160846 -0.179969
0.110534 -0.0118931 0.0334408
-0.121157 0.0570135 -0.154483
-0.213069 -0.151971 0.36541
-0.0789822 -0.110704 0.417781
0.0393543 -0.0974653 -0.417781
0.194113 -0.160846 -0.314626
0.151771 0.00417774 0.166559
0.0867032 0.0564004 -0.38305
0.0713926 -0.138252 0.417781
0.122345 -0.160846 0.0874925
-0.213069 0.0743539 0.299199
0.213069 -0.0423756 0.392691
0.213069 -0.122871 -0.149922
-0.213069 0.0432919 0.22533
-0.213069 -0.160661 -0.178671
0.213069 -0.0932236 -0.331683
-0.213069 0.172781 -0.0274946
0.0723338 0.00277899 0.2514
-0.162682 0.173379 -0.296196
-0.121157 0.0252201 -0.170257
-0.00869369 0.0729633 0.353183
-0.121157 0.145761 0.0467959
-0.213069 -0.0894915 0.225843
0.213069 -0.109276 0.167171
0.137251 -0.142508 -0.417781
0.0823856 -0.159975 -0.417781
-0.190197 0.136961 0.350937
-0.065973 -0.160846 0.037407
-0.0926761 -0.111704 0.417781
-0.121157 0.166803 0.117626
0.122378 0.0613041 -0.327066
0.169656 -0.160846 -0.173691
0.173409 -0.160846 0.22016
-0.0551186 -0.160846 0.238568
-0.121157 0.106347 -0.322234
0.0747343 0.0601205 0.357728
-0.0496075 -0.028705 0.275466
0.0694331 0.0526085 -0.30509
0.145816 -0.160846 0.0148354
0.213069 0.0362897 0.364118
0.159986 0.00282683 -0.0917988
-0.068835 -0.0105565 -0.308661
-0.213069 0.162295 0.158304
-0.0306664 0.0301788 -0.270334
0.208844 -0.160846 0.215156
0.0380746 -0.0271178 -0.342709
-0.00213638 0.000788277 -0.0783509
-0.121157 0.108772 0.0406894
0.13203 0.05756 0.3361
