ply
format ascii 1.0
comment Created by Open3D
element vertex 1667
property double x
property double y
property double z
end_header
-0.157798 -0.16098 -0.369137
-0.151487 -0.161687 -0.36913
-0.135394 -0.119914 0.421739
0.131519 -0.151644 0.389419
0.131616 -0.151207 0.397544
0.13176 -0.150557 0.409644
0.131855 -0.150126 0.417654
-0.194529 -0.152442 -0.369174
-0.138699 -0.158527 -0.369117
-0.132219 -0.159233 -0.369111
-0.193793 -0.112412 0.379828
-0.193781 -0.111903 0.389361
-0.193768 -0.111398 0.398809
-0.193756 -0.110898 0.408172
-0.183438 -0.111776 0.412794
-0.194772 -0.150155 -0.410666
-0.194755 -0.149531 -0.398635
-0.194739 -0.148912 -0.386704
-0.182496 -0.149297 -0.369162
-0.170254 -0.150592 -0.36915
-0.157798 -0.15191 -0.369137
-0.193806 -0.109653 0.370207
-0.174692 -0.109368 0.414606
-0.16581 -0.110213 0.416445
-0.156181 -0.11114 0.418226
-0.145881 -0.11214 0.419967
0.131664 -0.142483 0.401589
0.13176 -0.142075 0.409644
0.131855 -0.141668 0.417654
-0.151487 -0.148024 -0.36913
-0.138699 -0.149337 -0.369117
-0.132219 -0.150002 -0.369111
-0.135394 -0.10978 0.421739
0.131519 -0.138829 0.389419
-0.194772 -0.14119 -0.410666
-0.194755 -0.140604 -0.398635
-0.194739 -0.140022 -0.386704
-0.194723 -0.139445 -0.374871
-0.182496 -0.140383 -0.369162
-0.170254 -0.141602 -0.36915
-0.193789 -0.102482 0.383015
-0.193777 -0.102018 0.39252
-0.19376 -0.101407 0.405061
-0.183438 -0.102056 0.412794
-0.157798 -0.138307 -0.369137
-0.151487 -0.138915 -0.36913
-0.138699 -0.140147 -0.369117
-0.132219 -0.140771 -0.369111
-0.193806 -0.0998329 0.370207
-0.174692 -0.0995737 0.414606
-0.16581 -0.100343 0.416445
-0.156181 -0.101187 0.418226
-0.145881 -0.102097 0.419967
0.131519 -0.130286 0.389419
0.131616 -0.129911 0.397544
0.13176 -0.129352 0.409644
0.131855 -0.128982 0.417654
-0.194772 -0.132226 -0.410666
-0.194755 -0.131677 -0.398635
-0.194739 -0.131132 -0.386704
-0.194723 -0.130591 -0.374871
-0.182496 -0.13147 -0.369162
0.130692 -0.162265 -0.403927
0.130627 -0.161947 -0.397121
0.1305 -0.161315 -0.383589
0.130437 -0.161001 -0.376862
0.137571 -0.161296 -0.368768
-0.135394 -0.0996465 0.421739
-0.170254 -0.128116 -0.36915
-0.157798 -0.129237 -0.369137
-0.151487 -0.129805 -0.36913
-0.138699 -0.130957 -0.369117
-0.132219 -0.13154 -0.369111
0.13082 -0.157381 -0.41762
0.156029 -0.15749 -0.368744
0.165406 -0.158334 -0.368732
0.174884 -0.159187 -0.36872
0.184465 -0.16005 -0.368707
-0.193781 -0.0924414 0.389361
-0.193768 -0.0920246 0.398809
-0.193756 -0.0916115 0.408172
-0.183438 -0.0923365 0.412794
0.131519 -0.121743 0.389419
0.131616 -0.121392 0.397544
0.13176 -0.120869 0.409644
0.131855 -0.120524 0.417654
-0.194747 -0.122495 -0.392657
-0.194739 -0.122242 -0.386704
-0.194723 -0.121738 -0.374871
0.130755 -0.151561 -0.41076
0.130627 -0.150967 -0.397121
0.1305 -0.150379 -0.383589
0.130437 -0.150086 -0.376862
0.137571 -0.150361 -0.368768
-0.193806 -0.0900133 0.370207
-0.193793 -0.0896037 0.379828
-0.174692 -0.0897796 0.414606
-0.16581 -0.090473 0.416445
-0.156181 -0.091234 0.418226
-0.145881 -0.0920549 0.419967
-0.194772 -0.118779 -0.410666
-0.182496 -0.1181 -0.369162
-0.170254 -0.119125 -0.36915
-0.157798 -0.120168 -0.369137
-0.151487 -0.120696 -0.36913
-0.138699 -0.121767 -0.369117
-0.132219 -0.122309 -0.369111
0.13082 -0.146337 -0.41762
0.156029 -0.146438 -0.368744
0.165406 -0.147223 -0.368732
0.174884 -0.148016 -0.36872
0.184465 -0.148818 -0.368707
-0.135394 -0.0895129 0.421739
0.13176 -0.112387 0.409644
0.131855 -0.112066 0.417654
0.130755 -0.140538 -0.41076
0.130627 -0.139988 -0.397121
0.1305 -0.139442 -0.383589
0.130437 -0.139171 -0.376862
0.137571 -0.139425 -0.368768
0.174884 -0.142431 -0.36872
-0.193772 -0.0824617 0.395669
-0.19376 -0.082091 0.405061
0.131519 -0.108928 0.389419
0.131616 -0.108614 0.397544
-0.194772 -0.109815 -0.410666
-0.194755 -0.109359 -0.398635
-0.194739 -0.108906 -0.386704
-0.194723 -0.108457 -0.374871
-0.182496 -0.109187 -0.369162
-0.170254 -0.110135 -0.36915
-0.157798 -0.111099 -0.369137
-0.151487 -0.111587 -0.36913
0.13082 -0.135293 -0.41762
0.156029 -0.135386 -0.368744
0.165406 -0.136112 -0.368732
0.184465 -0.137587 -0.368707
-0.193806 -0.0801937 0.370207
-0.193793 -0.0798288 0.379828
-0.183438 -0.079377 0.412794
-0.174692 -0.0799854 0.414606
-0.16581 -0.0806032 0.416445
-0.156181 -0.0812812 0.418226
-0.145881 -0.0820126 0.419967
-0.138699 -0.107982 -0.369117
-0.132219 -0.108463 -0.369111
0.130755 -0.129516 -0.41076
0.130627 -0.129009 -0.397121
0.1305 -0.128505 -0.383589
0.130437 -0.128255 -0.376862
0.137571 -0.12849 -0.368768
0.174884 -0.13126 -0.36872
0.184465 -0.131971 -0.368707
-0.135394 -0.0793794 0.421739
0.131519 -0.100384 0.389419
0.131616 -0.100095 0.397544
0.13176 -0.0996643 0.409644
0.131855 -0.0993792 0.417654
-0.194772 -0.10085 -0.410666
-0.194755 -0.100431 -0.398635
-0.194739 -0.100016 -0.386704
-0.194723 -0.0996036 -0.374871
-0.182496 -0.100274 -0.369162
-0.170254 -0.101144 -0.36915
-0.157798 -0.102029 -0.369137
-0.151487 -0.102478 -0.36913
0.13082 -0.124248 -0.41762
0.156029 -0.124334 -0.368744
0.165406 -0.125001 -0.368732
-0.19376 -0.0724333 0.405061
-0.138699 -0.098792 -0.369117
-0.132219 -0.0992321 -0.369111
0.130755 -0.118493 -0.41076
0.130627 -0.118029 -0.397121
0.1305 -0.117569 -0.383589
0.130437 -0.11734 -0.376862
0.137571 -0.117555 -0.368768
0.174884 -0.120089 -0.36872
0.184465 -0.120739 -0.368707
-0.193806 -0.070374 0.370207
-0.193793 -0.0700538 0.379828
-0.193781 -0.0697365 0.389361
-0.183438 -0.0696574 0.412794
-0.174692 -0.0701913 0.414606
-0.16581 -0.0707334 0.416445
-0.156181 -0.0713284 0.418226
-0.145881 -0.0719702 0.419967
0.131519 -0.0918409 0.389419
0.131616 -0.0915763 0.397544
0.13176 -0.0911822 0.409644
0.131855 -0.0909214 0.417654
-0.194772 -0.0918859 -0.410666
-0.194755 -0.0915041 -0.398635
-0.194739 -0.0911255 -0.386704
-0.194723 -0.09075 -0.374871
-0.182496 -0.0913606 -0.369162
-0.170254 -0.0921534 -0.36915
0.13082 -0.113204 -0.41762
0.130563 -0.112319 -0.390342
0.137571 -0.112087 -0.368768
0.156029 -0.113282 -0.368744
0.165406 -0.11389 -0.368732
-0.135394 -0.0692459 0.421739
-0.157798 -0.0884255 -0.369137
-0.151487 -0.0888143 -0.36913
-0.138699 -0.0896021 -0.369117
-0.132219 -0.0900013 -0.369111
0.130755 -0.10747 -0.41076
0.130437 -0.106425 -0.376862
0.174884 -0.108918 -0.36872
0.184465 -0.109508 -0.368707
0.131855 -0.0824636 0.417654
-0.194747 -0.0824057 -0.392657
-0.194739 -0.0822352 -0.386704
-0.194723 -0.0818963 -0.374871
-0.182496 -0.0824474 -0.369162
0.13082 -0.10216 -0.41762
0.130627 -0.10156 -0.397121
0.1305 -0.101164 -0.383589
0.137571 -0.101152 -0.368768
0.156029 -0.10223 -0.368744
0.165406 -0.102778 -0.368732
-0.193806 -0.0605544 0.370207
-0.193793 -0.0602789 0.379828
-0.193781 -0.0600059 0.389361
-0.193768 -0.0597353 0.398809
-0.193756 -0.0594671 0.408172
-0.183438 -0.0599378 0.412794
-0.174692 -0.0603972 0.414606
-0.16581 -0.0608637 0.416445
-0.156181 -0.0613756 0.418226
-0.145881 -0.0619279 0.419967
-0.135394 -0.0624902 0.421739
0.131519 -0.0790259 0.389419
0.131616 -0.0787982 0.397544
0.13176 -0.0784591 0.409644
-0.194772 -0.0784391 -0.410666
-0.170254 -0.0786675 -0.36915
-0.157798 -0.0793562 -0.369137
-0.151487 -0.0797051 -0.36913
-0.138699 -0.0804121 -0.369117
-0.132219 -0.0807703 -0.369111
0.130755 -0.0964477 -0.41076
0.130437 -0.0955093 -0.376862
0.165406 -0.0972227 -0.368732
0.174884 -0.0977466 -0.36872
0.184465 -0.0982762 -0.368707
0.13082 -0.0911155 -0.41762
0.130627 -0.0905804 -0.397121
0.1305 -0.0902272 -0.383589
0.137571 -0.0902164 -0.368768
0.156029 -0.0911784 -0.368744
0.174884 -0.0921611 -0.36872
0.131519 -0.0704825 0.389419
0.131616 -0.0702794 0.397544
0.13176 -0.0699771 0.409644
0.131855 -0.0697769 0.417654
-0.194772 -0.0694747 -0.410666
-0.194755 -0.069186 -0.398635
-0.194739 -0.0688997 -0.386704
-0.194723 -0.0686158 -0.374871
-0.182496 -0.0690775 -0.369162
-0.170254 -0.069677 -0.36915
-0.157798 -0.0702869 -0.369137
-0.151487 -0.0705959 -0.36913
-0.138699 -0.0712221 -0.369117
-0.132219 -0.0715394 -0.369111
0.130755 -0.0854251 -0.41076
0.130437 -0.084594 -0.376862
0.165406 -0.0861116 -0.368732
0.184465 -0.0870447 -0.368707
-0.193806 -0.0507348 0.370207
-0.193793 -0.0505039 0.379828
-0.193781 -0.0502752 0.389361
-0.193768 -0.0500485 0.398809
-0.193756 -0.0498238 0.408172
-0.183438 -0.0502181 0.412794
-0.174692 -0.050603 0.414606
-0.16581 -0.0509939 0.416445
-0.156181 -0.0514228 0.418226
-0.145881 -0.0518855 0.419967
-0.135394 -0.0523566 0.421739
0.13082 -0.0800712 -0.41762
0.130627 -0.079601 -0.397121
0.1305 -0.0792906 -0.383589
0.137571 -0.0792811 -0.368768
0.156029 -0.0801265 -0.368744
0.174884 -0.0809901 -0.36872
0.131519 -0.0619392 0.389419
0.131616 -0.0617607 0.397544
0.13176 -0.061495 0.409644
0.131855 -0.0613191 0.417654
-0.194772 -0.0605102 -0.410666
-0.194755 -0.0602588 -0.398635
-0.194739 -0.0600095 -0.386704
-0.194723 -0.0597622 -0.374871
-0.182496 -0.0601643 -0.369162
-0.170254 -0.0606864 -0.36915
-0.157798 -0.0612177 -0.369137
-0.151487 -0.0614868 -0.36913
-0.138699 -0.0620322 -0.369117
-0.132219 -0.0623085 -0.369111
0.130755 -0.0744025 -0.41076
0.130437 -0.0736786 -0.376862
0.165406 -0.0750004 -0.368732
0.184465 -0.0758131 -0.368707
0.13082 -0.0690269 -0.41762
0.130627 -0.0686216 -0.397121
0.1305 -0.068354 -0.383589
0.137571 -0.0683458 -0.368768
0.156029 -0.0690746 -0.368744
0.174884 -0.069819 -0.36872
-0.193806 -0.0409151 0.370207
-0.193793 -0.040729 0.379828
-0.193781 -0.0405445 0.389361
-0.193768 -0.0403617 0.398809
-0.193756 -0.0401805 0.408172
-0.183438 -0.0404985 0.412794
-0.174692 -0.0408089 0.414606
-0.16581 -0.0411241 0.416445
-0.156181 -0.04147 0.418226
-0.145881 -0.0418432 0.419967
-0.135394 -0.0422231 0.421739
-0.194772 -0.0515457 -0.410666
-0.194755 -0.0513316 -0.398635
-0.194739 -0.0511192 -0.386704
-0.194723 -0.0509085 -0.374871
-0.182496 -0.0512511 -0.369162
-0.170254 -0.0516958 -0.36915
-0.157798 -0.0521484 -0.369137
-0.151487 -0.0523776 -0.36913
0.130755 -0.0633799 -0.41076
0.130437 -0.0627633 -0.376862
0.165406 -0.0638892 -0.368732
0.184465 -0.0645816 -0.368707
0.131519 -0.0491242 0.389419
0.131616 -0.0489827 0.397544
0.13176 -0.0487719 0.409644
0.131855 -0.0486324 0.417654
-0.138699 -0.0482473 -0.369117
-0.132219 -0.0484622 -0.369111
0.13082 -0.0579826 -0.41762
0.130627 -0.0576421 -0.397121
0.1305 -0.0574173 -0.383589
0.130437 -0.0573056 -0.376862
0.137571 -0.0574105 -0.368768
0.156029 -0.0580226 -0.368744
0.174884 -0.058648 -0.36872
-0.194764 -0.0424926 -0.404638
-0.194747 -0.0423164 -0.392657
-0.194739 -0.0422289 -0.386704
-0.194723 -0.0420549 -0.374871
-0.182496 -0.0423379 -0.369162
0.13082 -0.0524605 -0.41762
0.130755 -0.0523574 -0.41076
0.130627 -0.0521524 -0.397121
0.156029 -0.0524967 -0.368744
0.165406 -0.0527781 -0.368732
0.184465 -0.05335 -0.368707
-0.193806 -0.0310955 0.370207
-0.193793 -0.030954 0.379828
-0.193781 -0.0308138 0.389361
-0.193768 -0.0306749 0.398809
-0.193756 -0.0305372 0.408172
-0.183438 -0.0307789 0.412794
-0.174692 -0.0310148 0.414606
-0.16581 -0.0312543 0.416445
-0.156181 -0.0315172 0.418226
-0.145881 -0.0318008 0.419967
-0.135394 -0.0320896 0.421739
0.131519 -0.0405809 0.389419
0.131616 -0.0404639 0.397544
0.13176 -0.0402898 0.409644
0.131855 -0.0401746 0.417654
-0.170254 -0.0382099 -0.36915
-0.157798 -0.0385444 -0.369137
-0.151487 -0.0387139 -0.36913
-0.138699 -0.0390573 -0.369117
-0.132219 -0.0392313 -0.369111
0.1305 -0.0464807 -0.383589
0.130437 -0.0463902 -0.376862
0.137571 -0.0464751 -0.368768
0.165406 -0.0472225 -0.368732
0.174884 -0.0474769 -0.36872
0.13082 -0.0414161 -0.41762
0.130755 -0.0413347 -0.41076
0.130627 -0.0411729 -0.397121
0.156029 -0.0414447 -0.368744
0.184465 -0.0421184 -0.368707
0.131519 -0.0320375 0.389419
0.131616 -0.0319452 0.397544
0.13176 -0.0318077 0.409644
0.131855 -0.0317168 0.417654
-0.194772 -0.0291345 -0.410666
-0.194755 -0.0290135 -0.398635
-0.194739 -0.0288934 -0.386704
-0.194723 -0.0287744 -0.374871
-0.182496 -0.028968 -0.369162
-0.170254 -0.0292194 -0.36915
-0.157798 -0.0294752 -0.369137
-0.151487 -0.0296047 -0.36913
-0.138699 -0.0298673 -0.369117
-0.132219 -0.0300004 -0.369111
0.1305 -0.0355441 -0.383589
0.130437 -0.0354749 -0.376862
0.137571 -0.0355398 -0.368768
0.165406 -0.0361113 -0.368732
0.174884 -0.0363059 -0.36872
-0.193806 -0.0212759 0.370207
-0.193793 -0.0211791 0.379828
-0.193781 -0.0210831 0.389361
-0.193768 -0.0209881 0.398809
-0.193756 -0.0208938 0.408172
-0.183438 -0.0210592 0.412794
-0.174692 -0.0212206 0.414606
-0.16581 -0.0213845 0.416445
-0.156181 -0.0215644 0.418226
-0.145881 -0.0217584 0.419967
-0.135394 -0.021956 0.421739
0.13082 -0.0303718 -0.41762
0.130755 -0.0303121 -0.41076
0.130627 -0.0301935 -0.397121
0.156029 -0.0303928 -0.368744
0.184465 -0.0308868 -0.368707
-0.194772 -0.0201701 -0.410666
-0.194755 -0.0200863 -0.398635
-0.194739 -0.0200032 -0.386704
-0.194723 -0.0199207 -0.374871
-0.182496 -0.0200548 -0.369162
-0.170254 -0.0202288 -0.36915
-0.157798 -0.0204059 -0.369137
-0.151487 -0.0204956 -0.36913
-0.138699 -0.0206774 -0.369117
-0.132219 -0.0207695 -0.369111
0.1305 -0.0246074 -0.383589
0.130437 -0.0245595 -0.376862
0.137571 -0.0246045 -0.368768
0.165406 -0.0250001 -0.368732
0.174884 -0.0251349 -0.36872
0.131519 -0.0192225 0.389419
0.131616 -0.0191671 0.397544
0.13176 -0.0190847 0.409644
0.131855 -0.0190301 0.417654
0.13082 -0.0193275 -0.41762
0.130755 -0.0192895 -0.41076
0.130627 -0.019214 -0.397121
0.156029 -0.0193409 -0.368744
0.184465 -0.0196553 -0.368707
-0.193806 -0.0114562 0.370207
-0.193793 -0.0114041 0.379828
-0.193781 -0.0113525 0.389361
-0.193768 -0.0113013 0.398809
-0.193756 -0.0112505 0.408172
-0.183438 -0.0113396 0.412794
-0.174692 -0.0114265 0.414606
-0.16581 -0.0115147 0.416445
-0.156181 -0.0116116 0.418226
-0.145881 -0.0117161 0.419967
-0.135394 -0.0118225 0.421739
-0.194772 -0.0112056 -0.410666
-0.194755 -0.011159 -0.398635
-0.194739 -0.0111129 -0.386704
-0.194723 -0.0110671 -0.374871
-0.182496 -0.0111415 -0.369162
-0.170254 -0.0112382 -0.36915
-0.157798 -0.0113366 -0.369137
-0.151487 -0.0113864 -0.36913
-0.138699 -0.0114874 -0.369117
-0.132219 -0.0115386 -0.369111
0.1305 -0.0136708 -0.383589
0.130437 -0.0136442 -0.376862
0.137571 -0.0136692 -0.368768
0.165406 -0.013889 -0.368732
0.174884 -0.0139638 -0.36872
0.131519 -0.0106792 0.389419
0.131616 -0.0106484 0.397544
0.13176 -0.0106026 0.409644
0.131855 -0.0105723 0.417654
0.13082 -0.00828324 -0.41762
0.130755 -0.00826696 -0.41076
0.130627 -0.0082346 -0.397121
0.156029 -0.00828896 -0.368744
0.184465 -0.00842369 -0.368707
-0.194772 -0.00224113 -0.410666
-0.194755 -0.00223182 -0.398635
-0.194739 -0.00222259 -0.386704
-0.194723 -0.00221343 -0.374871
-0.182496 -0.00222832 -0.369162
-0.170254 -0.00224766 -0.36915
-0.157798 -0.00226733 -0.369137
-0.151487 -0.0022773 -0.36913
-0.138699 -0.0022975 -0.369117
-0.132219 -0.00230774 -0.369111
0.1305 -0.00273418 -0.383589
0.130437 -0.00272886 -0.376862
0.137571 -0.00273385 -0.368768
0.165406 -0.00277781 -0.368732
0.174884 -0.00279278 -0.36872
-0.193806 -0.00163662 0.370207
-0.193793 -0.00162917 0.379828
-0.193781 -0.00162179 0.389361
-0.193768 -0.00161448 0.398809
-0.193756 -0.00160723 0.408172
-0.183438 -0.00161995 0.412794
-0.174692 -0.00163237 0.414606
-0.16581 -0.00164497 0.416445
-0.156181 -0.00165881 0.418226
-0.145881 -0.00167374 0.419967
-0.135394 -0.00168893 0.421739
0.131519 -0.00213585 0.389419
0.131616 -0.00212969 0.397544
0.13176 -0.00212053 0.409644
0.131855 -0.00211447 0.417654
0.13082 0.00276109 -0.41762
0.130755 0.00275567 -0.41076
0.130627 0.00274488 -0.397121
0.1305 0.00273418 -0.383589
0.130437 0.00272886 -0.376862
0.137571 0.00273385 -0.368768
0.156029 0.002763 -0.368744
0.165406 0.00277781 -0.368732
0.174884 0.00279278 -0.36872
0.184465 0.00280791 -0.368707
-0.194772 0.0112056 -0.410666
-0.194755 0.011159 -0.398635
-0.194739 0.0111129 -0.386704
-0.194723 0.0110671 -0.374871
-0.182496 0.0111415 -0.369162
-0.170254 0.0112382 -0.36915
-0.157798 0.0113366 -0.369137
-0.151487 0.0113864 -0.36913
-0.138699 0.0114874 -0.369117
-0.132219 0.0115386 -0.369111
0.13082 0.0138054 -0.41762
0.130755 0.0137783 -0.41076
0.130627 0.0137243 -0.397121
0.1305 0.0136708 -0.383589
0.130437 0.0136442 -0.376862
0.137571 0.0136692 -0.368768
0.156029 0.0138149 -0.368744
0.165406 0.013889 -0.368732
0.174884 0.0139638 -0.36872
0.184465 0.0140395 -0.368707
-0.193806 0.00818303 0.370207
-0.193793 0.0081458 0.379828
-0.193781 0.0081089 0.389361
-0.193768 0.00807234 0.398809
-0.193756 0.0080361 0.408172
-0.183438 0.0080997 0.412794
-0.174692 0.00816178 0.414606
-0.16581 0.00822482 0.416445
-0.156181 0.008294 0.418226
-0.145881 0.00836863 0.419967
-0.135394 0.00844462 0.421739
0.131519 0.0106792 0.389419
0.131616 0.0106484 0.397544
0.13176 0.0106026 0.409644
0.131855 0.0105723 0.417654
-0.194772 0.0201701 -0.410666
-0.194755 0.0200863 -0.398635
-0.194739 0.0200032 -0.386704
-0.194723 0.0199207 -0.374871
-0.182496 0.0200548 -0.369162
-0.170254 0.0202288 -0.36915
-0.157798 0.0204059 -0.369137
-0.151487 0.0204956 -0.36913
-0.138699 0.0206774 -0.369117
-0.132219 0.0207695 -0.369111
0.13082 0.0248497 -0.41762
0.130755 0.0248008 -0.41076
0.130627 0.0247038 -0.397121
0.1305 0.0246074 -0.383589
0.130437 0.0245595 -0.376862
0.137571 0.0246045 -0.368768
0.156029 0.0248668 -0.368744
0.165406 0.0250001 -0.368732
0.174884 0.0251349 -0.36872
0.184465 0.025271 -0.368707
0.131519 0.0192225 0.389419
0.131616 0.0191671 0.397544
0.13176 0.0190847 0.409644
0.131855 0.0190301 0.417654
-0.193806 0.0180027 0.370207
-0.193793 0.0179208 0.379828
-0.193781 0.0178396 0.389361
-0.193768 0.0177592 0.398809
-0.193756 0.0176794 0.408172
-0.183438 0.0178194 0.412794
-0.174692 0.0179559 0.414606
-0.16581 0.0180946 0.416445
-0.156181 0.0182468 0.418226
-0.145881 0.018411 0.419967
-0.135394 0.0185782 0.421739
-0.194772 0.0291345 -0.410666
-0.194755 0.0290135 -0.398635
-0.194739 0.0288934 -0.386704
-0.194723 0.0287744 -0.374871
-0.182496 0.028968 -0.369162
-0.170254 0.0292194 -0.36915
-0.157798 0.0294752 -0.369137
-0.151487 0.0296047 -0.36913
-0.138699 0.0298673 -0.369117
-0.132219 0.0300004 -0.369111
0.13082 0.035894 -0.41762
0.130755 0.0358234 -0.41076
0.130627 0.0356832 -0.397121
0.1305 0.0355441 -0.383589
0.130437 0.0354749 -0.376862
0.137571 0.0355398 -0.368768
0.156029 0.0359188 -0.368744
0.165406 0.0361113 -0.368732
0.174884 0.0363059 -0.36872
0.184465 0.0365026 -0.368707
0.131519 0.0277658 0.389419
0.131616 0.0276858 0.397544
0.13176 0.0275667 0.409644
0.131855 0.0317168 0.417654
-0.194772 0.038099 -0.410666
-0.194755 0.0379407 -0.398635
-0.194739 0.0377837 -0.386704
-0.194723 0.037628 -0.374871
-0.182496 0.0378812 -0.369162
-0.170254 0.0382099 -0.36915
-0.157798 0.0385444 -0.369137
-0.151487 0.0387139 -0.36913
-0.138699 0.0390573 -0.369117
-0.132219 0.0392313 -0.369111
0.13082 0.0469383 -0.41762
0.130755 0.046846 -0.41076
0.130627 0.0466626 -0.397121
0.1305 0.0464807 -0.383589
0.130437 0.0463902 -0.376862
0.137571 0.0464751 -0.368768
0.156029 0.0469707 -0.368744
0.165406 0.0472225 -0.368732
0.174884 0.0474769 -0.36872
0.184465 0.0477342 -0.368707
-0.193806 0.0278223 0.370207
-0.193793 0.0276957 0.379828
-0.193781 0.0275702 0.389361
-0.183438 0.027539 0.412794
-0.174692 0.02775 0.414606
-0.16581 0.0279644 0.416445
-0.156181 0.0281996 0.418226
-0.145881 0.0284533 0.419967
-0.135394 0.0287117 0.421739
0.165406 0.0527781 -0.368732
0.174884 0.0530625 -0.36872
-0.193768 0.0306749 0.398809
-0.193756 0.0305372 0.408172
0.131519 0.0405808 0.389419
0.131616 0.0404639 0.397544
0.13176 0.0402898 0.409644
0.131855 0.0401746 0.417654
-0.157798 0.0476137 -0.369137
-0.151487 0.047823 -0.36913
-0.138699 0.0482472 -0.369117
-0.132219 0.0484622 -0.369111
0.13082 0.0579826 -0.41762
0.130755 0.0578686 -0.41076
0.130627 0.0576421 -0.397121
0.1305 0.0574173 -0.383589
0.130437 0.0573056 -0.376862
0.137571 0.0574104 -0.368768
0.156029 0.0580226 -0.368744
0.184465 0.0589657 -0.368707
-0.194772 0.0515457 -0.410666
-0.194755 0.0513316 -0.398635
-0.194739 0.0511192 -0.386704
-0.194723 0.0509085 -0.374871
-0.182496 0.0512511 -0.369162
-0.170254 0.0516958 -0.36915
0.1305 0.0628857 -0.383589
0.130437 0.0627633 -0.376862
0.137571 0.0628781 -0.368768
0.165406 0.0638892 -0.368732
0.174884 0.0642335 -0.36872
-0.193806 0.0376419 0.370207
-0.174692 0.0375442 0.414606
-0.16581 0.0378342 0.416445
-0.156181 0.0381524 0.418226
-0.145881 0.0384957 0.419967
-0.135394 0.0388453 0.421739
0.131519 0.0491242 0.389419
0.131616 0.0489827 0.397544
0.13176 0.0487719 0.409644
0.131855 0.0486324 0.417654
-0.132219 0.0576931 -0.369111
0.13082 0.0690269 -0.41762
0.130755 0.0688912 -0.41076
0.130627 0.0686215 -0.397121
0.156029 0.0690745 -0.368744
0.184465 0.0701973 -0.368707
-0.193793 0.0407289 0.379828
-0.193781 0.0405445 0.389361
-0.193768 0.0403616 0.398809
-0.193756 0.0401805 0.408172
-0.183438 0.0404985 0.412794
-0.194772 0.0605102 -0.410666
-0.194755 0.0602588 -0.398635
-0.194739 0.0600095 -0.386704
-0.194723 0.0597622 -0.374871
-0.182496 0.0601643 -0.369162
-0.170254 0.0606864 -0.36915
-0.157798 0.0612177 -0.369137
-0.151487 0.0614868 -0.36913
-0.138699 0.0620322 -0.369117
0.1305 0.0738223 -0.383589
0.130437 0.0736786 -0.376862
0.137571 0.0738134 -0.368768
0.165406 0.0750004 -0.368732
0.174884 0.0754046 -0.36872
0.131519 0.0576675 0.389419
0.131616 0.0575014 0.397544
0.13082 0.0800712 -0.41762
0.130755 0.0799139 -0.41076
0.130627 0.079601 -0.397121
0.156029 0.0801265 -0.368744
0.184465 0.0814289 -0.368707
-0.16581 0.047704 0.416445
-0.156181 0.0481052 0.418226
-0.145881 0.0485381 0.419967
-0.135394 0.0489788 0.421739
0.13176 0.061495 0.409644
0.131855 0.0613191 0.417654
-0.194772 0.0694747 -0.410666
-0.194755 0.069186 -0.398635
-0.194739 0.0688997 -0.386704
-0.194723 0.0686158 -0.374871
-0.182496 0.0690775 -0.369162
-0.170254 0.069677 -0.36915
-0.157798 0.0702869 -0.369137
-0.151487 0.0705959 -0.36913
-0.138699 0.0712221 -0.369117
-0.132219 0.0715394 -0.369111
0.1305 0.0847589 -0.383589
0.130437 0.084594 -0.376862
0.137571 0.0847488 -0.368768
0.165406 0.0861116 -0.368732
0.174884 0.0865756 -0.36872
-0.193806 0.0507348 0.370207
-0.193793 0.0505039 0.379828
-0.193781 0.0502752 0.389361
-0.193768 0.0500485 0.398809
-0.193756 0.0498238 0.408172
-0.183438 0.0502181 0.412794
-0.174692 0.050603 0.414606
0.13082 0.0911155 -0.41762
0.130755 0.0909365 -0.41076
0.130627 0.0905805 -0.397121
0.156029 0.0911784 -0.368744
0.184465 0.0926605 -0.368707
0.131519 0.0704825 0.389419
0.131616 0.0702795 0.397544
0.13176 0.0699771 0.409644
0.131855 0.0697769 0.417654
-0.194772 0.0784391 -0.410666
-0.194755 0.0781132 -0.398635
-0.194739 0.07779 -0.386704
-0.188539 0.0776567 -0.369168
-0.182496 0.0779907 -0.369162
-0.170254 0.0786675 -0.36915
-0.157798 0.0793562 -0.369137
-0.151487 0.0797051 -0.36913
-0.138699 0.0804121 -0.369117
-0.132219 0.0807703 -0.369111
0.1305 0.0956955 -0.383589
0.130437 0.0955093 -0.376862
0.137571 0.0956841 -0.368768
0.165406 0.0972227 -0.368732
0.174884 0.0977466 -0.36872
-0.16581 0.0575737 0.416445
-0.156181 0.058058 0.418226
-0.145881 0.0585804 0.419967
-0.135394 0.0591123 0.421739
0.13082 0.10216 -0.41762
0.130755 0.101959 -0.41076
0.130627 0.10156 -0.397121
0.156029 0.10223 -0.368744
0.165406 0.102778 -0.368732
0.184465 0.103892 -0.368707
-0.193806 0.0605544 0.370207
-0.193793 0.0602789 0.379828
-0.193781 0.0600059 0.389361
-0.193768 0.0597353 0.398809
-0.193756 0.0594671 0.408172
-0.183438 0.0599378 0.412794
-0.174692 0.0603972 0.414606
0.131519 0.0790258 0.389419
0.131616 0.0787982 0.397544
0.13176 0.0784591 0.409644
0.131855 0.0782347 0.417654
-0.170254 0.0876581 -0.36915
-0.157798 0.0884255 -0.369137
-0.151487 0.0888142 -0.36913
-0.138699 0.089602 -0.369117
-0.132219 0.0900012 -0.369111
0.13082 0.107682 -0.41762
0.1305 0.106632 -0.383589
0.130437 0.106425 -0.376862
0.137571 0.106619 -0.368768
0.156029 0.107756 -0.368744
0.174884 0.108918 -0.36872
-0.194772 0.0918859 -0.410666
-0.194755 0.0915041 -0.398635
-0.194739 0.0911255 -0.386704
-0.194723 0.09075 -0.374871
-0.182496 0.0913606 -0.369162
0.130755 0.112982 -0.41076
0.130627 0.112539 -0.397121
0.146751 0.112682 -0.368756
0.165406 0.11389 -0.368732
0.171366 0.113983 -0.359518
0.175897 0.113951 -0.349294
0.180794 0.113951 -0.339327
-0.156181 0.0680108 0.418226
-0.145881 0.0686228 0.419967
-0.135394 0.0692459 0.421739
0.131519 0.0875692 0.389419
-0.151487 0.0979234 -0.36913
-0.138699 0.098792 -0.369117
-0.132219 0.0992321 -0.369111
0.0657691 0.113946 -0.406835
0.0754278 0.114417 -0.401281
0.0838276 0.114987 -0.40127
0.100882 0.116145 -0.401248
0.109539 0.116733 -0.401237
0.118284 0.117327 -0.401226
0.1305 0.117569 -0.383589
0.130437 0.11734 -0.376862
0.156029 0.118808 -0.368744
0.171391 0.118877 -0.339538
0.171408 0.118438 -0.326341
0.171424 0.118002 -0.313241
0.171432 0.117785 -0.306727
0.171448 0.117354 -0.293771
0.171456 0.11714 -0.287328
0.171472 0.116713 -0.274513
0.171488 0.116289 -0.261791
0.171504 0.115869 -0.249162
0.171519 0.115452 -0.236623
0.171535 0.115037 -0.224174
0.17155 0.114626 -0.211814
0.171565 0.114217 -0.199542
0.173148 0.113948 -0.188251
0.177804 0.113947 -0.17874
-0.193806 0.070374 0.370207
-0.193793 0.0700538 0.379828
-0.193781 0.0697365 0.389361
-0.193768 0.069422 0.398809
-0.193756 0.0691104 0.408172
-0.183438 0.0696574 0.412794
-0.174692 0.0701913 0.414606
-0.16581 0.0707334 0.416445
0.131616 0.0915762 0.397544
0.13176 0.0911822 0.409644
0.131855 0.0909214 0.417654
-0.194772 0.10085 -0.410666
-0.194755 0.100431 -0.398635
-0.194739 0.100016 -0.386704
-0.194723 0.0996036 -0.374871
-0.182496 0.100274 -0.369162
-0.170254 0.101144 -0.36915
-0.157798 0.102029 -0.369137
-0.00996697 0.113948 -0.409364
-0.00420725 0.114079 -0.401382
0.0034157 0.11462 -0.401373
0.0188814 0.11572 -0.401353
0.0346462 0.11684 -0.401333
0.0426438 0.117408 -0.401322
0.118284 0.122784 -0.401226
0.130627 0.123519 -0.397121
0.130437 0.122798 -0.376862
0.137571 0.123022 -0.368768
0.165406 0.125001 -0.368732
0.171366 0.125103 -0.359518
0.171448 0.122812 -0.293771
0.171456 0.122588 -0.287328
0.171588 0.118894 -0.181298
0.171603 0.118474 -0.169243
0.171618 0.118057 -0.157272
0.171633 0.117643 -0.145385
0.171647 0.117232 -0.133582
0.171662 0.116824 -0.12186
0.171676 0.116418 -0.11022
0.171691 0.116015 -0.0986609
0.171705 0.115616 -0.0871811
0.171719 0.115218 -0.0757802
0.171733 0.114824 -0.0644574
0.171747 0.114432 -0.0532117
0.171761 0.114043 -0.0420427
0.175097 0.113945 -0.032445
-0.145121 0.107505 -0.369124
-0.132219 0.108463 -0.369111
-0.0771592 0.113946 -0.407298
-0.0626919 0.114807 -0.401457
-0.0556155 0.115333 -0.401448
-0.0412667 0.116398 -0.40143
-0.0266501 0.117483 -0.401411
0.0426438 0.122627 -0.401322
0.0588748 0.123831 -0.401302
0.0754278 0.12506 -0.401281
0.0838276 0.125684 -0.40127
0.100882 0.12695 -0.401248
0.109539 0.127592 -0.401237
0.1305 0.128505 -0.383589
0.156029 0.12986 -0.368744
0.171383 0.130177 -0.346173
0.171399 0.129695 -0.332927
0.171408 0.129456 -0.326341
0.171424 0.128979 -0.313241
0.171432 0.128742 -0.306727
0.171472 0.12757 -0.274513
0.171488 0.127107 -0.261791
0.171504 0.126648 -0.249162
0.171519 0.126191 -0.236623
0.171535 0.125738 -0.224174
0.17155 0.125289 -0.211814
0.171565 0.124842 -0.199542
0.171789 0.118307 -0.0199308
0.171802 0.117909 -0.00898647
0.171816 0.117513 0.00188428
0.171829 0.117121 0.0126826
0.171843 0.11673 0.0234087
0.171856 0.116343 0.0340638
0.171869 0.115957 0.0446482
0.171882 0.115575 0.0551627
0.171895 0.115195 0.0656082
0.171908 0.114817 0.0759853
0.171921 0.114442 0.0862944
0.171933 0.11407 0.0965364
0.174779 0.113945 0.105734
0.178993 0.113941 0.114449
-0.156181 0.0779636 0.418226
-0.145881 0.0786651 0.419967
-0.135394 0.0793794 0.421739
0.131519 0.100384 0.389419
0.131616 0.100095 0.397544
0.13176 0.0996643 0.409644
0.131855 0.0993793 0.417654
-0.194772 0.109815 -0.410666
-0.194755 0.109359 -0.398635
-0.194739 0.108906 -0.386704
-0.194723 0.108457 -0.374871
-0.182496 0.109187 -0.369162
-0.170254 0.110135 -0.36915
-0.157798 0.111099 -0.369137
-0.0903649 0.117551 -0.401493
-0.0192392 0.123056 -0.401402
-0.0117584 0.123634 -0.401392
0.0034157 0.124809 -0.401373
0.0188814 0.126006 -0.401353
0.0346462 0.127226 -0.401333
0.118284 0.133698 -0.401226
0.130627 0.134498 -0.397121
0.130437 0.133713 -0.376862
0.137571 0.133958 -0.368768
0.165406 0.136112 -0.368732
0.171366 0.136223 -0.359518
0.171448 0.133729 -0.293771
0.171456 0.133485 -0.287328
0.171488 0.132516 -0.261791
0.17158 0.129692 -0.187358
0.171596 0.129234 -0.17526
0.17161 0.128778 -0.163247
0.171618 0.128551 -0.157272
0.171633 0.1281 -0.145385
0.171647 0.127653 -0.133582
0.171662 0.127208 -0.12186
0.171676 0.126766 -0.11022
0.171691 0.126328 -0.0986609
0.171705 0.125892 -0.0871811
0.171719 0.12546 -0.0757802
0.171733 0.12503 -0.0644574
0.171747 0.124604 -0.0532117
0.171761 0.12418 -0.0420427
0.171775 0.123759 -0.0309493
0.171959 0.118154 0.116822
0.171971 0.117773 0.126866
0.171984 0.117394 0.136846
0.171996 0.117018 0.146762
0.172008 0.116645 0.156615
0.17202 0.116273 0.166405
0.172032 0.115904 0.176132
0.172044 0.115538 0.185799
0.172056 0.115173 0.195404
0.172068 0.114811 0.204949
0.17208 0.114451 0.214434
0.172092 0.114094 0.223859
0.174488 0.113946 0.232634
0.180539 0.113938 0.245167
-0.193806 0.0801937 0.370207
-0.193793 0.0798288 0.379828
-0.193781 0.0794672 0.389361
-0.193768 0.0791089 0.398809
-0.193756 0.0787537 0.408172
-0.183438 0.079377 0.412794
-0.174692 0.0799854 0.414606
-0.16581 0.0806032 0.416445
-0.174073 0.113944 -0.359591
-0.132219 0.117694 -0.369111
-0.0766534 0.123454 -0.401475
-0.0626919 0.124578 -0.401457
-0.0556155 0.125148 -0.401448
-0.0412667 0.126304 -0.40143
0.0426438 0.133063 -0.401322
0.0588748 0.13437 -0.401302
0.0754278 0.135704 -0.401281
0.0838276 0.13638 -0.40127
0.100882 0.137754 -0.401248
0.109539 0.138451 -0.401237
0.1305 0.139442 -0.383589
0.156029 0.140912 -0.368744
0.171383 0.141256 -0.346173
0.171399 0.140733 -0.332927
0.171408 0.140473 -0.326341
0.171424 0.139956 -0.313241
0.171432 0.139699 -0.306727
0.171472 0.138427 -0.274513
0.171504 0.137426 -0.249162
0.171519 0.136931 -0.236623
0.171535 0.13644 -0.224174
0.17155 0.135952 -0.211814
0.171565 0.135467 -0.199542
0.171789 0.128376 -0.0199308
0.171802 0.127944 -0.00898647
0.171816 0.127515 0.00188428
0.171829 0.127088 0.0126826
0.171843 0.126665 0.0234087
0.171856 0.126244 0.0340638
0.171869 0.125826 0.0446482
0.171882 0.125411 0.0551627
0.171895 0.124999 0.0656082
0.171908 0.124589 0.0759853
0.171921 0.124182 0.0862944
0.171933 0.123778 0.0965364
0.171946 0.123376 0.106712
0.172115 0.118013 0.242535
0.172132 0.117466 0.256391
0.172144 0.117104 0.265557
0.172155 0.116745 0.274666
0.172166 0.116387 0.28372
0.172177 0.116032 0.292719
0.131519 0.108928 0.389419
0.131616 0.108614 0.397544
0.13176 0.108146 0.409644
0.131855 0.107837 0.417654
-0.194772 0.118779 -0.410666
-0.194755 0.118286 -0.398635
-0.194739 0.117796 -0.386704
-0.188539 0.117594 -0.369168
-0.182496 0.1181 -0.369162
-0.181746 0.117469 -0.352276
-0.181732 0.116992 -0.340666
-0.181718 0.11652 -0.32915
-0.181703 0.116051 -0.317726
-0.181696 0.115818 -0.312049
-0.181682 0.115355 -0.300762
-0.181668 0.114896 -0.289566
-0.181655 0.11444 -0.278458
-0.181641 0.113988 -0.267438
-0.176324 0.113944 -0.255557
0.0188814 0.136292 -0.401353
0.0346462 0.137611 -0.401333
0.118284 0.144613 -0.401226
0.130627 0.145478 -0.397121
0.130437 0.144628 -0.376862
0.137571 0.144893 -0.368768
0.165406 0.147223 -0.368732
0.171366 0.147343 -0.359518
0.171448 0.144646 -0.293771
0.171456 0.144381 -0.287328
0.171488 0.143334 -0.261791
0.171504 0.142815 -0.249162
0.17158 0.14028 -0.187358
0.171596 0.139783 -0.17526
0.17161 0.13929 -0.163247
0.171618 0.139045 -0.157272
0.171633 0.138557 -0.145385
0.171647 0.138073 -0.133582
0.171662 0.137592 -0.12186
0.171676 0.137115 -0.11022
0.171691 0.13664 -0.0986609
0.171705 0.136169 -0.0871811
0.171719 0.135702 -0.0757802
0.171733 0.135237 -0.0644574
0.171747 0.134776 -0.0532117
0.171761 0.134317 -0.0420427
0.171775 0.133862 -0.0309493
0.171959 0.127799 0.116822
0.171984 0.126978 0.136846
0.171996 0.126571 0.146762
0.172008 0.126167 0.156615
0.17202 0.125765 0.166405
0.172032 0.125366 0.176132
0.172044 0.124969 0.185799
0.172056 0.124575 0.195404
0.172068 0.124184 0.204949
0.17208 0.123794 0.214434
0.172092 0.123408 0.223859
0.172103 0.123023 0.233227
-0.156181 0.0879164 0.418226
-0.145881 0.0887075 0.419967
-0.135394 0.0895129 0.421739
-0.181614 0.117362 -0.245656
-0.181601 0.116903 -0.234893
-0.181588 0.116449 -0.224214
-0.181575 0.115997 -0.213618
-0.181562 0.11555 -0.203103
-0.181549 0.115105 -0.192669
-0.181542 0.114885 -0.187482
-0.18153 0.114445 -0.177168
-0.181517 0.11401 -0.166932
-0.176594 0.113944 -0.155369
0.122669 0.148603 -0.357928
0.12743 0.148603 -0.348239
0.13219 0.148603 -0.338549
0.13695 0.148603 -0.328859
0.141711 0.148603 -0.319169
0.146472 0.148604 -0.30948
0.151232 0.148604 -0.29979
0.155992 0.148604 -0.2901
0.160753 0.148604 -0.28041
0.165513 0.148604 -0.27072
0.171519 0.147671 -0.236623
0.171535 0.147141 -0.224174
0.17155 0.146615 -0.211814
0.171565 0.146092 -0.199542
0.171789 0.138445 -0.0199308
0.171802 0.137979 -0.00898647
0.171816 0.137516 0.00188428
0.171829 0.137056 0.0126826
0.171843 0.136599 0.0234087
0.171856 0.136146 0.0340638
0.171869 0.135695 0.0446482
0.171882 0.135247 0.0551627
0.171895 0.134802 0.0656082
0.171908 0.134361 0.0759853
0.171921 0.133922 0.0862944
0.171933 0.133486 0.0965364
0.171946 0.133052 0.106712
0.171971 0.132194 0.126866
0.172132 0.126679 0.256391
0.172144 0.126289 0.265557
0.172155 0.125901 0.274666
0.172166 0.125516 0.28372
0.172177 0.125133 0.292719
-0.193806 0.0900133 0.370207
-0.193793 0.0896037 0.379828
-0.193781 0.0891979 0.389361
-0.193768 0.0887957 0.398809
-0.193756 0.0883971 0.408172
-0.183438 0.0890967 0.412794
-0.174692 0.0897796 0.414606
-0.16581 0.090473 0.416445
0.0971149 0.113947 0.401918
0.100714 0.113942 0.409354
0.119878 0.115536 0.411037
-0.194772 0.127744 -0.410666
-0.181753 0.126592 -0.358117
-0.181746 0.126334 -0.352276
-0.181732 0.125822 -0.340666
-0.181718 0.125314 -0.32915
-0.181703 0.12481 -0.317726
-0.181696 0.124559 -0.312049
-0.181682 0.124061 -0.300762
-0.181669 0.123567 -0.289565
-0.181655 0.123077 -0.278458
-0.181641 0.12259 -0.267438
-0.181492 0.117262 -0.146692
-0.18148 0.116821 -0.136687
-0.181467 0.116383 -0.126757
-0.181455 0.115948 -0.116901
-0.181443 0.115516 -0.107118
-0.181431 0.115088 -0.0974076
-0.181413 0.114451 -0.0829767
-0.181401 0.11403 -0.0734444
-0.178599 0.113944 -0.0657995
-0.173337 0.113942 -0.0550324
0.122098 0.148603 -0.236948
0.128988 0.148603 -0.222923
0.133581 0.148603 -0.213574
0.138174 0.148604 -0.204224
0.142768 0.148604 -0.194874
0.147361 0.148604 -0.185524
0.151955 0.148604 -0.176174
0.156548 0.148604 -0.166824
0.161142 0.148604 -0.157474
0.168032 0.148605 -0.143449
0.171647 0.148494 -0.133582
0.171662 0.147977 -0.12186
0.171676 0.147463 -0.11022
0.171691 0.146953 -0.0986609
0.171705 0.146446 -0.0871811
0.171719 0.145943 -0.0757802
0.171733 0.145444 -0.0644574
0.171747 0.144947 -0.0532117
0.171761 0.144455 -0.0420427
0.171775 0.143965 -0.0309493
0.171984 0.136561 0.136846
0.171996 0.136123 0.146762
0.172008 0.135689 0.156615
0.17202 0.135257 0.166405
0.172032 0.134827 0.176132
0.172044 0.134401 0.185799
0.172056 0.133977 0.195404
0.172068 0.133556 0.204949
0.17208 0.133137 0.214434
0.172092 0.132721 0.223859
0.172115 0.131897 0.242535
0.131519 0.121742 0.389419
0.0520215 0.113944 0.403826
0.087064 0.116783 0.410998
0.131807 0.120696 0.413655
-0.194755 0.131677 -0.398635
-0.194739 0.131132 -0.386704
-0.194723 0.130591 -0.374871
-0.182496 0.13147 -0.369162
-0.181628 0.126392 -0.256504
-0.181614 0.125897 -0.245656
-0.181601 0.125405 -0.234893
-0.181588 0.124918 -0.224214
-0.181575 0.124434 -0.213618
-0.181562 0.123953 -0.203103
-0.181549 0.123477 -0.192669
-0.181542 0.12324 -0.187482
-0.18153 0.122769 -0.177168
-0.181367 0.116744 -0.0452635
-0.181355 0.116321 -0.036006
-0.181344 0.115901 -0.0268153
-0.181327 0.115277 -0.013153
-0.181315 0.114865 -0.00412619
-0.181305 0.114456 0.00483644
-0.181294 0.114049 0.0137352
-0.177079 0.113943 0.0246312
-0.171995 0.113941 0.0350315
0.123784 0.148603 -0.119653
0.128221 0.148604 -0.11062
0.132659 0.148604 -0.101587
0.139315 0.148604 -0.0880374
0.143753 0.148604 -0.0790043
0.148191 0.148604 -0.0699712
0.152629 0.148604 -0.0609381
0.157066 0.148605 -0.0519049
0.171789 0.148513 -0.0199308
0.171802 0.148013 -0.00898647
0.171816 0.147517 0.00188428
0.171829 0.147024 0.0126826
0.171843 0.146534 0.0234087
0.171856 0.146047 0.0340638
0.171869 0.145564 0.0446482
0.171882 0.145083 0.0551627
0.171895 0.144606 0.0656082
0.171908 0.144132 0.0759853
0.171921 0.143661 0.0862944
0.171933 0.143194 0.0965364
0.171946 0.142729 0.106712
0.171959 0.142267 0.116822
0.171971 0.141808 0.126866
0.172103 0.13695 0.233227
0.172132 0.135892 0.256391
0.172144 0.135474 0.265557
0.172155 0.135058 0.274666
0.172166 0.134644 0.28372
0.172177 0.134233 0.292719
-0.156181 0.0978692 0.418226
-0.145881 0.0987498 0.419967
-0.135394 0.0996465 0.421739
0.00998747 0.113941 0.405604
0.0260658 0.115197 0.410924
0.119878 0.123939 0.411037
-0.181753 0.135475 -0.358117
-0.181746 0.1352 -0.352276
-0.181732 0.134651 -0.340666
-0.181718 0.134107 -0.32915
-0.181703 0.133568 -0.317726
-0.181696 0.1333 -0.312049
-0.181682 0.132767 -0.300762
-0.181517 0.126447 -0.166932
-0.181504 0.125967 -0.156774
-0.181492 0.125491 -0.146692
-0.18148 0.125019 -0.136687
-0.181467 0.12455 -0.126757
-0.181455 0.124084 -0.116901
-0.181443 0.123622 -0.107118
-0.181431 0.123164 -0.0974076
-0.181266 0.116878 0.0357081
-0.181256 0.116468 0.0443894
-0.181245 0.116061 0.05301
-0.181229 0.115455 0.0658286
-0.181219 0.115055 0.0743001
-0.181208 0.114658 0.0827133
-0.181193 0.114067 0.0952246
-0.177298 0.113943 0.105778
-0.17238 0.113941 0.115836
0.123213 0.148604 -0.0144176
0.127505 0.148604 -0.00568062
0.131797 0.148604 0.00305623
0.138236 0.148604 0.0161619
0.142528 0.148604 0.0248989
0.14682 0.148604 0.033636
0.153258 0.148605 0.0467418
0.15755 0.148605 0.0554788
0.161843 0.148605 0.064216
0.171984 0.146144 0.136846
0.171996 0.145676 0.146762
0.172008 0.145211 0.156615
0.17202 0.144748 0.166405
0.172032 0.144289 0.176132
0.172044 0.143832 0.185799
0.172056 0.143379 0.195404
0.172068 0.142928 0.204949
0.172115 0.141153 0.242535
-0.193806 0.0998329 0.370207
-0.193793 0.0993787 0.379828
-0.193781 0.0989285 0.389361
-0.193768 0.0984825 0.398809
-0.193756 0.0980404 0.408172
-0.183438 0.0988163 0.412794
-0.174692 0.0995737 0.414606
-0.16581 0.100343 0.416445
-0.0275924 0.113944 0.410609
-0.00233161 0.116366 0.41089
0.087064 0.124979 0.410998
0.131807 0.129166 0.413655
-0.194772 0.14119 -0.410666
-0.194755 0.140604 -0.398635
-0.194739 0.140022 -0.386704
-0.194723 0.139445 -0.374871
-0.182496 0.140383 -0.369162
-0.181669 0.136574 -0.289565
-0.181655 0.136032 -0.278458
-0.181641 0.135495 -0.267438
-0.181628 0.134961 -0.256504
-0.181614 0.134432 -0.245656
-0.181601 0.133907 -0.234893
-0.181588 0.133387 -0.224214
-0.181575 0.13287 -0.213618
-0.181413 0.126498 -0.0829767
-0.181401 0.126033 -0.0734444
-0.18139 0.125572 -0.0639821
-0.181378 0.125114 -0.0545887
-0.181367 0.124659 -0.0452635
-0.181355 0.124207 -0.036006
-0.181344 0.123759 -0.0268153
-0.181327 0.123093 -0.013153
-0.181315 0.122653 -0.00412619
-0.181167 0.116804 0.115793
-0.181157 0.116407 0.123922
-0.181142 0.115818 0.136013
-0.181133 0.115428 0.144007
-0.181118 0.114848 0.155896
-0.181108 0.114465 0.163756
-0.18068 0.113944 0.175282
-0.175916 0.113942 0.185018
0.122678 0.148604 0.0841366
0.126834 0.148604 0.0925964
0.133068 0.148604 0.105286
0.137224 0.148604 0.113746
0.143458 0.148605 0.126435
0.147614 0.148605 0.134895
0.15177 0.148605 0.143355
0.158004 0.148605 0.156045
0.16216 0.148605 0.164505
0.17208 0.147152 0.214434
0.172092 0.146692 0.223859
0.172103 0.146235 0.233227
0.172132 0.145105 0.256391
0.172144 0.144658 0.265557
0.172155 0.144214 0.274666
0.172166 0.143773 0.28372
0.172177 0.143334 0.292719
0.0260658 0.123007 0.410924
0.0558306 0.125968 0.41096
-0.181753 0.144359 -0.358117
-0.181746 0.144065 -0.352276
-0.181732 0.143481 -0.340666
-0.181718 0.142901 -0.32915
-0.181562 0.136559 -0.203103
-0.181549 0.136034 -0.192669
-0.181542 0.135773 -0.187482
-0.18153 0.135254 -0.177168
-0.181517 0.134739 -0.166932
-0.181504 0.134228 -0.156774
-0.181492 0.13372 -0.146692
-0.18148 0.133217 -0.136687
-0.181467 0.132717 -0.126757
-0.181305 0.126095 0.00483644
-0.181294 0.125648 0.0137352
-0.181283 0.125203 0.022571
-0.181266 0.124542 0.0357081
-0.181256 0.124105 0.0443894
-0.181245 0.123671 0.05301
-0.181229 0.123026 0.0658286
-0.181219 0.1226 0.0743001
-0.18107 0.116543 0.194678
-0.181056 0.11597 0.206064
-0.181046 0.115591 0.213593
-0.181033 0.115027 0.224795
-0.181019 0.114469 0.235889
-0.18101 0.1141 0.243225
-0.177697 0.113942 0.25309
-0.17308 0.113941 0.262525
0.124191 0.148604 0.180726
0.128219 0.148604 0.188926
0.134261 0.148605 0.201225
0.138289 0.148605 0.209425
0.142317 0.148605 0.217624
0.148359 0.148605 0.229924
0.152387 0.148605 0.238123
0.15843 0.148606 0.250423
0.162458 0.148606 0.258622
-0.156181 0.107822 0.418226
-0.145881 0.108792 0.419967
-0.135394 0.10978 0.421739
-0.00233161 0.123996 0.41089
0.087064 0.133174 0.410998
0.119878 0.136543 0.411037
0.131807 0.137636 0.413655
-0.194772 0.150155 -0.410666
-0.194755 0.149531 -0.398635
-0.194739 0.148912 -0.386704
-0.194723 0.148299 -0.374871
-0.181703 0.146706 -0.317726
-0.181696 0.146411 -0.312049
-0.181682 0.145826 -0.300762
-0.181669 0.145245 -0.289565
-0.181655 0.144669 -0.278458
-0.181641 0.144098 -0.267438
-0.181628 0.14353 -0.256504
-0.181614 0.142968 -0.245656
-0.181455 0.136289 -0.116901
-0.181443 0.135782 -0.107118
-0.181431 0.135278 -0.0974076
-0.181413 0.13453 -0.0829767
-0.181401 0.134035 -0.0734444
-0.18139 0.133545 -0.0639821
-0.181378 0.133057 -0.0545886
-0.181367 0.132574 -0.0452635
-0.181208 0.125936 0.0827133
-0.181193 0.125287 0.0952246
-0.181183 0.124858 0.103494
-0.181167 0.12422 0.115793
-0.181157 0.123798 0.123922
-0.181142 0.123171 0.136013
-0.181133 0.122757 0.144007
-0.18097 0.115928 0.275659
-0.180961 0.115561 0.282741
-0.180948 0.115014 0.29328
-0.180935 0.114473 0.30372
-0.180865 0.113943 0.314048
-0.176385 0.113941 0.3232
0.123656 0.148604 0.267573
0.129518 0.148604 0.279505
0.13538 0.148605 0.291437
0.139289 0.148605 0.299392
-0.193806 0.109653 0.370207
-0.193793 0.109154 0.379828
-0.193781 0.108659 0.389361
-0.193768 0.108169 0.398809
-0.193756 0.107684 0.408172
-0.183438 0.108536 0.412794
-0.174692 0.109368 0.414606
-0.16581 0.110213 0.416445
-0.0294535 0.124941 0.410857
0.0558306 0.133966 0.41096
-0.194713 0.152098 -0.36313
-0.194705 0.151786 -0.357298
-0.194691 0.151167 -0.345704
-0.194677 0.150553 -0.334205
-0.194663 0.149944 -0.322798
-0.194656 0.149641 -0.31713
-0.194642 0.149039 -0.305861
-0.193669 0.148593 -0.29555
-0.187974 0.148594 -0.283969
-0.181601 0.146661 -0.234893
-0.181588 0.14609 -0.224214
-0.181575 0.145524 -0.213618
-0.181562 0.144962 -0.203103
-0.181549 0.144405 -0.192669
-0.181542 0.144128 -0.187482
-0.18153 0.143577 -0.177168
-0.181517 0.14303 -0.166932
-0.181355 0.136037 -0.036006
-0.181344 0.135546 -0.0268153
-0.181327 0.134816 -0.013153
-0.181316 0.134334 -0.00412613
-0.181305 0.133855 0.00483644
-0.181294 0.13338 0.0137352
-0.181283 0.132908 0.022571
-0.181118 0.125786 0.155896
-0.181108 0.125366 0.163756
-0.181094 0.124742 0.175448
-0.181084 0.124329 0.183178
-0.18107 0.123714 0.194678
-0.181056 0.123106 0.206064
-0.181046 0.122704 0.213593
-0.180897 0.116248 0.334458
-0.180885 0.115711 0.344515
-0.180872 0.115178 0.354479
-0.18086 0.114651 0.364352
0.0260658 0.134722 0.410924
0.119878 0.144945 0.411037
-0.194772 0.159119 -0.410666
-0.194755 0.158458 -0.398635
-0.194739 0.157803 -0.386704
-0.1946 0.15153 -0.272592
-0.194594 0.15123 -0.267124
-0.19458 0.150632 -0.256253
-0.194566 0.150039 -0.245468
-0.194553 0.149451 -0.234767
-0.19454 0.148868 -0.22415
-0.192585 0.148594 -0.215206
-0.181504 0.146618 -0.156774
-0.181492 0.146064 -0.146692
-0.18148 0.145514 -0.136687
-0.181467 0.144968 -0.126757
-0.181455 0.144426 -0.116901
-0.181443 0.143888 -0.107118
-0.181431 0.143355 -0.0974076
-0.181413 0.142562 -0.0829767
-0.181266 0.136038 0.0357081
-0.181256 0.135561 0.0443894
-0.181245 0.135087 0.05301
-0.181229 0.134382 0.0658286
-0.181219 0.133917 0.0743001
-0.181208 0.133454 0.0827133
-0.181193 0.132767 0.0952246
-0.181033 0.125645 0.224795
-0.181019 0.125035 0.235889
-0.18101 0.124632 0.243225
-0.180996 0.124032 0.25414
-0.180983 0.123438 0.264951
-0.18097 0.122849 0.275659
-0.156181 0.117775 0.418226
-0.145881 0.118835 0.419967
-0.135394 0.119914 0.421739
-0.00233161 0.135442 0.41089
0.087064 0.145467 0.410998
0.118971 0.148602 0.419082
-0.194723 0.161579 -0.374871
-0.194713 0.160915 -0.36313
-0.194705 0.160586 -0.357298
-0.194691 0.159931 -0.345704
-0.194677 0.159281 -0.334205
-0.194663 0.158636 -0.322798
-0.194656 0.158316 -0.31713
-0.194642 0.157679 -0.305861
-0.194514 0.151875 -0.203162
-0.194501 0.151289 -0.19279
-0.194488 0.150707 -0.182498
-0.194476 0.15013 -0.172284
-0.194463 0.149557 -0.162148
-0.19445 0.148989 -0.15209
-0.19156 0.148596 -0.139263
-0.187972 0.148596 -0.131965
-0.181401 0.146039 -0.0734444
-0.18139 0.145504 -0.0639821
-0.181378 0.144973 -0.0545886
-0.181367 0.144446 -0.0452635
-0.181355 0.143923 -0.036006
-0.181344 0.143403 -0.0268153
-0.181327 0.142631 -0.013153
-0.181183 0.136039 0.103494
-0.181167 0.135344 0.115793
-0.181157 0.134885 0.123922
-0.181142 0.134202 0.136013
-0.181133 0.13375 0.144007
-0.181118 0.133078 0.155896
-0.181108 0.132634 0.163756
-0.180961 0.12591 0.282741
-0.180948 0.125314 0.29328
-0.180935 0.124724 0.30372
-0.180922 0.124139 0.314062
-0.18091 0.12356 0.324308
-0.180897 0.122987 0.334458
-0.193806 0.119472 0.370207
-0.193793 0.118929 0.379828
-0.193781 0.11839 0.389361
-0.193768 0.117856 0.398809
-0.183438 0.118256 0.412794
-0.174692 0.119162 0.414606
-0.16581 0.120082 0.416445
-0.0294535 0.13613 0.410857
0.0260658 0.142532 0.410924
0.0558306 0.145963 0.41096
0.0827737 0.148602 0.419247
-0.194628 0.16135 -0.294682
-0.194614 0.160706 -0.283593
-0.1946 0.160067 -0.272592
-0.194594 0.15975 -0.267124
-0.19458 0.159119 -0.256253
-0.194566 0.158492 -0.245468
-0.194553 0.157871 -0.234767
-0.194413 0.151345 -0.122367
-0.194395 0.150497 -0.107756
-0.194383 0.149936 -0.0981057
-0.194372 0.14938 -0.088527
-0.19436 0.148828 -0.0790191
-0.192336 0.148597 -0.0709215
-0.181316 0.146015 -0.00412613
-0.181305 0.145495 0.00483644
-0.181294 0.144978 0.0137352
-0.181283 0.144465 0.022571
-0.181266 0.143702 0.0357081
-0.181256 0.143198 0.0443894
-0.181245 0.142698 0.05301
-0.181094 0.135589 0.175448
-0.181084 0.13514 0.183178
-0.18107 0.134472 0.194678
-0.181056 0.133811 0.206064
-0.181046 0.133374 0.213593
-0.181033 0.132723 0.224795
-0.180885 0.125772 0.344515
-0.180872 0.125194 0.354479
-0.18086 0.124621 0.364352
-0.193756 0.120541 0.408172
-0.00233161 0.143073 0.41089
0.0449934 0.1486 0.412299
0.0485049 0.148603 0.419403
0.0537018 0.148598 0.430067
-0.19454 0.161448 -0.22415
-0.194527 0.16082 -0.213615
-0.194514 0.160197 -0.203162
-0.194501 0.159579 -0.19279
-0.194488 0.158965 -0.182498
-0.194476 0.158356 -0.172284
-0.194463 0.157752 -0.162148
-0.194336 0.151676 -0.0602128
-0.194325 0.151122 -0.0509127
-0.194313 0.150571 -0.0416803
-0.194296 0.149753 -0.0279571
-0.194285 0.149213 -0.018891
-0.194274 0.148676 -0.00988996
-0.18967 0.148598 0.000791073
-0.181229 0.145739 0.0658286
-0.181219 0.145234 0.0743001
-0.181208 0.144732 0.0827133
-0.181193 0.143986 0.0952246
-0.181183 0.143494 0.103494
-0.181167 0.14276 0.115793
-0.181019 0.135602 0.235889
-0.18101 0.135164 0.243225
-0.180996 0.134514 0.25414
-0.180983 0.133869 0.264951
-0.18097 0.133231 0.275659
-0.180961 0.132809 0.282741
-0.156181 0.127728 0.418226
-0.145881 0.128877 0.419967
-0.135394 0.130047 0.421739
-0.0294535 0.143589 0.410857
0.0125979 0.148601 0.412631
0.0177001 0.148601 0.423014
0.0391153 0.150692 0.431638
-0.19445 0.161235 -0.15209
-0.194438 0.160624 -0.142107
-0.194426 0.160018 -0.1322
-0.194413 0.159417 -0.122367
-0.194395 0.158523 -0.107756
-0.194383 0.157933 -0.0981057
-0.194252 0.151449 0.00791937
-0.194235 0.150642 0.0211104
-0.194224 0.150109 0.0298263
-0.194213 0.14958 0.0384811
-0.194198 0.148793 0.0513493
-0.192113 0.148599 0.0587563
-0.181157 0.145971 0.123922
