ply
format ascii 1.0
comment Created by Open3D
element vertex 697
property double x
property double y
property double z
end_header
0.00679493 -0.0647264 -0.415141
-0.007532 -0.0640251 -0.415059
-0.0215133 -0.0634589 -0.411171
-0.0306609 -0.0631675 -0.406076
-0.0379994 -0.0629789 -0.400536
-0.0456873 -0.0628867 -0.391331
-0.0506701 -0.0629522 -0.381332
-0.0536737 -0.063135 -0.370682
-0.0546209 -0.0634419 -0.359289
-0.0539068 -0.0637285 -0.351179
-0.051288 -0.0641312 -0.342345
-0.043085 -0.0649981 -0.327393
-0.0266124 -0.0622307 -0.313266
0.00679493 -0.0568808 -0.415141
-0.007532 -0.0562645 -0.415059
-0.0215133 -0.0557669 -0.411171
-0.0306609 -0.0555109 -0.406076
-0.0379994 -0.0553451 -0.400536
-0.0456873 -0.0552641 -0.391331
-0.0506701 -0.0553216 -0.381332
-0.0536737 -0.0554823 -0.370682
-0.0546209 -0.055752 -0.359289
-0.0539068 -0.0560039 -0.351179
-0.051288 -0.0563578 -0.342345
-0.043085 -0.0571195 -0.327393
-0.0322227 -0.065163 -0.0495493
-0.0395426 -0.0650116 -0.0435095
-0.0453405 -0.0649505 -0.0365689
-0.0515965 -0.0650057 -0.0246363
-0.0540574 -0.065147 -0.0155568
0.0209782 -0.0626614 -0.0553006
0.00394118 -0.0618631 -0.0597716
-0.00481772 -0.0615162 -0.0595697
-0.0125974 -0.0612217 -0.0588539
-0.0553071 -0.0608558 -0.00563258
-0.0542923 -0.0611887 0.00587833
-0.0519828 -0.0614596 0.0128931
-0.0418968 -0.0623198 0.0308096
-0.0266124 -0.0501861 -0.313266
-0.023543 -0.056374 -0.0548282
-0.0362231 -0.0560923 -0.0467307
-0.0453405 -0.0559918 -0.0365689
-0.0515965 -0.0560394 -0.0246363
-0.0540574 -0.0561612 -0.0155568
-0.0120246 -0.065067 0.296825
-0.0176709 -0.0648987 0.298606
-0.0280335 -0.0646144 0.30292
-0.0401492 -0.0643862 0.312393
-0.0466293 -0.0643273 0.320153
-0.0513698 -0.0643723 0.329572
-0.0546069 -0.0645083 0.340487
-0.0554849 -0.0647888 0.35381
0.00679493 -0.0451124 -0.415141
-0.007532 -0.0446236 -0.415059
-0.0215133 -0.0442289 -0.411171
-0.0306609 -0.0440259 -0.406076
-0.0379994 -0.0438944 -0.400536
-0.0456873 -0.0438302 -0.391331
-0.0506701 -0.0438758 -0.381332
-0.0536737 -0.0440032 -0.370682
-0.0546209 -0.0442171 -0.359289
-0.0539068 -0.0444169 -0.351179
-0.051288 -0.0446975 -0.342345
-0.043085 -0.0453017 -0.327393
0.0209782 -0.0533783 -0.0553006
-0.00481772 -0.0524027 -0.0595697
-0.0125974 -0.0521518 -0.0588539
-0.0553071 -0.0518401 -0.00563258
-0.0542923 -0.0521237 0.00587833
-0.0519828 -0.0523545 0.0128931
0.0262226 -0.0613077 0.303137
0.0119244 -0.0606959 0.297484
0.00223517 -0.0603279 0.295805
-0.0510566 -0.0601637 0.372609
-0.0266124 -0.0421563 -0.313266
0.00394118 -0.0481158 -0.0597716
-0.023543 -0.0473541 -0.0548282
-0.0362231 -0.0471176 -0.0467307
-0.0453405 -0.0470331 -0.0365689
-0.0515965 -0.0470731 -0.0246363
-0.0540574 -0.0471754 -0.0155568
-0.0418968 -0.0484709 0.0308096
-0.0120246 -0.0546563 0.296825
-0.0176709 -0.054515 0.298606
-0.0280335 -0.0542761 0.30292
-0.0401492 -0.0540844 0.312393
-0.0466293 -0.054035 0.320153
-0.0513698 -0.0540727 0.329572
-0.0546069 -0.054187 0.340487
-0.0554849 -0.0544226 0.35381
0.00679493 -0.0372668 -0.415141
-0.007532 -0.036863 -0.415059
-0.0215133 -0.0365369 -0.411171
-0.0306609 -0.0363692 -0.406076
-0.0379994 -0.0362606 -0.400536
-0.0456873 -0.0362075 -0.391331
-0.0506701 -0.0362452 -0.381332
-0.0536737 -0.0363505 -0.370682
-0.0546209 -0.0365272 -0.359289
-0.0539068 -0.0366922 -0.351179
-0.051288 -0.0369241 -0.342345
-0.043085 -0.0374232 -0.327393
0.0209782 -0.0440951 -0.0553006
0.0262226 -0.0506455 0.303137
0.0119244 -0.0501401 0.297484
0.00223517 -0.0498361 0.295805
-0.0510566 -0.0497005 0.372609
0.00394118 -0.0389508 -0.0597716
-0.00481772 -0.0387324 -0.0595697
-0.0125974 -0.038547 -0.0588539
-0.0553071 -0.0383166 -0.00563258
-0.0542923 -0.0385262 0.00587833
-0.0519828 -0.0386968 0.0128931
-0.0418968 -0.0392384 0.0308096
-0.0120246 -0.0442456 0.296825
-0.0176709 -0.0441311 0.298606
-0.0280335 -0.0439378 0.30292
-0.0401492 -0.0437826 0.312393
-0.0466293 -0.0437426 0.320153
-0.0513698 -0.0437731 0.329572
-0.0546069 -0.0438656 0.340487
-0.0554849 -0.0440563 0.35381
-0.0266124 -0.0301116 -0.313266
0.0209782 -0.0348119 -0.0553006
-0.023543 -0.0338244 -0.0548282
-0.0362231 -0.0336554 -0.0467307
-0.0453405 -0.0335951 -0.0365689
-0.0515965 -0.0336236 -0.0246363
-0.0540574 -0.0336967 -0.0155568
0.0262226 -0.0399833 0.303137
0.0119244 -0.0395843 0.297484
0.00223517 -0.0393442 0.295805
-0.0510566 -0.0392372 0.372609
0.00679493 -0.0254983 -0.415141
-0.007532 -0.025222 -0.415059
-0.0215133 -0.0249989 -0.411171
-0.0306609 -0.0248842 -0.406076
-0.0379994 -0.0248099 -0.400536
-0.0456873 -0.0247736 -0.391331
-0.0506701 -0.0247993 -0.381332
-0.0536737 -0.0248714 -0.370682
-0.0546209 -0.0249923 -0.359289
-0.0539068 -0.0251052 -0.351179
-0.051288 -0.0252638 -0.342345
-0.043085 -0.0256053 -0.327393
0.00394118 -0.0297859 -0.0597716
-0.00481772 -0.0296189 -0.0595697
-0.0125974 -0.0294771 -0.0588539
-0.0553071 -0.0293009 -0.00563258
-0.0542923 -0.0294612 0.00587833
-0.0519828 -0.0295917 0.0128931
-0.0418968 -0.0300058 0.0308096
-0.0120246 -0.0338348 0.296825
-0.0176709 -0.0337473 0.298606
-0.0280335 -0.0335995 0.30292
-0.0401492 -0.0334808 0.312393
-0.0466293 -0.0334502 0.320153
-0.0513698 -0.0334736 0.329572
-0.0546069 -0.0335443 0.340487
-0.0554849 -0.0336901 0.35381
-0.0266124 -0.0220819 -0.313266
0.0209782 -0.0255287 -0.0553006
-0.023543 -0.0248045 -0.0548282
-0.0362231 -0.0246806 -0.0467307
-0.0453405 -0.0246364 -0.0365689
-0.0515965 -0.0246573 -0.0246363
-0.0540574 -0.0247109 -0.0155568
0.0262226 -0.0293211 0.303137
0.0119241 -0.0290285 0.297484
0.00223517 -0.0288524 0.295805
-0.0510566 -0.028774 0.372609
-0.007532 -0.0174614 -0.415059
-0.0215133 -0.017307 -0.411171
-0.0306609 -0.0172275 -0.406076
-0.0379994 -0.0171761 -0.400536
-0.0456873 -0.0171509 -0.391331
-0.0506701 -0.0171688 -0.381332
-0.0536737 -0.0172186 -0.370682
-0.0546209 -0.0173023 -0.359289
-0.0539068 -0.0173805 -0.351179
-0.051288 -0.0174903 -0.342345
0.00394118 -0.020621 -0.0597716
-0.00481772 -0.0205054 -0.0595697
-0.0125974 -0.0204072 -0.0588539
-0.0553071 -0.0202853 -0.00563258
-0.0542923 -0.0203962 0.00587833
-0.0519828 -0.0204865 0.0128931
-0.0418968 -0.0207733 0.0308096
-0.0120246 -0.0234241 0.296825
-0.0176709 -0.0233635 0.298606
-0.0280335 -0.0232612 0.30292
-0.0401492 -0.023179 0.312393
-0.0466293 -0.0231578 0.320153
-0.0513698 -0.023174 0.329572
-0.0546069 -0.023223 0.340487
-0.0554849 -0.0233239 0.35381
0.00679493 -0.0137299 -0.415141
-0.043085 -0.0137875 -0.327393
0.0209782 -0.0162456 -0.0553006
-0.023543 -0.0157847 -0.0548282
-0.0362231 -0.0157059 -0.0467307
-0.0453405 -0.0156777 -0.0365689
-0.0515965 -0.015691 -0.0246363
-0.0540574 -0.0157251 -0.0155568
0.0262226 -0.0186589 0.303137
0.0119241 -0.0184727 0.297484
0.00223517 -0.0183607 0.295805
-0.0510566 -0.0183107 0.372609
-0.0266124 -0.0100372 -0.313266
0.00394118 -0.0114561 -0.0597716
-0.00481772 -0.0113919 -0.0595697
-0.0125974 -0.0113374 -0.0588539
-0.0553071 -0.0112696 -0.00563258
-0.0542923 -0.0113313 0.00587833
-0.0519828 -0.0113814 0.0128931
-0.0418968 -0.0115407 0.0308096
-0.0120246 -0.0130134 0.296825
-0.0176709 -0.0129798 0.298606
-0.0280335 -0.0129229 0.30292
-0.0401492 -0.0128772 0.312393
-0.0466293 -0.0128655 0.320153
-0.0513698 -0.0128745 0.329572
-0.0546069 -0.0129017 0.340487
-0.0554849 -0.0129578 0.35381
0.00679493 -0.00588423 -0.415141
-0.007532 -0.00582048 -0.415059
-0.0215133 -0.005769 -0.411171
-0.0306609 -0.00574251 -0.406076
-0.0379994 -0.00572536 -0.400536
-0.0456873 -0.00571699 -0.391331
-0.0506701 -0.00572293 -0.381332
-0.0536737 -0.00573955 -0.370682
-0.0546209 -0.00576745 -0.359289
-0.0539068 -0.00579351 -0.351179
-0.051288 -0.00583012 -0.342345
-0.043085 -0.00590893 -0.327393
0.0209782 -0.00696239 -0.0553006
-0.023543 -0.00676489 -0.0548282
-0.0362231 -0.00673109 -0.0467307
-0.0453405 -0.00671903 -0.0365689
-0.0515965 -0.00672474 -0.0246363
-0.0540574 -0.00673936 -0.0155568
0.0262226 -0.00799667 0.303137
0.0119241 -0.00791687 0.297484
0.00223517 -0.00786886 0.295805
-0.0510566 -0.00784745 0.372609
-0.0266124 -0.00200745 -0.313266
0.00394118 -0.00229124 -0.0597716
-0.00481772 -0.00227839 -0.0595697
-0.0125974 -0.00226748 -0.0588539
-0.0553071 -0.00225393 -0.00563258
-0.0542923 -0.00226626 0.00587833
-0.0519828 -0.0022763 0.0128931
-0.0418968 -0.00230815 0.0308096
-0.0120246 -0.0026027 0.296825
-0.0176709 -0.00259597 0.298606
-0.0280335 -0.00258459 0.30292
-0.0401492 -0.00257546 0.312393
-0.0466293 -0.00257311 0.320153
-0.0513698 -0.00257491 0.329572
-0.0546069 -0.00258035 0.340487
-0.0554849 -0.00259157 0.35381
0.0262226 0.00266557 0.303137
0.0119241 0.00263897 0.297484
0.00223517 0.00262297 0.295805
-0.0120246 0.0026027 0.296825
-0.0176709 0.00259597 0.298606
-0.0280335 0.00258459 0.30292
-0.0401492 0.00257546 0.312393
-0.0466293 0.00257311 0.320153
-0.0513698 0.00257491 0.329572
-0.0546069 0.00258035 0.340487
-0.0554849 0.00259157 0.35381
-0.0510566 0.00261583 0.372609
0.00679493 0.0058842 -0.415141
-0.007532 0.00582045 -0.415059
-0.0215133 0.00576897 -0.411171
-0.0306609 0.00574249 -0.406076
-0.0379994 0.00572534 -0.400536
-0.0456873 0.00571696 -0.391331
-0.0506701 0.00572291 -0.381332
-0.0536737 0.00573953 -0.370682
-0.0546209 0.00576743 -0.359289
-0.0539068 0.00579349 -0.351179
-0.051288 0.00583009 -0.342345
-0.043085 0.0059089 -0.327393
0.0209782 0.00696236 -0.0553006
-0.023543 0.00676485 -0.0548282
-0.0362231 0.00673106 -0.0467307
-0.0453405 0.006719 -0.0365689
-0.0515965 0.00672471 -0.0246363
-0.0540574 0.00673933 -0.0155568
-0.0266124 0.0100372 -0.313266
0.00394118 0.0114561 -0.0597716
-0.00481772 0.0113919 -0.0595697
-0.0125974 0.0113374 -0.0588539
-0.0553071 0.0112696 -0.00563258
-0.0542923 0.0113313 0.00587833
-0.0519828 0.0113814 0.0128931
-0.0418968 0.0115407 0.0308096
0.0262226 0.0133278 0.303137
0.0119241 0.0131948 0.297484
0.00223517 0.0131148 0.295805
-0.0120246 0.0130134 0.296825
-0.0176709 0.0129798 0.298606
-0.0280335 0.0129229 0.30292
-0.0401492 0.0128772 0.312393
-0.0466293 0.0128655 0.320153
-0.0513698 0.0128745 0.329572
-0.0546069 0.0129017 0.340487
-0.0554849 0.0129578 0.35381
-0.0510566 0.0130791 0.372609
0.00679493 0.0137298 -0.415141
-0.007532 0.0135811 -0.415059
-0.0215133 0.013461 -0.411171
-0.0306609 0.0133992 -0.406076
-0.0379994 0.0133591 -0.400536
-0.0456873 0.0133396 -0.391331
-0.0506701 0.0133535 -0.381332
-0.0536737 0.0133922 -0.370682
-0.0546209 0.0134573 -0.359289
-0.0539068 0.0135182 -0.351179
-0.051288 0.0136036 -0.342345
-0.043085 0.0137874 -0.327393
0.0209782 0.0162455 -0.0553006
-0.023543 0.0157847 -0.0548282
-0.0362231 0.0157058 -0.0467307
-0.0453405 0.0156777 -0.0365689
-0.0515965 0.015691 -0.0246363
-0.0540574 0.0157251 -0.0155568
-0.0266124 0.018067 -0.313266
0.00394118 0.020621 -0.0597716
-0.00481772 0.0205054 -0.0595697
-0.0125974 0.0204072 -0.0588539
-0.0553071 0.0202853 -0.00563258
-0.0542923 0.0203962 0.00587833
-0.0519828 0.0204865 0.0128931
-0.0418968 0.0207733 0.0308096
0.0262226 0.02399 0.303137
0.0119241 0.0237506 0.297484
0.00223517 0.0236066 0.295805
-0.0120246 0.0234241 0.296825
-0.0176709 0.0233635 0.298606
-0.0280335 0.0232612 0.30292
-0.0401492 0.023179 0.312393
-0.0466293 0.0231578 0.320153
-0.0513698 0.023174 0.329572
-0.0546069 0.023223 0.340487
-0.0554849 0.0233239 0.35381
-0.0510566 0.0235423 0.372609
0.0209782 0.0255288 -0.0553006
-0.023543 0.0248046 -0.0548282
-0.0362231 0.0246807 -0.0467307
-0.0453405 0.0246364 -0.0365689
-0.0515965 0.0246574 -0.0246363
-0.0540574 0.024711 -0.0155568
0.00679493 0.0254983 -0.415141
-0.007532 0.025222 -0.415059
-0.0215133 0.0249989 -0.411171
-0.0306609 0.0248842 -0.406076
-0.0379994 0.0248099 -0.400536
-0.0456873 0.0247736 -0.391331
-0.0506701 0.0247993 -0.381332
-0.0536737 0.0248714 -0.370682
-0.0546209 0.0249923 -0.359289
-0.0539068 0.0251052 -0.351179
-0.051288 0.0252638 -0.342345
-0.043085 0.0256053 -0.327393
0.00394118 0.0297859 -0.0597716
-0.00481772 0.0296189 -0.0595697
-0.0125974 0.0294771 -0.0588539
-0.0553071 0.0293009 -0.00563258
-0.0542923 0.0294612 0.00587833
-0.0519828 0.0295917 0.0128931
-0.0418968 0.0300058 0.0308096
0.0262226 0.0346522 0.303137
0.0119241 0.0343064 0.297484
0.00223517 0.0340983 0.295805
-0.0120246 0.0338348 0.296825
-0.0176709 0.0337473 0.298606
-0.0280335 0.0335995 0.30292
-0.0401492 0.0334808 0.312393
-0.0466293 0.0334502 0.320153
-0.0513698 0.0334736 0.329572
-0.0546069 0.0335443 0.340487
-0.0554849 0.0336901 0.35381
-0.0510566 0.0340056 0.372609
-0.0266124 0.0301117 -0.313266
0.0209782 0.0348119 -0.0553006
-0.023543 0.0338244 -0.0548282
-0.0362231 0.0336554 -0.0467307
-0.0453405 0.0335951 -0.0365689
-0.0515965 0.0336237 -0.0246363
-0.0540574 0.0336968 -0.0155568
0.00679493 0.0333439 -0.415141
-0.007532 0.0329826 -0.415059
-0.0215133 0.0326909 -0.411171
-0.0306609 0.0325408 -0.406076
-0.0536737 0.0325241 -0.370682
-0.0546209 0.0326822 -0.359289
-0.0539068 0.0328298 -0.351179
-0.051288 0.0330373 -0.342345
-0.043085 0.0334839 -0.327393
0.00394118 0.0389508 -0.0597716
-0.00481772 0.0387324 -0.0595697
-0.0125974 0.038547 -0.0588539
-0.0553071 0.0383166 -0.00563258
-0.0542923 0.0385262 0.00587833
-0.0519828 0.0386968 0.0128931
-0.0418968 0.0392384 0.0308096
0.0262226 0.0453144 0.303137
0.0119241 0.0448622 0.297484
0.00223517 0.0445901 0.295805
-0.0120246 0.0442456 0.296825
-0.0176709 0.0441311 0.298606
-0.0280335 0.0439378 0.30292
-0.0401492 0.0437826 0.312393
-0.0466293 0.0437426 0.320153
-0.0513698 0.0437731 0.329572
-0.0546069 0.0438656 0.340487
-0.0554849 0.0440563 0.35381
-0.0510566 0.0444688 0.372609
-0.0379994 0.0362606 -0.400536
-0.0456873 0.0362075 -0.391331
-0.0506701 0.0362452 -0.381332
-0.0266124 0.0381414 -0.313266
0.0209782 0.0440951 -0.0553006
-0.023543 0.0428442 -0.0548282
-0.0362231 0.0426302 -0.0467307
-0.0453405 0.0425538 -0.0365689
-0.0515965 0.04259 -0.0246363
-0.0540574 0.0426825 -0.0155568
0.00394118 0.0481157 -0.0597716
-0.00481772 0.0478459 -0.0595697
-0.0125974 0.0476168 -0.0588539
-0.0542923 0.0475912 0.00587833
-0.0519828 0.0478019 0.0128931
-0.0418968 0.0484709 0.0308096
0.104829 0.0584994 0.306449
0.0988932 0.0584998 0.315867
0.0929575 0.0585001 0.325285
0.087024 0.0585006 0.334705
0.0810956 0.0585013 0.34413
0.0262226 0.0559766 0.303137
0.0119241 0.055418 0.297484
0.00223517 0.0550819 0.295805
-0.0120246 0.0546563 0.296825
-0.0176709 0.0545149 0.298606
-0.0280335 0.0542761 0.30292
-0.0401492 0.0540843 0.312393
-0.0466293 0.0540349 0.320153
-0.0513698 0.0540727 0.329572
-0.0546069 0.054187 0.340487
-0.0554849 0.0544225 0.35381
-0.0510566 0.0549321 0.372609
0.0157913 0.058505 0.447736
0.00689602 0.0585061 0.461876
0.000965953 0.0585068 0.471303
-0.00496471 0.0585075 0.48073
0.00679493 0.0451124 -0.415141
-0.007532 0.0446236 -0.415059
-0.0215133 0.0442289 -0.411171
-0.0306609 0.0440259 -0.406076
-0.0379994 0.0438944 -0.400536
-0.0456873 0.0438302 -0.391331
-0.0506701 0.0438758 -0.381332
-0.0536737 0.0440032 -0.370682
-0.0546209 0.0442171 -0.359289
-0.0539068 0.0444169 -0.351179
-0.051288 0.0446975 -0.342345
-0.043085 0.0453017 -0.327393
0.0209782 0.0533783 -0.0553006
-0.0553071 0.0518401 -0.00563258
0.0658355 0.0585031 0.110691
0.0604026 0.0585028 0.11928
0.0549697 0.0585025 0.12787
0.0468206 0.0585021 0.140754
0.0413944 0.0585021 0.149348
0.0359696 0.0585022 0.157943
0.0278326 0.0585023 0.170836
0.0224081 0.0585024 0.179431
0.0169833 0.0585025 0.188026
0.00884485 0.0585026 0.200918
0.00340652 0.058502 0.209502
-0.00203192 0.0585014 0.218086
-0.0101892 0.0585005 0.230962
-0.0156273 0.0584998 0.239545
-0.0210652 0.0584992 0.248129
-0.0292217 0.0584983 0.261004
-0.0346662 0.0584973 0.26958
-0.0401138 0.0584962 0.278153
-0.0482849 0.0584944 0.291013
-0.0537322 0.0584933 0.299586
-0.0591791 0.0584921 0.308158
-0.0673335 0.0584912 0.321031
-0.0727509 0.0584917 0.329631
-0.0781583 0.0584927 0.338241
-0.0862691 0.0584943 0.351158
-0.0916766 0.0584953 0.359769
-0.0970845 0.0584963 0.368381
-0.105196 0.0584979 0.3813
-0.108192 0.0586381 0.392529
-0.106924 0.0590272 0.408517
-0.104936 0.0593021 0.418081
-0.101567 0.0596589 0.429252
-0.0838357 0.0608577 0.456615
-0.0266124 0.050186 -0.313266
0.105449 0.0585051 -0.168424
0.100451 0.0585048 -0.160519
0.0929534 0.0585044 -0.148664
0.0879552 0.0585041 -0.14076
0.0804579 0.0585037 -0.128904
0.075459 0.0585034 -0.121001
0.0679597 0.0585029 -0.109146
0.0629605 0.0585026 -0.101243
0.0554614 0.058502 -0.0893893
0.0504622 0.0585017 -0.0814867
0.0429635 0.0585012 -0.069633
0.0379645 0.0585009 -0.0617307
-0.023543 0.0563739 -0.0548282
-0.0362231 0.0560923 -0.0467307
-0.0453405 0.0559918 -0.0365689
-0.0515965 0.0560394 -0.0246363
-0.0540574 0.0561612 -0.0155568
-0.0418968 0.0577035 0.0308096
-0.0295119 0.0584966 0.0449462
-0.0345092 0.0584963 0.0528481
-0.0420051 0.0584959 0.0647005
-0.0470021 0.0584956 0.0726022
-0.0544976 0.0584952 0.0844545
-0.061993 0.0584948 0.0963067
-0.0669899 0.0584945 0.104208
-0.0744853 0.0584941 0.11606
-0.0794821 0.0584938 0.123961
-0.0869685 0.0584939 0.135819
-0.0919586 0.058494 0.143726
-0.0994442 0.0584941 0.155586
-0.104434 0.0584942 0.163492
-0.107885 0.058583 0.172736
-0.107901 0.0588716 0.18504
-0.107918 0.059163 0.197466
-0.107927 0.0593098 0.203726
-0.107944 0.0596055 0.216338
-0.107953 0.0597545 0.222691
-0.10797 0.0600548 0.235494
-0.107988 0.060358 0.248426
-0.108006 0.0606643 0.261489
-0.108016 0.0608186 0.268069
-0.108036 0.0611295 0.281331
-0.108046 0.0612862 0.288013
-0.108067 0.0616019 0.30148
-0.108077 0.061761 0.308266
-0.108098 0.0620816 0.321943
-0.108108 0.0622432 0.328835
-0.108126 0.0625691 0.34273
-0.108145 0.0628984 0.356771
-0.108154 0.0630644 0.363847
0.00679493 0.052958 -0.415141
-0.0496206 0.0526542 -0.337767
-0.043085 0.0531803 -0.327393
0.0582129 0.0585028 -0.278112
0.0535907 0.0585028 -0.270791
0.046657 0.0585028 -0.25981
0.0420339 0.0585028 -0.252489
0.0350994 0.0585028 -0.241509
0.0281647 0.0585027 -0.230528
0.0212301 0.0585027 -0.219547
0.0166063 0.0585026 -0.212227
0.00966489 0.0585023 -0.201249
0.00272381 0.0585019 -0.190272
-0.00421739 0.0585015 -0.179294
-0.00884461 0.0585013 -0.171976
-0.0157857 0.0585009 -0.160999
-0.0227267 0.0585005 -0.150022
-0.0296675 0.0585001 -0.139045
-0.0342958 0.0584998 -0.131728
-0.0412382 0.0584994 -0.120752
-0.0481805 0.0584989 -0.109777
-0.0528088 0.0584986 -0.10246
-0.0597508 0.0584981 -0.0914844
-0.0666928 0.0584976 -0.0805094
-0.0736345 0.0584972 -0.0695345
-0.0782623 0.0584969 -0.062218
-0.0852041 0.0584964 -0.0512434
-0.0921457 0.0584959 -0.040269
-0.099087 0.0584955 -0.0292947
-0.103715 0.0584951 -0.0219787
-0.107631 0.0586692 -0.00891876
-0.107646 0.058937 0.00165713
-0.107661 0.0592073 0.01233
-0.107668 0.0593434 0.0177032
-0.107684 0.0596175 0.028524
-0.107699 0.059894 0.0394453
-0.107714 0.0601732 0.0504684
-0.10773 0.060455 0.0615947
-0.107746 0.0607394 0.0728258
-0.107762 0.0610265 0.0841629
-0.107778 0.0613163 0.0956078
-0.107794 0.0616089 0.107162
-0.107803 0.0617563 0.112981
-0.107819 0.0620531 0.124702
-0.107835 0.0623529 0.136536
-0.107852 0.0626555 0.148486
0.0734113 0.0584992 -0.461273
0.0669079 0.0584969 -0.45106
0.0605419 0.0585013 -0.440817
0.054067 0.0585003 -0.430598
0.047606 0.0585 -0.420376
0.0411452 0.0584998 -0.410154
-0.007532 0.0562645 -0.415059
-0.0215133 0.0557669 -0.411171
-0.0306609 0.0555109 -0.406076
-0.0379994 0.0553451 -0.400536
-0.0456873 0.0552641 -0.391331
-0.0506701 0.0553216 -0.381332
-0.0536737 0.0554823 -0.370682
-0.0546209 0.055752 -0.359289
-0.0539068 0.0560039 -0.351179
-0.0266124 0.0582158 -0.313266
-0.0256133 0.058497 -0.304534
-0.0320679 0.0584971 -0.294311
-0.0363712 0.0584971 -0.287496
-0.0428257 0.0584971 -0.277273
-0.0492808 0.0584971 -0.267051
-0.0557363 0.0584971 -0.256828
-0.0621921 0.0584971 -0.246606
-0.0686476 0.058497 -0.236383
-0.0751034 0.058497 -0.226161
-0.0815591 0.058497 -0.215938
-0.0880146 0.058497 -0.205716
-0.0944703 0.0584969 -0.195493
-0.100926 0.0584969 -0.185271
-0.107382 0.0584969 -0.175049
-0.107409 0.0587439 -0.165946
-0.107422 0.0589938 -0.156758
-0.107435 0.0592458 -0.147492
-0.107455 0.059628 -0.133443
-0.107468 0.0598855 -0.123975
-0.107482 0.0601452 -0.114426
-0.107496 0.0604072 -0.104794
-0.107509 0.0606715 -0.095077
-0.107523 0.0609382 -0.0852748
-0.107537 0.0612071 -0.0753862
-0.107551 0.0614785 -0.0654097
-0.107565 0.0617523 -0.0553445
-0.10758 0.0620285 -0.0451891
-0.107594 0.0623072 -0.0349427
0.0114237 0.0589799 -0.485054
0.00015676 0.0584994 -0.483699
-0.00387251 0.0584992 -0.477324
-0.0119309 0.0584989 -0.464574
-0.0179745 0.0584986 -0.455012
-0.0240182 0.0584984 -0.44545
-0.0300617 0.0584981 -0.435887
-0.0361054 0.0584979 -0.426325
-0.0421487 0.0584976 -0.416763
-0.048192 0.0584974 -0.407201
-0.0562507 0.058497 -0.394452
-0.0623051 0.0584961 -0.384894
-0.0683594 0.0584953 -0.375336
-0.0744132 0.0584944 -0.365778
-0.080467 0.0584935 -0.356221
-0.0865204 0.0584927 -0.346663
-0.0925717 0.058492 -0.337106
-0.100622 0.058492 -0.324356
-0.10666 0.058492 -0.314793
-0.107209 0.0586926 -0.307041
-0.107225 0.0590433 -0.29498
-0.107236 0.0592795 -0.286859
-0.107253 0.0596372 -0.274556
-0.107265 0.0598781 -0.26627
-0.107283 0.0602432 -0.253716
-0.107295 0.060489 -0.245261
-0.107307 0.0607368 -0.236737
-0.107326 0.0611124 -0.22382
-0.107338 0.0613654 -0.215119
-0.107351 0.0616205 -0.206345
-0.107364 0.0618777 -0.197499
-0.0217077 0.0611724 -0.484571
-0.0332041 0.0606434 -0.483416
-0.0473987 0.0600704 -0.479408
-0.0533268 0.0598477 -0.477199
-0.0625274 0.0595487 -0.472266
-0.0737078 0.059244 -0.464385
-0.0827862 0.059055 -0.456099
-0.0899285 0.0589743 -0.447389
-0.0971317 0.0589985 -0.4352
-0.101343 0.0590857 -0.42572
-0.104343 0.0592443 -0.415859
-0.106039 0.0594808 -0.40555
-0.107083 0.0597583 -0.394952
-0.107099 0.0600996 -0.383922
-0.10711 0.0603294 -0.376498
-0.107126 0.0606774 -0.365256
-0.107143 0.0610293 -0.353884
-0.107154 0.0612663 -0.346228
-0.107171 0.0616251 -0.334633
