ply
format ascii 1.0
comment Created by Open3D
element vertex 1578
property double x
property double y
property double z
end_header
-0.11623 -0.0701163 0.0314693
-0.0476463 0.0942037 0.0021513
0.0807365 0.147892 0.270088
0.00281219 -0.0360302 0.447956
-0.112746 -0.0467724 0.131582
0.025104 -0.0833781 0.443312
0.0873046 0.147892 0.418436
-0.0473272 0.00123435 0.00214547
-0.113683 -0.047816 -0.0101428
0.0526508 0.0263248 -0.000318077
-0.112174 0.116205 -0.142963
0.0152339 0.0568274 -0.445369
0.091747 0.0837624 -0.429428
0.0509351 0.0106139 -0.437931
-0.0546307 0.0851048 0.0100643
-0.0427632 0.147892 0.287558
0.038049 0.147892 0.277857
-0.0766233 0.147892 0.239504
-0.0313846 0.147892 -0.349534
-0.0978113 0.0255094 0.294214
-0.0167755 0.147892 -0.0858961
-0.0838488 -0.032732 -0.389119
-0.0711425 -0.0116672 -0.443959
-0.11653 0.0356751 0.0135605
-0.0792171 0.147892 0.326174
-0.0882061 -0.144355 -0.360974
-0.0837865 0.123286 0.389454
0.00166089 -0.119252 -0.413825
0.0627015 -0.0201798 -0.435479
-0.0710803 -0.0991243 -0.457632
0.0128882 0.0258077 -0.00883023
-0.0286729 0.147892 -0.439027
-0.047625 0.112905 -0.458464
0.0281513 -0.147892 -0.413589
-0.105246 0.00820516 -0.230435
-0.11319 0.00292855 0.122746
-0.101658 0.0979306 0.261558
-0.115582 -0.100602 -0.0701472
-0.00414224 -0.0268887 0.449405
-0.108627 -0.053513 -0.190156
-0.098817 0.14075 0.285676
-0.0611004 0.0801534 -0.461272
-0.113862 -0.10368 -0.109394
-0.104435 -0.112491 -0.237981
-0.0374651 -0.0363875 0.456348
0.0303164 0.147892 0.438185
0.0823472 -0.0338999 0.431387
0.0951803 -0.147892 -0.420799
-0.0680039 -0.0290485 -0.45936
0.0408775 0.111981 0.408222
0.0593689 0.147892 0.301689
0.0208379 0.147892 -0.0660198
-0.0154916 -0.0351619 -0.45177
-0.0844555 0.136035 -0.385664
0.0877883 0.0140524 0.398449
-0.0873385 -0.0547386 -0.366685
-0.10161 -0.056405 0.261965
-0.104569 -0.0675739 -0.236838
-0.112655 -0.0797405 -0.133387
0.0032817 0.0108073 0.447859
0.0303086 0.147892 -0.372328
0.0236575 0.147892 -0.3152
-0.108479 0.147892 0.0452267
0.049341 0.147892 0.00693191
-0.0452461 -0.0128451 -0.423384
-0.0925864 -0.0198791 0.332137
-0.0721244 -0.113799 0.452031
-0.00463935 0.0137146 0.449509
0.0702629 0.147892 0.318235
0.0214268 -0.0352738 -0.409797
-0.0416311 -0.0955241 0.00982673
0.05652 0.147892 -0.266594
-0.116197 -0.000196326 -0.0334512
-0.0828555 -0.093869 -0.394449
-0.111638 -0.0230232 0.153607
0.0488719 0.147892 -0.0622143
0.0400057 0.147892 0.136983
-0.0256657 -0.0759948 -0.453889
-0.0230994 -0.121026 0.421551
-0.115569 0.0933767 -0.0709193
0.0423496 -0.1099 -0.00829175
-0.00961121 0.147892 -0.322778
0.0563638 -0.10034 0.000250229
-0.113352 -0.026468 -0.119527
0.0611292 0.100654 -0.000163116
0.0613556 -0.0584538 0.00015899
0.0134137 -0.0702808 0.00103526
0.00305919 0.120853 0.00900989
-0.0189469 0.0418622 0.00162674
-0.0673502 -0.0426714 0.00251144
-0.0055714 0.0124476 -0.00138221
-0.116397 0.0881162 0.0215158
0.0109343 0.00132287 0.446264
0.0656494 0.147892 -0.295091
0.0731707 0.147892 0.135079
0.0886686 0.0165562 0.43007
-0.115542 -0.0465098 0.0725874
0.0746128 0.147892 -0.207614
-0.115044 0.0391617 -0.0858947
-0.103474 0.0235072 -0.00317159
-0.115684 0.076475 -0.0640845
0.0163567 0.147892 0.17325
0.0439451 0.138509 0.439387
-0.00349268 0.147892 0.274168
-0.0835418 0.0234861 0.00280739
0.0362412 0.0665477 0.000618025
-0.0546123 -0.0999847 -0.45992
0.111914 -0.0768166 0.425227
0.0914352 0.136171 0.287558
-0.107692 0.03165 0.201297
-0.110056 0.0754982 -0.173135
0.0140107 0.103741 0.41382
0.0968758 -0.135139 -0.394422
-0.116368 0.05933 0.0232402
0.0635799 0.147892 0.230915
0.0541553 0.147892 -0.0446266
-0.112774 -0.0606799 -0.131019
0.0793136 0.0837823 0.400215
-0.0106622 -0.0592027 -0.00147526
0.00632237 -0.0670287 -0.00895023
-0.107076 -0.144903 0.208633
-0.109586 0.0778091 -0.178741
0.0486065 0.0936659 0.0081774
0.00337895 0.0105766 0.00121867
-0.111304 -0.00625089 0.158268
-0.103533 0.0468151 0.245642
-0.0500265 -0.147892 -0.435032
-0.0762502 0.00227329 -0.0104595
0.0553147 0.147892 0.288726
-0.0602845 0.147892 -0.279252
-0.115737 0.0614593 0.0608865
-0.0300069 0.147892 -0.136861
0.0475358 0.0532587 -0.438639
-0.00817929 0.147892 -0.383215
0.0494516 0.128038 -0.00816194
-0.074596 -0.0327845 0.00264388
0.0467855 -0.147892 -0.421048
-0.0810575 0.10286 0.404097
0.034975 0.147892 -0.259539
0.000940442 -0.0367141 -0.0090486
0.0461369 0.147892 0.254085
-0.0875238 -0.105841 0.365465
-0.0445071 0.147892 -0.0992552
-0.0941647 0.0395231 0.0107869
0.0658591 0.0503021 -0.400743
0.0837544 0.147892 -0.306881
0.0371522 0.0111485 0.408998
0.0502739 0.147892 -0.247047
-0.092485 -0.147198 0.00297085
0.0912988 -0.107494 0.397718
-0.0685503 0.0772191 -0.462824
0.0496521 0.118446 0.438198
-0.106037 -0.101208 -0.221005
-0.0790333 0.0848333 0.414959
-0.10563 0.134877 -0.225862
0.0293606 -0.0776477 -0.442425
-0.0801343 -0.0419156 0.409051
0.0945218 -0.105091 -0.394902
-0.0905503 0.145484 -0.345541
-0.0931974 0.0737293 -0.328115
0.034398 0.147892 -0.132244
0.0100457 0.0954183 0.446449
-0.0224963 0.147892 0.377536
0.0791214 -0.0721948 0.432059
0.0290255 0.00909036 0.00853529
-0.0354667 0.0623985 -0.421391
0.0267569 0.147892 -0.308123
-0.0334437 -0.00139041 0.423706
0.0684522 0.147892 0.21005
-0.0246943 -0.109581 -0.453687
0.0410807 0.100233 -0.000529547
-0.0848454 -0.0495638 0.0106166
0.0369612 0.147892 0.155395
0.112864 -0.0513729 0.425029
-0.0174753 0.147892 -0.0698316
-0.102458 0.147892 -0.157821
0.02022 0.147892 -0.362624
0.112945 0.0361273 0.425012
-0.0733446 0.00957409 -0.433153
0.0337267 0.0228821 0.000663984
0.0254515 0.147892 -0.0515221
-0.028531 -0.0576779 -0.454486
-0.0270733 -0.0637188 0.00956065
-0.0904188 0.147892 0.340647
-0.0776444 -0.141113 -0.0104849
-0.0953368 0.013638 -0.314031
-0.105382 0.0725647 0.228814
0.0701414 0.10534 -0.00477911
-0.0106234 0.0119087 0.450756
-0.115711 -0.101293 0.0624959
0.0960381 -0.110163 -0.394593
-0.0703789 0.147892 -0.221641
0.0700904 0.0160071 -0.0019893
0.0491862 -0.0794521 0.0081668
-0.102324 0.132325 -0.00938681
-0.0539493 0.121825 -0.425157
-0.0333013 0.115638 -0.45548
-0.10106 -0.0876761 -0.266636
0.0245343 0.147892 -0.135526
-0.0637287 0.0487149 0.00244525
0.0672554 -0.147892 -0.43236
0.115133 0.131374 0.416422
-0.091163 0.0737759 0.341508
-0.106687 -0.0611913 -0.0110158
0.083221 -0.071947 -0.397205
-0.0125599 0.147892 -0.262829
-0.0821626 0.0116967 0.398167
-0.085445 0.0710898 0.379151
0.0271451 0.0537253 -0.00856965
0.0124847 0.0907935 0.445941
0.111849 -0.0566321 0.400657
-0.0930276 0.0819781 -0.329233
-0.0858295 0.0660998 -0.376619
-0.0691378 0.0648483 0.00254411
-0.061917 -0.147892 0.453117
0.111822 -0.138937 -0.399997
0.0254351 -0.0858918 0.443243
-0.0880482 0.0584347 -0.362013
-0.0130295 -0.00355986 0.00151858
-0.00316446 0.0772055 0.449202
0.0534476 -0.111726 -0.000303515
-0.11558 -0.00732242 -0.0703045
-0.112255 0.0388054 0.141351
-0.115868 0.0573661 -0.0530675
-0.0966581 0.0113255 -0.0108325
0.000727664 -0.0242469 -0.00905249
0.0452195 0.0636771 0.407318
0.0207904 0.147892 -0.303642
-0.115808 -0.000182003 0.0566473
0.0681761 0.131267 -0.40027
0.0893108 0.0201487 -0.429936
0.0442112 0.147892 -0.198378
-0.0762577 -0.075571 -0.429852
-0.0799962 0.147892 0.0269976
-0.116189 -0.028169 -0.0339336
0.0530706 0.147892 -0.205923
0.0808289 0.141128 -0.203172
-0.0788995 -0.0595123 0.415677
-0.110873 -0.0349119 -0.16341
0.0700684 -0.0166143 0.00078989
-0.0425864 0.0345449 -0.00205874
0.0863008 -0.0855601 -0.430563
-0.035839 0.0536855 -0.00193542
-0.0838289 0.0985297 -0.389226
0.0200731 0.0570152 0.000913542
0.077398 0.140048 0.16573
-0.100326 -0.00850994 0.272867
-0.110852 -0.064481 -0.163658
-0.115068 0.0799454 0.0854101
0.0699736 0.059044 0.402161
-0.00962657 0.0540937 -0.00924174
0.0131019 0.0466488 0.445813
-0.0177133 -0.0268903 0.452233
-0.0734513 0.0798136 -0.429132
0.0604194 -0.0867257 -0.401851
-0.0984173 -0.10536 -0.289069
-0.0341645 -0.0348992 0.00190488
-0.0618088 0.147892 0.270176
0.057136 0.0791372 -0.40252
0.00266775 -0.0684612 0.447987
0.0698202 -0.011564 4.27667e-06
-0.0815386 -0.00267331 -0.401516
0.0860754 0.123693 0.43061
0.0920546 -0.0534337 -0.429364
0.115344 -0.0954585 -0.417286
-0.113868 -0.127699 -0.109275
0.11386 -0.000810757 -0.409999
-0.079663 -0.00801822 -0.0105218
0.0159203 -0.0891867 0.445226
-0.0916292 0.0745273 -0.0029551
-0.116619 -0.0948773 0.00823067
-0.0246482 0.0421142 -0.419186
-0.0222542 0.147892 -0.351153
0.0251207 -0.0410706 -0.443309
0.025241 -0.0857525 0.00860446
-0.0975425 -0.0153825 -0.296496
0.0813124 -0.138605 -0.397593
0.00283968 0.147892 0.0504871
-0.0897147 0.0771683 -0.351042
0.080814 0.0760595 -0.431706
-0.072295 -0.036834 -0.428896
0.0159789 0.0435676 -0.000988336
-0.113771 -0.0186874 0.111209
0.0104527 -0.0684404 0.00887476
-0.0742108 0.0681349 0.440835
0.0357189 -0.147892 0.414864
-0.0139093 0.00596684 -0.416998
0.10006 0.135522 -0.339522
-0.0297381 0.147892 0.256979
-0.0834566 -0.129774 0.391224
-0.113293 0.0227075 -0.120708
-0.116511 -0.0612329 -0.0146962
-0.0419292 0.00648581 0.0020468
-0.0479757 -0.02622 0.00215732
0.0689257 0.147892 -0.186976
-0.0999852 -0.117104 0.275759
-0.0559534 -0.138004 0.0100885
-0.110848 -0.0892308 -0.163702
-0.0223707 -0.0922108 0.00168932
0.0172177 0.110905 0.444955
-0.108462 0.0425317 -0.00326277
-0.110904 0.0560726 -0.163043
0.0441418 -0.118124 -0.000473597
-0.0865067 0.147892 0.276873
-0.0537565 0.147892 0.139048
0.0989998 0.139173 0.333134
-0.0555111 0.0211053 0.0100804
0.0497624 -0.112217 -0.00815626
-0.070444 -0.0286188 0.461047
0.0713861 0.0923909 0.401866
0.0257719 -0.106895 0.443173
-0.112248 -0.0915835 0.141488
-0.105497 -0.0437224 0.227436
0.058987 0.147892 0.232686
-0.107762 -0.0443634 0.200465
-0.0136778 0.0550189 -0.416951
0.0781435 0.147892 0.289145
0.112534 -0.034286 -0.403494
-0.114008 -0.00705654 0.00336424
0.0234129 -0.0156571 0.00863788
-0.107087 -0.147892 0.0107433
0.0051395 -0.0689166 0.415668
-0.0543714 -0.0516417 0.00227422
-0.0712019 -0.0357548 -0.443667
-0.00188962 -0.0986679 0.00131497
-0.0842837 -0.00608082 -0.386786
-0.0639006 -0.115211 -0.0102337
-0.110131 0.0579649 -0.00329326
-0.0552818 -0.100607 0.460059
-0.112287 0.129416 -0.140717
-0.00684065 -0.0494501 -0.00919082
0.0723766 0.147892 -0.303011
0.0075841 0.0919635 0.00114181
-0.0883209 0.0913488 0.360218
-0.112837 -0.104932 -0.129773
-0.0120121 -0.0533475 -0.00928534
0.0198574 0.0440253 -0.00870285
-0.0991679 0.147892 -0.119711
0.0468287 0.147892 0.117503
0.038133 0.111392 0.000583446
-0.108261 0.115254 -0.194513
-0.0340201 -0.147892 -0.0046124
-0.114839 -0.114452 -0.0899697
-0.0497388 0.147892 0.214658
-0.0141201 0.0295064 0.41968
0.0943975 -0.0841815 -0.428876
0.0254582 0.0699251 0.00860049
-0.0878408 -0.0785582 0.363378
0.035516 0.0993774 0.409339
0.0294262 -0.0969956 -0.00852795
-0.00668871 0.0919027 0.00140269
-0.0746687 -0.0078606 0.438378
-0.0204039 -0.0956699 0.00165337
-0.0762521 -0.0179149 -0.0104595
-0.0050081 -0.0961034 -0.449586
-0.0705112 -0.117965 -0.460686
-0.087227 0.0321898 -0.367419
-0.104562 -0.04506 0.236903
0.00852038 0.147892 -0.206634
0.0628965 0.0881103 -0.000130814
0.0435578 0.0357584 0.439468
-0.112246 0.0947106 -0.141524
0.00146304 -0.0477607 -0.00125364
-0.116454 0.125505 -0.0180684
0.0210185 -0.117041 -0.00868163
0.103486 -0.147892 -0.402188
-0.116326 0.140515 -0.0257322
0.030855 -0.00969424 -0.000716442
-0.0458903 -0.14769 -0.458103
-0.0993839 -0.124457 0.0108823
-0.0735733 -0.136819 -0.429156
0.0449469 -0.113243 -0.00824428
0.0568015 -0.147553 -0.402588
-0.0545532 0.104038 -0.42528
-0.0765376 0.0170366 0.42835
-0.100151 0.0947721 0.27435
0.109593 -0.111313 0.393907
-0.112352 0.000712067 0.13942
-0.0384183 0.0338929 -0.421992
-0.0247081 -0.00544875 -0.419199
0.100178 -0.0815075 -0.427672
0.109102 0.105371 -0.391931
-0.0118083 -0.124369 0.451002
-0.0448648 -0.131662 0.457889
-0.062843 0.147892 0.399486
0.102447 -0.107776 0.395395
-0.111612 -0.00663423 0.154137
-0.115603 0.109502 -0.0689335
-0.0410467 0.0776838 0.00203067
-0.0772866 -0.105316 -0.424331
-0.0765693 0.147892 0.271307
0.00588749 -0.10635 0.0089582
-0.0177617 -0.12424 -0.00160502
0.0207326 -0.00427533 0.412419
-0.114482 0.0863219 -0.097067
-0.0205927 -0.126855 -0.00944217
0.0545691 -0.110627 -0.000283016
0.0554217 -0.0480954 0.000267448
-0.072485 -0.0423178 0.0103907
0.0934536 -0.0534424 0.429073
-0.0062976 0.106595 -0.449854
-0.0896229 -0.0424575 0.351647
-0.102572 0.0306158 -0.253799
0.025465 0.147892 0.367902
-0.0570259 -0.0686721 0.428619
-0.101504 -0.114359 0.262862
-0.0588782 0.0599438 0.429005
-0.113537 -0.129387 -0.11586
-0.0910234 -0.00258678 -0.342427
0.0501234 0.0122623 0.4381
-0.0723398 0.0422859 -0.450875
0.0547738 0.0743325 0.437131
-0.105325 -0.0686394 0.229496
0.0923009 0.0453995 0.429313
0.112317 -0.0224161 0.402907
-0.00816971 0.147892 0.177731
0.00434524 0.00582513 0.00898639
-0.0238951 0.132325 0.0043849
-0.116494 -0.141864 -0.0156834
-0.0945583 -0.0262203 0.319156
-0.0730691 -0.128974 0.0104013
0.0225026 0.117223 0.443854
0.114126 0.0147751 -0.411304
0.0341382 -0.0656482 -0.44143
0.0190878 0.0453431 -0.00871691
-0.0938227 0.140082 0.323998
0.00178668 0.147892 0.422478
0.115835 -0.0931699 -0.419692
-0.0990537 0.147892 -0.269411
-0.0872879 0.107507 -0.367018
-0.00463523 -0.121201 0.00915053
-0.017118 0.147892 0.000277511
0.0310086 0.126161 -0.407845
-0.0992012 0.0235964 -0.282414
-0.0807581 -0.0175764 0.0105419
-0.0875207 -0.0433847 0.365486
-0.0940156 -0.145143 0.0107842
-0.106955 0.00302535 0.210069
0.111353 -0.12986 0.398279
0.113819 -0.0269809 0.410116
-0.113389 0.0545276 -0.118792
0.0817534 0.147892 0.397773
0.101384 0.147892 0.421424
-0.0637449 -0.00441717 0.0102309
-0.083842 -0.115375 0.389156
-0.0197093 0.147892 -0.0503904
-0.0729052 0.142513 0.447841
-0.0858673 0.0338474 0.37637
-0.0833182 -0.10854 0.0028033
-0.0465989 0.0984231 -0.00213208
-0.0659359 0.132325 -0.0090158
-0.112682 -0.0982748 -0.132857
-0.0636032 -0.144369 0.0102283
0.0150691 -0.0574058 0.00879038
-0.116412 -0.0472776 -0.0206205
-0.113706 -0.0832024 0.112493
-0.0598902 0.0323579 -0.461019
0.0575151 0.0698404 0.000229187
-0.0110389 0.102251 -0.450842
-0.0993851 0.0505809 -0.280853
-0.0221529 0.041145 0.00947071
-0.0997552 -0.00987867 0.277711
0.0341285 0.147892 0.163517
-0.0633377 0.147892 -0.297778
0.00180538 0.147892 0.195274
0.07933 0.147892 0.409334
-0.0259417 0.112084 -0.41945
-0.0107832 -0.0934581 -0.00926288
0.114015 -0.0222066 -0.424789
0.0219968 0.147892 0.198462
-0.010773 -0.142287 0.00147734
0.0016081 -0.125484 0.448207
-0.0765866 0.147892 -0.00284848
0.0333464 0.0228313 0.441595
0.0633682 -0.00436231 0.00790759
-0.0182652 0.0192236 0.00939965
-0.00763987 0.0137671 -0.450134
-0.112874 -0.0709881 0.129035
-0.0851478 0.147892 0.29527
0.0284912 -0.113664 -0.00854504
-0.0934983 0.0755193 -0.326134
0.0435378 0.0956149 0.407668
-0.105915 0.0673873 0.222468
-0.113598 0.070099 -0.114636
0.0511084 0.0261319 -0.000346268
0.00342715 -0.123297 -0.00900315
-0.0583195 0.128477 0.460692
-0.0864644 0.115347 -0.372439
0.00962043 -0.0575542 -0.00888995
0.0408954 -0.0791146 -0.000532932
0.113421 -0.142705 -0.407848
-0.0796785 0.109385 -0.00273668
-0.0955423 0.0547613 -0.312678
-0.073364 0.130604 -0.445379
0.0357701 0.000235368 0.000626636
-0.101051 0.0828928 0.266712
-0.112076 0.0474426 -0.14491
-0.116357 0.105515 0.0238893
0.10832 0.147173 -0.382812
0.0460643 -0.113138 -0.404776
-0.0486173 0.132325 0.00451819
0.0435575 0.104946 -0.000484276
-0.0254397 0.0519185 -0.419348
0.0175443 -0.10289 -0.410588
-0.091407 0.0995095 -0.339901
0.116209 -0.0117943 -0.421528
-0.111017 0.106616 0.00330956
0.0459715 0.103846 -0.438965
-0.0785556 0.101935 0.417522
-0.0981606 -0.0120883 0.291249
-0.112846 -0.108681 -0.129596
-0.0864534 0.137413 0.372512
-0.103646 0.0982902 -0.244679
0.0328715 0.147892 -0.340957
-0.10376 -0.0495342 -0.243714
0.103233 0.147892 -0.394483
-0.0953044 -0.0634833 0.314244
-0.075226 -0.133024 0.435388
-0.115634 -5.44265e-05 0.0670901
-0.115992 0.0111008 0.0457023
-0.0175078 -0.042823 0.00160043
-0.0737741 -0.00636007 -0.0104142
-0.0600525 0.147892 -0.0932563
-0.0407735 0.147892 0.15316
-0.101719 0.0163585 -0.261035
0.0365199 0.123411 -0.0083983
0.040024 0.147892 0.394937
-0.0921348 0.0727803 -0.0107498
-0.0978447 -0.121003 -0.293931
-0.104822 -0.0514917 -0.234696
0.0806338 0.123107 -0.431744
-0.020235 0.034706 0.00943566
-0.0786004 -0.0316517 -0.417281
-0.00476864 0.147892 -0.101955
-0.0877716 0.132649 0.363834
-0.0986666 -0.0962518 -0.286953
-0.0461675 0.0779556 0.426357
0.00985368 0.0607836 0.00110033
0.00258006 0.0521108 0.416201
0.000581048 -0.136002 0.00126981
-0.06471 -0.0765384 0.0102486
0.00217679 0.147892 -0.447067
0.0151247 -0.0962302 -0.00100395
-0.0834913 0.112375 -0.391038
0.0642499 -0.0636448 -0.000106079
-0.115548 -0.0354077 -0.0722178
-0.0960172 -0.0560177 -0.309446
0.0293478 0.0508723 -0.000743989
-0.0783905 0.147892 -0.222259
-0.0495742 0.130205 -0.00218646
-0.00595583 0.122412 -0.415377
-0.0134816 0.147892 -0.272753
-0.00973381 0.147892 -0.408785
0.0213226 0.00735169 0.000890702
0.0429376 0.017311 0.00828101
-0.0521484 0.00588575 0.427603
-0.0975959 0.147892 0.252479
-0.0985934 0.0012459 0.0108679
0.116681 0.0160473 -0.423843
-0.0892612 0.102803 0.354027
-0.107433 -0.0341846 0.204376
-0.111691 -0.0180913 -0.152559
0.0471216 0.147892 0.402998
-0.0865327 -0.00735708 0.00286205
-0.0704844 0.0699416 0.46083
0.00387032 -0.0402158 -0.447736
0.0524763 0.147892 -0.399681
-0.110995 0.052724 -0.16195
0.0700732 -0.136683 0.00105079
0.0356234 0.147892 -0.113487
-0.111999 -0.132886 0.146442
-0.0549547 -0.0677693 0.459991
-0.0955624 -0.0263222 0.0108125
-0.0204251 0.111665 -0.418326
-0.0980777 0.000642192 -0.0108584
0.0061145 -0.0729804 0.00116867
-0.113412 0.04453 0.118345
0.0330775 -0.0314882 -0.441651
0.110229 0.138032 0.392184
-0.0844312 0.0124913 -0.385824
0.0960227 0.10284 -0.428538
-0.114304 0.0949418 -0.10061
-0.116736 0.0710072 -0.00126235
-0.0702669 0.021587 -0.428483
-0.0161298 0.147892 0.393902
0.0132134 0.0636972 0.0088243
-0.0227683 0.0176742 -0.418803
-0.00632386 -0.119775 0.44986
0.0982557 -0.105398 0.428072
0.00161306 -0.000379316 -0.00903631
0.0328584 -0.056958 -0.00846522
0.0429281 -0.147892 0.411382
-0.115349 0.114415 0.0798198
-0.0814341 -0.0797086 -0.402076
-0.115443 -0.0627785 -0.0779576
-0.0507716 -0.147892 0.440324
0.0157362 -0.000119044 -0.000992771
-0.10485 0.0543599 0.234458
-0.046762 -0.107531 0.426481
-0.111464 -0.0178949 -0.156367
0.036909 0.147892 -0.166829
-0.111769 -0.029585 -0.15102
0.114914 0.146082 0.415173
-0.0352287 0.12948 -0.00192426
-0.0952315 -0.108211 0.314724
-0.0989667 -0.0380137 0.284405
0.0648094 0.0665684 0.403237
0.00531667 0.147892 0.362881
0.111785 -0.1316 -0.399816
0.053851 -0.0307488 -0.437323
-0.0445315 -0.0589721 0.45782
-0.108182 0.123334 -0.195462
0.0500405 0.147892 0.415494
0.00456476 -0.00396616 -0.00898236
0.00915305 -0.0278638 -0.0088985
-0.0635666 -0.128919 0.00244228
0.104057 -0.0181195 -0.426864
-0.0133673 0.147892 0.391617
0.0228394 -0.0973375 -0.409509
0.0271488 -0.027323 -0.00856958
0.093864 0.147892 -0.396885
0.0773436 0.0747503 0.432429
0.0144514 0.0121955 -0.00880166
0.0396967 -0.132439 -0.000554841
-0.116528 0.0501497 -0.0136462
-0.00758673 0.0436123 -0.41571
0.0948682 0.147892 0.3926
-0.0588056 0.103135 0.0101406
-0.0135637 0.147892 0.154976
-0.0877215 0.124181 0.364164
-0.109807 0.0261817 0.00328745
-0.0109034 -0.0223075 0.450814
0.0126805 0.0299279 -0.411579
0.0273195 -0.106236 0.000781092
0.0598255 0.147892 0.171668
-0.115652 0.0743825 0.066017
-0.0596129 -0.106289 -0.426312
0.0457994 -0.0370731 -0.00822869
0.106179 -0.0565326 -0.426422
0.0167488 -0.0461475 -0.000974263
0.0871144 -0.134448 -0.430394
-0.110299 0.147892 -0.0419916
-0.11576 0.137111 -0.0595698
0.0632487 0.00745854 0.403562
-0.0221102 0.147892 -0.10905
-0.0765315 -0.0263284 0.00267925
0.0557324 0.147892 -0.186428
0.0415841 0.102918 -0.000520346
0.110677 -0.0710932 0.395033
0.0203573 -0.0667539 -0.444301
0.0345287 0.0703636 -0.407127
-0.115248 0.0782856 0.0818253
0.101903 0.132512 -0.350623
0.0193197 0.116769 -0.000927274
-0.0681297 0.147892 0.416883
0.0669479 0.147892 0.320128
0.00838381 0.147892 0.124916
0.0471661 0.0739569 0.000418342
-0.0913121 0.0645604 0.340526
-0.0530014 0.147892 0.408309
-0.0841656 0.0817505 -0.387419
-0.0664543 -0.0224049 -0.462387
-0.111768 0.113441 0.15103
-0.116502 -0.130805 -0.0152232
-0.11358 0.147892 0.049503
-0.10283 0.0599453 0.251606
-0.0553349 -0.0610343 -0.00229175
-0.114352 -0.00898336 0.0996527
0.0382826 0.00323802 -0.440567
0.0962017 -0.0548834 0.396696
-0.00287624 -0.0415325 0.001333
-0.114729 -0.147386 0.00337741
-0.0915023 -0.140503 -0.00295279
-0.0863361 -0.0659782 -0.0106438
-0.113325 -0.141229 -0.120078
-0.0761789 0.147892 0.340675
-0.107842 -0.0471887 -0.199505
-0.0716158 -0.144783 -0.441636
-0.0988947 -0.0332828 0.285016
0.0956419 0.147892 -0.361855
0.114993 0.0187829 0.424586
-0.0534287 -0.0562393 0.42787
-0.00971106 -0.047898 0.418762
0.0498423 -0.0943229 0.406355
-0.0842831 -0.000210088 0.386789
0.0496288 0.0192147 0.438203
0.0208699 0.147892 -0.0636714
-0.0308094 0.0160719 0.00184356
-0.0829883 0.127638 -0.00279717
-0.104211 -0.0895443 -0.239884
-0.112592 0.0903198 0.134643
0.0831871 -0.147892 0.410716
-0.0975483 0.0276315 0.0108488
0.0187561 -0.145735 -0.444635
-0.113785 0.0813907 -0.00458758
-0.115249 0.0822411 0.00435115
0.100467 0.147892 -0.418042
-0.0140288 -0.0331927 -0.451465
0.104916 0.141091 -0.366107
-0.0820435 0.121731 -0.398806
0.0607127 0.126934 0.435894
-0.10678 0.0572345 -0.212159
0.0232557 0.0109521 0.00864075
-0.0501917 0.147892 -0.215317
-0.110745 0.0256521 -0.164936
-0.0749157 0.147892 -0.0578323
-0.0668286 0.147892 0.125153
0.00777717 -0.1015 0.00892366
-0.0880036 -0.111646 0.0106743
-0.0403699 -0.0228847 0.456953
0.111636 -0.145926 0.399638
-0.0756204 -0.0687811 -0.433272
0.0612653 0.107264 0.000160641
0.0514627 -0.00489367 0.406017
-0.0842734 0.147892 -0.109811
-0.0139666 0.147892 -0.34509
-0.0723537 -0.0227868 -0.4508
0.0159939 0.147892 0.016186
0.0967493 0.147892 0.403833
0.0878839 -0.0418981 -0.430233
0.0273123 -0.120383 0.00856661
-0.0125243 0.0556964 -0.00150929
-0.0243656 0.129798 0.453618
-0.109481 -0.118198 -0.00328139
-0.0235394 0.0870544 0.453446
-0.116604 -0.0866376 0.0091296
0.0184427 0.0614716 -0.410405
0.0106333 0.147892 0.30497
-0.0695992 -0.00641367 -0.451532
-0.1137 0.0889443 -0.00926287
0.0676054 -0.059868 -4.47508e-05
0.0606274 -0.0994192 -0.401809
0.0882598 0.146461 -0.263883
-0.0535784 -0.0953652 -0.459704
-0.112498 0.129423 0.00333664
0.0175675 0.147892 0.0307959
-0.0714878 -0.146303 0.455446
-0.114185 -0.0184751 0.102976
-0.0696636 0.127233 -0.451216
-0.116 0.0229066 0.045237
-0.0282873 -0.116743 0.454436
-0.107235 0.0759507 0.20674
-0.0927258 0.147892 0.194866
0.0963211 -0.029349 0.396672
0.0701847 0.13857 -0.00714976
-0.0980564 0.135944 -0.292133
0.0116623 -0.0683316 0.00885265
-0.102213 0.147892 -0.0805046
-0.0927676 -0.0242187 0.330944
-0.0670924 0.0425956 -0.427836
-0.0706812 -0.0464705 -0.446222
-0.0677137 0.00887123 -0.460784
-0.0711012 0.0212515 -0.00257991
-0.085382 0.147892 0.100092
-0.0477471 -0.116232 -0.45849
0.0136772 0.147892 0.0854987
0.0639668 0.0390043 0.403412
0.0658854 -0.145099 -0.434816
-0.113679 -0.109925 -0.010386
-0.0705665 -0.0774821 0.46039
-0.00884651 0.0396831 -0.00922748
-0.114171 -0.140312 -0.103253
-0.0815084 0.113998 -0.401678
-0.115693 0.0985212 0.0635215
-0.0787392 -0.108781 0.010505
-0.0181685 -0.0330783 0.00939789
-0.112649 -0.0526864 0.133506
-0.046097 0.0678023 -0.00990833
0.0121121 0.0205406 -0.411695
-0.00870922 0.0508224 -0.450357
-0.0367882 0.147892 -0.317004
0.0490736 0.0217827 -0.404163
0.067242 -0.14782 0.40273
0.0489242 -0.00930443 0.406546
-0.116627 -0.144767 -0.00778664
0.0158862 -0.142909 0.445233
0.0211118 0.0239575 -0.444144
0.105302 -0.00230929 0.394801
0.0152822 0.0750619 -0.411049
0.0871848 0.134079 0.255525
-0.0050305 -0.145397 0.00915775
-0.0255292 0.0293399 -0.453861
-0.0686321 -0.0222144 -0.428149
0.0484541 0.147892 -0.110968
0.0935016 0.0367986 0.429063
-0.00228177 0.03646 0.449018
-0.00361175 -0.0411536 0.00913182
0.0187667 0.147892 -0.149889
-0.0748733 -0.00197633 0.43728
0.08217 -0.147892 0.400728
-0.0918826 0.0976653 0.336771
-0.103498 0.0504722 0.245938
0.051017 -0.0787414 -0.403767
0.00806024 -0.0323695 0.415059
-0.102552 0.0765137 -0.25397
-0.109992 0.142284 0.173905
-0.00998193 -0.0686437 0.418818
-0.00804363 -0.00130892 -0.450218
-0.0715805 0.147892 0.0158111
-0.0406295 0.0910221 -0.00202298
-0.0614372 0.147892 -0.323791
0.0670928 -0.063151 -5.41185e-05
-0.0168464 0.147892 -0.131691
-0.0695777 0.147892 0.257287
-0.0549712 -0.0513599 0.459995
-0.104223 0.0754121 -0.239782
-0.00468317 -0.122315 -0.00915139
-0.110194 -0.135254 -0.171492
0.105715 0.00728627 -0.426518
-0.113038 0.0456273 -0.125782
-0.0649274 -0.0130044 -0.0102525
0.0701715 0.0517896 -0.00642788
0.00803293 -0.00092026 0.00113361
-0.0823682 -0.0775581 -0.397064
0.0519771 -0.0276318 -0.403572
-0.0971655 -0.0697725 0.0030564
0.00756977 0.0603283 -0.00114203
-0.0974147 0.147892 -0.293832
-0.102991 0.0459316 -0.250237
-0.0190814 -0.0603593 -0.452518
0.0360736 -0.0869251 0.441027
-0.113127 0.0318901 0.124013
-0.0979725 0.130279 -0.292845
0.0742958 0.0182617 0.433064
-0.00952404 0.0631331 0.418723
-0.101555 -0.123589 0.262435
0.0546225 0.117667 -0.00028204
-0.0736808 0.147892 -0.385806
0.0941043 -0.105904 -0.428937
0.0779994 -0.128699 -0.398269
-0.0750821 0.0218815 0.43616
0.0142209 -0.0216578 -0.411266
0.00227104 0.147892 -0.1387
-0.0260979 0.147892 -0.0528672
-0.085464 -0.079631 0.379025
0.0773459 0.147892 -0.420133
-0.0773278 -0.109307 -0.42411
0.108964 0.0238655 0.394038
0.114281 -0.0539284 0.412334
-0.094571 -0.10431 -0.319072
0.101055 -0.113636 0.427489
-0.116194 0.022023 -0.0336211
-0.0740091 0.0465493 -0.429892
-0.0136803 0.00220741 -0.00931583
-0.113943 0.0157935 0.107783
0.0428295 -0.0444587 0.00828299
0.0732752 -0.0117679 0.433277
-0.0624644 0.0860549 0.429752
0.100628 -0.0240701 0.395774
-0.0679547 -0.126412 -0.459602
-0.0518162 0.147892 0.426223
-0.029615 0.147892 0.378829
0.00870626 -0.132028 -0.00112126
0.00555988 -0.114112 -0.00896417
-0.110716 0.0582338 -0.165272
0.0479418 -0.0235493 0.00818955
0.00698505 0.147892 -0.411747
-0.099677 -0.0773632 0.278375
-0.116248 -0.00684508 0.0304269
0.0327657 0.111796 0.409912
0.00960017 0.121579 0.446542
-0.00246489 0.0855467 -0.00132544
-0.115636 0.142973 -0.0669459
-0.106735 0.115877 0.21269
-0.107755 0.125276 -0.200546
-0.0591753 -0.139631 -0.426222
-0.00276515 -0.00162476 -0.00911633
-0.0975005 -0.0516681 0.296853
0.0665466 -0.106116 -0.400603
-0.102091 0.000925876 0.25788
0.107146 -0.0515226 -0.392329
-0.041524 0.147892 -0.195048
-0.100539 -0.100833 -0.271057
-0.10829 0.0514105 0.0110451
-0.097115 0.0500089 0.300126
0.0669784 -0.0914678 0.434588
-0.116636 -0.141142 -0.00722052
0.0896238 0.147892 -0.337375
0.0976086 -0.0197248 -0.428207
0.0584842 0.147892 0.347178
0.0666637 -0.125546 -0.434654
0.032556 -0.0457063 -0.407529
0.098557 -0.00572183 0.396206
-0.116717 0.0608448 -0.00241472
-0.106245 0.0122877 -0.218538
-0.098648 -0.124696 -0.287111
-0.00490997 0.147892 0.370493
-0.0677408 -0.139814 -0.460651
-0.038636 -0.00629301 -0.00198654
-0.100747 -0.00698789 -0.269289
-0.115145 0.0172975 0.0838857
-0.101967 -0.137015 -0.258935
0.0956026 -0.117827 0.428625
-0.0669444 -0.00366245 -0.00250394
0.0088448 -0.0892619 -0.00890413
-0.105555 -0.146022 0.226749
0.00638118 0.147892 0.256279
0.0717618 -0.0437287 0.433592
0.0956619 0.147892 0.401537
-0.0653526 0.147892 0.0934211
-0.00594579 0.0210613 -0.449781
-0.0802535 0.147892 -0.194811
-0.0930391 -0.0627688 -0.00298087
-0.0581146 0.0507567 -0.460649
-0.0534742 -0.0572166 0.00225782
0.0953666 0.142202 -0.311244
-0.0459027 0.147892 -0.169142
-0.0873639 -0.095954 -0.366518
-0.100631 0.147429 -0.270275
0.023642 -0.100669 0.00863369
-0.0298298 0.147892 0.178298
-0.0820493 -0.104759 -0.398775
0.00060755 0.0205482 -0.00905469
-0.0777099 0.136729 -0.42206
0.0520714 0.147892 -0.169098
-0.105074 0.0771136 0.232481
-0.0681286 0.147892 -0.334751
-0.11569 -0.0075791 0.0637265
-0.111765 0.11894 0.151097
0.0366264 0.029153 0.440912
-0.107915 0.0732757 -0.198643
0.0458588 0.106111 0.407185
-0.11207 0.0034318 0.145028
-0.0791047 -0.0179997 0.414575
0.115805 0.141334 0.419547
-0.0910561 0.0184236 -0.342212
-0.0866005 0.109179 -0.371544
-0.0982781 -0.0142997 0.0108621
0.11257 -0.0758416 -0.403669
-0.0521329 -0.00112298 -0.459403
-0.00272703 0.101844 -0.414719
0.021592 0.0713136 0.00867116
-0.116534 0.0781485 -0.0133417
0.104041 -0.0686838 0.426867
-0.11632 -0.0313846 -0.0260703
0.0885998 -0.113955 0.39828
0.0722442 -0.0528397 -0.399441
-0.0812954 0.102567 -0.00276623
-0.109941 0.103129 0.174505
-0.084385 0.126505 -0.386128
-0.0160522 0.0468229 -0.00935918
0.0329054 -0.0329227 0.000678996
-0.10522 0.128218 0.230741
-0.0901642 -0.118578 0.348083
-0.109427 0.147892 -0.101436
-0.0942684 0.115806 0.321064
-0.0533287 0.100325 0.00225516
-0.114747 0.0198182 0.091787
-0.0753406 0.147892 0.0607728
-0.108134 0.100097 -0.0110422
-0.0330484 -0.00670243 -0.00188441
-0.0864534 0.00683883 0.372512
-0.10892 -0.126348 -0.186665
0.0813901 0.147892 0.23676
-0.0358757 0.0307686 -0.00972151
-0.0307899 -0.0804007 -0.00184314
-0.0604068 0.067151 -0.0101699
0.0850622 0.00528222 -0.430821
-0.088159 -0.0411875 -0.361283
0.102583 -0.123996 0.395367
-0.0937251 0.04877 -0.0107788
0.110882 -0.0944445 0.396017
0.0515789 -0.0551947 -0.000337668
-0.0859604 0.0634746 -0.0106369
-0.0685636 0.147892 0.176274
0.109125 0.0147651 0.425808
0.0780602 -0.147892 0.428422
-0.0142532 0.147892 -0.0442529
-0.0941143 0.147892 0.135951
-0.0580617 0.106042 0.00234167
-0.0909491 0.147892 -0.184475
0.016098 0.0542084 0.00877158
0.0701658 -0.0811302 -0.00611616
0.0601078 0.147892 0.375333
0.0768485 0.147892 -0.187822
-0.0553129 -0.1239 0.460066
-0.00721201 0.0678368 -0.415633
0.0701076 -0.041015 0.00293271
-0.110199 -0.0982104 0.171434
0.0733678 0.106175 0.401454
-0.0550209 0.102786 -0.00228601
0.0583236 -0.0762203 -0.402278
-0.0857763 -0.079793 0.376969
-0.0841809 -0.0841236 0.00281907
-0.101977 -0.0647272 -0.258845
-0.014333 -0.144623 0.451528
-0.112631 0.106709 -0.133873
-0.092365 0.051409 -0.010754
0.0454681 0.147892 0.00707978
-0.0842889 -0.129202 0.386758
0.0308276 0.147892 -0.121869
0.0209495 0.147892 -0.419172
0.0154582 -0.0631711 0.445322
-0.0337428 -0.0161456 0.00189717
-0.11495 -0.0331821 -0.0877555
-0.0725647 0.0179488 -0.43698
0.0822653 0.143199 0.431404
-0.0744142 0.147892 -0.0396704
-0.0681192 -0.0464586 0.462734
0.0960279 -0.0416677 0.396733
0.039976 -0.0745132 0.40841
-0.108239 0.119309 -0.194775
-0.0364388 0.0380359 0.00194645
-0.031144 0.0662602 0.423227
0.0600328 0.0880305 -0.436035
0.047137 -0.122826 -0.438722
-0.115194 0.0681236 0.00734668
-0.081927 0.122093 -0.399431
0.0740453 0.133312 -0.120249
-0.0372583 0.0242127 -0.421756
0.0321797 0.0297844 0.441838
0.0810428 0.147892 0.381852
-0.0980377 -0.0682582 -0.292292
0.0211446 0.00701742 0.000893955
-0.100729 -0.0683154 0.269444
0.00109015 0.0588154 0.416511
-0.116601 0.0909373 0.00932539
0.0836664 -0.0403025 -0.397114
-0.082007 0.147892 0.0314498
-0.0192537 0.147892 -0.415828
-0.091724 -0.0413393 -0.337815
-0.114505 0.0697214 -0.096607
-0.0475717 -0.0207379 0.458453
0.041802 0.0551438 0.000516385
-0.0900671 0.14378 -0.348722
0.112866 0.123656 -0.405122
0.0405044 -0.0171156 0.000540103
0.111446 -0.123233 -0.398156
-0.113309 -0.128367 -0.120386
-0.0765096 -0.131872 -0.0104642
-0.115883 -0.0648514 0.0522039
0.0786966 0.147892 -0.260003
-0.10498 -0.101226 0.00319923
0.114855 -0.112323 0.41509
0.0363352 0.147892 -0.0762173
-0.0611859 0.107138 -0.0101841
-0.0991707 -0.121677 -0.282673
-0.0928083 0.00657398 0.00297676
-0.109378 -0.0333837 0.011065
-0.0451466 0.147892 -0.163762
-0.100773 -0.0181657 0.269068
0.0081972 0.130542 0.00113061
0.0967671 -0.147892 0.421114
-0.022578 -0.143965 -0.00169305
-0.00516625 0.147892 0.0568555
0.1096 0.1112 -0.425709
-0.0718943 0.0544434 0.453265
-0.0691231 -0.147892 -0.0032579
-0.107125 0.115184 0.208055
-0.072511 -0.0207572 0.449956
0.0320603 -0.113404 0.441863
-0.0878448 0.139069 -0.363352
-0.0742751 -0.0630923 -0.44049
-0.0055107 0.147892 0.314291
-0.0582283 0.124699 0.0101301
0.0378237 -0.125428 -0.440662
-0.0311378 0.147892 0.134122
0.00902176 -0.00816298 -0.446663
-0.111496 -0.0581446 0.155985
-0.101836 0.0762305 0.260048
-0.0904098 0.00266071 -0.0107183
-0.0365618 0.102599 0.00973407
-0.0588896 0.147892 0.101165
0.0223472 0.117361 -0.40961
-0.116559 -0.11289 0.0118357
-0.0837504 0.0821105 -0.389647
-0.0389934 -0.035985 0.00977851
-0.0953137 0.0899619 -0.314183
0.056446 -0.0765694 -0.000248712
-0.0066398 0.0291714 -0.00140174
-0.0738555 -0.0908466 -0.442742
-0.044643 0.0727913 -0.457843
0.0953291 0.147892 -0.361521
-0.0478815 -0.0447658 0.426714
0.0750341 0.147892 0.314099
-0.0035505 0.00951841 0.449282
-0.0854603 -0.0438103 0.0106278
0.0222 -0.00873876 -0.443917
-0.0545288 0.0538462 0.428099
-0.116366 0.0686754 -0.0233525
0.0205805 0.108097 0.444255
-0.00755859 -0.0354075 -0.415704
0.109122 0.147275 -0.386748
0.0960604 0.0654889 0.42853
-0.116157 -0.113674 -0.035815
0.00786662 0.147892 -0.346031
-0.0556296 -0.0595824 -0.0100826
0.0564318 -0.144252 0.436786
-0.0707428 0.0587452 0.459444
-0.105848 0.0266444 -0.223265
-0.0782126 -0.00110714 0.419362
-0.115812 0.0240654 -0.0564156
-0.0728386 -0.110293 0.448198
-0.0308591 0.147892 0.0791343
0.0318121 0.0942691 -0.407681
-0.0418567 0.147892 -0.121717
-0.00235816 -0.029547 0.41723
-0.0392391 0.00768455 0.424913
0.0700717 -0.0948008 -0.000967737
0.107158 0.00284297 -0.426218
-0.105713 -0.0151034 -0.224865
-0.0991823 -0.0118965 -0.282574
0.0658951 -0.11282 0.00786141
-0.0597499 -0.147892 -0.427575
-0.110863 0.0872925 0.163523
0.0164626 0.0200708 0.445113
-0.116704 0.120839 -0.0031785
0.000111122 0.0727477 0.416715
-0.0346445 -0.0653879 0.00969903
-0.111506 -0.0855277 -0.155872
0.0295206 -0.000695823 0.000740862
0.109555 -0.0169122 -0.425718
0.0299682 -0.0636601 0.00851806
-0.0326688 0.0249051 0.00966292
-0.031203 0.147892 0.422176
0.0600615 -0.0933167 0.436029
0.019591 -0.0400219 -0.410171
-0.0749203 0.147892 -0.346948
-0.0691609 0.0544851 -0.00254445
-0.107567 -0.110367 0.202781
-0.114686 -0.0204117 -0.0930127
-0.0150072 -0.0322273 -0.451669
-0.109562 0.00407832 -0.179021
0.0522273 0.0735053 0.000325835
-0.114467 -0.0559369 -0.0973568
-0.0654784 -0.0377514 -0.00247714
0.00864046 0.147892 -0.206229
-0.0753807 0.078859 -0.434558
-0.0864175 0.110584 -0.372748
-0.113153 -0.0581654 -0.123494
-0.0976551 0.128552 0.29554
-0.10438 -0.00279403 -0.00318814
-0.106386 0.0700544 -0.0110103
0.0786315 0.0303316 0.432161
-0.104655 0.00816918 0.00319328
-0.1052 -0.131742 0.230976
-0.0532148 0.147892 0.273941
-0.103148 0.0957431 0.24891
0.0351824 -0.0166354 -0.000637351
-0.10891 -0.00981477 -0.00327095
-0.113946 -0.0324401 0.107728
-0.0322192 -0.100652 0.00186933
-0.0821072 0.0441028 0.0105665
0.0377046 0.147892 0.0580056
0.0971022 0.126387 -0.428313
-0.0473603 0.147892 0.456749
-0.0464492 0.000855971 0.00991479
0.0453693 0.0766916 -0.43909
0.0701014 0.0039475 -0.00778452
-0.113842 -0.0659238 0.109794
-0.0782331 0.144163 0.419252
0.112613 0.0167999 -0.40388
-0.116577 0.0764818 -0.0107255
-0.0400841 0.116176 -0.00979843
0.00556092 0.112911 -0.41303
-0.114869 0.0790604 0.0893772
-0.112554 -0.100186 0.1354
-0.0613786 0.147892 0.220831
0.010958 0.147892 0.173454
-0.0652621 0.147892 0.156081
0.0354496 -0.0296482 0.409353
-0.106476 -0.0957452 -0.21578
0.0274447 0.0306936 0.00856419
-0.064037 -0.0257405 0.461883
0.0099212 -0.114255 -0.00109905
0.0589858 -0.0425831 0.000202305
-0.0193272 0.0216382 -0.452569
0.00243888 0.0491573 -0.00123581
0.10646 -0.147892 0.399907
0.105294 0.116903 -0.392707
-0.0159025 -0.106987 0.00157109
0.111298 -0.0203965 -0.397425
0.00435801 -0.043828 0.447634
0.0686247 0.147892 -0.128095
-0.00207288 0.0742096 0.41717
0.013182 0.147892 0.0322498
0.0726965 -0.0183505 0.401593
-0.115802 0.143552 0.0570571
0.0954278 -0.0359917 0.396858
0.066435 -0.0059825 0.434702
-0.00304629 -0.105113 0.417373
0.0226859 -0.034497 -0.00865115
-0.0994708 0.147892 0.178724
0.0534472 0.147892 -0.224433
-0.0203227 -0.0260904 -0.00943724
-0.0982266 0.0204035 -0.290689
-0.114888 0.111361 -0.0889924
-0.0467421 0.147892 0.454795
-0.107859 -0.0968193 -0.19931
-0.00719128 0.147892 0.293903
0.0466935 -0.0126109 0.000426981
-0.0437899 0.0668826 0.457665
0.0169014 0.147892 0.351282
0.111117 -0.106522 -0.396542
-0.0828795 0.0855186 -0.394321
-0.0543242 0.147892 -0.286208
0.0556919 -0.0280114 0.43694
-0.113064 -0.000671476 -0.125253
0.114375 0.123132 0.412782
-0.111911 -0.0742098 -0.148192
0.0977801 -0.106656 -0.394238
0.0676131 0.0486657 -0.00782999
0.0936271 0.0442893 -0.429037
-0.0799927 -0.0529665 0.00274252
-0.0455178 0.0259151 0.00211239
-0.105218 -0.0926201 -0.230765
-0.00787726 -0.0371703 -0.00920977
0.112667 -0.11985 0.42507
0.0522238 -0.0543967 0.405859
0.0972773 0.0835937 0.396472
-0.0697857 0.147892 0.177209
-0.0711399 0.0327498 -0.457313
-0.100163 0.0404102 -0.274245
-0.0170876 -0.0467986 -0.0015927
-0.0942847 0.0356144 -0.320957
0.0421305 -0.0145856 -0.405578
0.114018 -0.147892 -0.422899
0.012221 0.0520163 -0.00884242
0.110891 0.006036 0.396062
-0.0456133 -0.081879 0.458045
-0.0384345 -0.0229259 0.00198293
-0.0966936 0.121374 0.303703
-0.0729773 -0.0958806 -0.447454
0.00857199 0.147892 -0.0764649
-0.0534145 -0.0987926 0.45967
-0.0707707 0.147892 -0.441596
0.115511 -0.133898 0.418237
0.00554307 -0.0873894 0.0089645
-0.115658 -0.11811 0.0656246
0.0697299 0.147892 -0.2823
-0.0299175 0.0556397 0.00182726
0.0854481 0.147892 0.315931
0.0496418 -0.00479815 -0.404047
-0.00819208 0.147892 0.0895908
0.026568 0.147892 -0.275509
0.0951314 0.0537519 -0.394777
-0.0909413 0.0181044 0.342967
-0.0255573 0.0534935 0.422063
0.0226439 0.0476808 0.000866552
-0.0770734 -0.0357904 0.00268916
0.0051218 0.0577318 -0.00897218
-0.110194 0.00511282 0.171497
0.0644675 -0.0274408 -0.000102102
0.0167424 -0.051805 0.445054
0.0550106 0.147892 -0.190984
-0.0453799 -0.101864 -0.423411
-0.0694175 -0.0152559 0.00254923
-0.105149 0.0671359 -0.231588
0.0247411 -0.0758562 0.0086136
0.0176811 0.147892 -0.200892
0.056647 -0.134443 -0.000245039
0.0722385 0.147892 -0.334628
-0.108872 -0.134769 0.187244
-0.0911953 0.0427264 -0.341295
0.0290126 -0.109108 -0.408251
0.00967846 -0.0484522 0.00888891
-0.0931676 -0.14603 0.0107687
-0.113159 -0.110396 -0.123379
0.0321734 0.0502388 0.410036
-0.0107012 -0.0944602 -0.450772
-0.0730063 -0.0815717 -0.434813
0.0110339 -0.0269117 -0.411915
-0.0377578 -0.0467181 0.00197056
0.0853378 0.147892 0.243802
-0.0292281 0.134563 -0.454632
-0.0939595 0.0753815 0.323098
-0.0343861 -0.033535 0.0096943
-0.0625848 -0.139439 0.0102097
0.0103347 -0.11253 0.00109154
-0.114179 -0.106262 -0.103087
0.0857002 0.00844446 0.430688
-0.0376774 -0.136066 -0.00975444
0.00962971 0.147892 -0.323423
0.0129776 0.102305 -0.00882859
-0.0707325 -0.0330095 -0.0103586
-0.096211 0.0456495 -0.3078
0.0956236 0.057305 0.396817
0.0945308 -0.120447 -0.3949
0.0296543 0.147892 -0.385469
-0.102433 -0.0448174 0.25498
-0.111543 0.0379748 0.155431
-0.113584 -0.0834343 0.114929
-0.0746581 -0.0619309 -0.438435
0.0676616 -0.0785866 0.00782912
-0.000926081 0.0356263 -0.414352
0.0140942 0.124788 0.0088082
-0.016984 -0.0763271 -0.0015908
-0.040303 -0.0785699 0.00980245
-0.0975098 -0.0883578 -0.296774
0.0682467 0.0349608 -0.00781841
0.011507 0.0558957 -0.446145
0.0701619 0.0972604 -0.433925
-0.0876414 0.0787626 0.0106677
0.065441 0.0442963 0.403105
-0.0563041 -0.0688831 0.0100949
-0.0908964 -0.0830317 0.343263
-0.106174 -0.140409 -0.219375
0.0337087 -0.0982892 0.0084497
-0.0223384 -0.0364809 0.453196
0.0378715 -0.0910742 -0.440652
0.0364268 0.147892 -0.439818
0.108621 -0.00142372 0.394109
0.104372 0.140713 0.36344
0.115369 0.0993402 0.417555
-0.00257293 0.095668 -0.00132741
-0.1025 -0.100265 0.00315389
0.0533692 0.0631703 0.40562
-0.0609453 0.0424755 -0.00239429
0.032711 0.147892 -0.0693014
0.00278405 0.147892 0.0263937
-0.0882153 0.147892 0.304939
-0.0265937 0.147892 -0.0143016
0.0578206 0.147892 -0.238897
-0.0773274 0.127407 -0.424112
-0.066601 0.0727339 -0.00249766
-0.00504657 0.097511 -0.449594
-0.0942516 -0.0221373 0.00300314
0.115743 0.0693711 0.419352
-0.11557 0.0855091 0.0708959
-0.0744527 0.130515 -0.439537
-0.0525497 -0.0835891 -0.0100263
-0.0725044 -0.115864 0.449991
0.0891812 0.101286 0.398159
0.111265 0.03226 -0.397264
0.0352213 -0.0679677 0.00842205
0.0888862 0.0794264 -0.430024
0.0635556 0.147892 -0.0729231
-0.0569758 0.0977163 -0.0101072
-0.104321 8.7671e-05 0.238946
-0.0703284 -0.143623 -0.447954
0.0233918 0.147892 0.344154
-0.113589 -0.0127706 -0.114829
-0.0958429 -0.11948 -0.310699
-0.116104 -0.0379235 -0.0389721
-0.102869 0.111215 -0.00316054
0.0702967 0.110724 -0.433897
-0.0658497 0.147892 0.173435
-0.0995139 -0.12038 -0.279759
0.0262924 0.0977933 0.00858525
-0.0258485 0.147892 0.170963
0.0341803 0.0416766 -0.00844106
-0.115219 -0.0453209 0.00602014
-0.0921911 0.0431292 -0.33474
-0.0809361 0.112739 -0.404749
-0.11542 -0.147449 -0.0784167
0.0847966 0.114306 -0.430876
-0.11662 0.103198 0.00820076
0.00393824 -0.121921 0.415918
-0.114488 0.103086 -0.0969457
-0.0460159 0.0705594 -0.00212142
0.0701086 0.0337428 0.00298414
0.0950949 0.147892 -0.392275
0.0464147 -0.147892 0.415997
0.107451 0.147892 -0.421533
0.0716797 0.147892 -0.211648
-0.0959903 0.147892 -0.307869
-0.0793889 0.147892 -0.295468
-0.109561 0.00458072 -0.179033
0.0245036 0.147892 0.0199101
0.00888173 -0.0701833 -0.412354
0.112044 -0.131653 0.401596
-0.0450327 0.0456329 0.42612
-0.0292427 -0.0766358 0.454635
-0.115224 0.123739 0.00575077
0.112887 0.114702 0.405643
0.113319 -0.137608 0.407714
0.114705 -0.117253 0.414367
-0.099176 0.0975334 -0.0108785
-0.105933 0.0838337 -0.222244
-0.0581494 -0.0861914 0.460657
-0.0340035 -0.00300637 -0.00968729
0.00352613 0.147892 0.0222945
-0.0559718 0.147743 -0.460203
0.0701603 0.000987157 0.00581156
-0.083256 0.120828 -0.392301
-0.0192016 0.147892 0.292892
-0.0358651 0.147892 -0.406231
0.107742 -0.0579586 0.426096
0.0309367 -0.110546 0.000714979
-0.0619212 0.147892 0.0486172
-0.0299318 0.00514555 -0.00182745
-0.0437048 0.109378 -0.0098646
-0.0971263 -0.0387783 0.30003
0.0848124 0.132351 0.23708
-0.0715859 0.116512 0.00258886
0.0878039 0.147892 -0.282795
-0.0533844 -0.0834507 0.0100415
-0.0565007 -0.00278953 0.42851
-0.10654 0.0118111 0.21502
0.0374373 -0.0231019 0.408939
-0.101526 0.127162 0.00313609
0.054701 -0.0160286 0.000280621
-0.0686377 0.147892 -0.299829
-0.100886 0.0822525 0.268111
-0.100172 -0.107552 0.27417
-0.0854176 0.0953227 -0.379331
-0.0913399 -0.078652 -0.340343
-0.101703 -0.0349465 0.00313933
0.0190972 0.147892 -0.0426277
-0.114826 0.147892 -0.0158894
-0.0268066 0.127063 0.00955577
0.00965741 0.147892 -0.0318239
0.0179799 -0.0234961 -0.00873716
-0.10826 0.101164 0.194536
0.0430173 0.0342589 -0.405397
-0.116461 -0.102207 0.0176646
0.0145988 0.0433188 -0.411189
-0.080239 -0.0290703 0.0105324
0.0356982 0.069909 0.441105
-0.0731415 -0.0484915 -0.434149
-0.0598187 0.147892 -0.243699
0.0688409 -0.147892 -0.408348
-0.0652063 -0.0641801 0.0102576
-0.0984647 0.0148603 0.288667
-0.0467245 0.147892 0.281227
-0.112415 0.117611 -0.138172
-0.0507125 0.083861 -0.459107
-0.108457 -0.0529362 0.0110481
-0.105911 0.0119862 0.222516
0.0452815 0.147892 0.241968
-0.00744753 0.0108572 -0.0014165
-0.0483066 -0.0773306 -0.00994871
-0.0883132 0.00904322 0.360268
0.0823992 0.147892 -0.289684
0.0633348 0.0655194 -0.000122804
-0.0926537 -0.10272 -0.331694
-0.05152 0.147892 0.323169
-0.0867852 0.0122534 -0.010652
0.0986607 0.147892 0.334719
0.028983 0.0119659 -0.000750658
-0.0871073 0.146027 0.368207
0.0684279 0.147892 0.0626877
0.0570568 0.147892 0.0800248
-0.0694048 0.0749371 -0.452486
-0.110875 0.110318 -0.163388
-0.069239 -0.129477 -0.00254588
0.0384951 0.144092 -0.440523
-0.0935364 -0.102596 0.325883
0.0156783 0.147892 -0.329151
-0.109478 0.0592951 0.180021
-0.0512084 0.0259085 -0.424599
0.00668091 -0.0119925 0.00115832
0.0318617 -0.14768 -0.407671
0.0132271 0.147892 -0.0182469
0.0455418 -0.108045 0.00823341
0.0633484 0.0237904 -0.00790794
0.00015305 0.0464333 0.00127763
0.0954194 0.0163534 -0.428663
-0.00581547 0.0919591 0.00138672
0.00172746 -0.0775493 -0.00124881
0.0532426 0.147892 0.397685
0.0127575 0.147892 -0.0484892
-0.0667279 -0.00494193 -0.0102854
0.0154397 0.0903734 -0.00878359
0.0861072 -0.0934348 -0.430603
0.0434375 -0.0305475 0.407689
-0.0821445 0.0156144 -0.398264
0.0406402 0.147892 -0.26731
0.020932 0.017391 0.412378
0.0371665 -0.107973 -0.00838648
-0.116719 -0.0837816 -0.00229127
-0.0321188 0.0444859 0.00186749
-0.0519622 0.101435 0.00223018
-0.0784076 0.0177849 -0.418316
-0.00709367 0.01478 -0.00919545
0.0164473 -0.124089 -0.00876518
-0.112135 0.0940364 -0.143742
-0.105111 0.147892 0.187056
-0.0446113 0.0587366 0.457836
-0.110682 0.147892 0.0668185
-0.062507 0.147892 0.367488
0.0631979 0.0999889 0.0079107
-0.094846 -0.0784567 -0.317262
-0.115223 -0.0894973 0.00578539
-0.0543066 -0.107559 -0.459856
-0.108188 0.102868 -0.195385
0.11643 -0.0892325 0.422647
0.042793 0.147892 -0.170175
-0.0726158 0.0870858 0.449394
-0.0228682 -0.147892 0.423555
-0.0744118 -0.124573 0.00264051
-0.0686366 0.147892 0.0270136
-0.0454327 0.0358504 0.00211084
0.113839 -0.0369926 -0.409899
-0.00686974 0.0137198 0.449974
0.0927409 0.147892 -0.313921
-0.0512154 0.147892 0.0244302
-0.0316941 -0.112163 -0.00185966
-0.0862204 -0.0729507 0.374046
-0.112876 -0.0714428 -0.128996
0.094736 -0.0455225 -0.428806
-0.0822143 -0.0573542 -0.39789
-0.00953403 0.0586621 -0.416106
-0.115339 -0.00619284 0.0800273
0.0511216 -0.130221 -0.437892
-0.0701165 0.0265692 0.002562
-0.0542184 0.147892 0.153983
-0.0262942 -0.0107354 -0.00954638
0.0497226 0.147892 -0.205065
0.0893275 0.137332 0.272183
-0.0255264 0.147892 -0.235833
-0.0176479 0.127475 -0.41776
-0.116327 -0.00267987 0.0257009
0.046392 -0.131558 -0.000432471
0.0593154 -0.0927671 0.00798167
0.0910024 0.138304 -0.284951
-0.10391 0.147892 -0.11949
-0.109422 0.0815282 -0.180689
-0.116462 0.0851212 -0.0176321
-0.116633 0.0491953 0.00740591
-0.0918307 -0.0584283 -0.337112
-0.0466491 -0.0528786 -0.002133
-0.00122765 -0.112997 -0.00908823
-0.116529 0.0234099 -0.0136322
0.05837 0.147892 -0.0107386
-0.0561915 -0.014078 0.0100929
-0.0569765 0.0566212 -0.0101072
0.0631773 0.0649093 -0.00791107
0.116589 -0.0672578 0.423412
-0.116423 -0.0461865 -0.0199259
0.110791 -0.12486 0.39558
0.041855 0.147892 0.18118
-0.0243334 0.0630869 0.00951056
-0.038924 0.147892 0.0535214
-0.108314 -0.129657 -0.193889
-0.107251 -0.0849801 0.206547
-0.0169203 0.111966 -0.452067
-0.0830733 0.014831 -0.39328
-0.116032 0.104281 0.0433236
-0.0936314 0.0516029 0.325258
0.0521223 -0.137118 -0.000327736
0.0721961 0.147892 0.200323
-0.114075 -0.123759 0.105158
-0.0628334 -0.0591105 0.00242888
-0.104438 0.0270913 -0.237955
-0.0975935 0.00217266 -0.296063
-0.0382923 -0.11457 0.00198033
0.0363526 0.0584419 0.00840137
0.0269814 0.147892 -0.213268
-0.0807379 -0.0238278 -0.405812
-0.0303 -0.147892 -0.00439524
-0.104194 0.147892 0.0674268
-0.104098 -0.0745042 -0.240839
-0.073117 -0.0387525 -0.429063
0.0898475 0.137832 0.276226
-0.10039 0.102304 -0.272322
0.0330222 -0.0023488 -0.000676833
-0.0634366 -0.0526042 -0.461758
-0.0681339 0.122108 0.00252576
0.0301403 0.0122672 -0.0085149
0.0739731 0.147892 0.283306
0.0810447 0.0831175 0.399854
-0.0642262 0.147892 -0.264055
-0.0980152 0.141782 -0.292483
-0.0843422 -0.0347845 0.00282202
-0.039528 0.147892 0.146593
0.0545846 -0.0689826 -0.00806812
-0.0797579 0.103758 0.41107
0.100343 -0.101875 0.427637
-0.103861 0.070547 0.242853
0.0762449 -0.147892 -0.407212
0.0534311 0.0920867 -0.403275
-0.039374 0.147892 -0.0276217
0.0347671 0.147892 0.192316
-0.115911 -0.112133 -0.0504998
-0.0931692 0.147892 0.251068
-0.0517618 -0.139096 0.427522
-0.109129 0.0686242 -0.184177
-0.00724714 0.147892 0.0499771
0.0880971 -0.011868 -0.396211
0.0912265 -0.00515001 0.429537
-0.104035 -0.136406 0.241379
0.0670989 -0.10181 5.40162e-05
0.0504219 0.0442642 0.00814422
-0.0935306 -0.13233 0.325921
0.0229292 0.0427446 -0.443765
0.080498 -0.13843 0.431772
0.030344 -0.0839706 -0.442221
