ply
format ascii 1.0
comment Created by Open3D
element vertex 1345
property double x
property double y
property double z
end_header
0.192842 -0.183538 -0.389298
0.187105 -0.183785 -0.389301
0.175586 -0.181379 -0.389308
0.166906 -0.181747 -0.389313
0.192842 -0.174867 -0.389298
0.187105 -0.175102 -0.389301
0.175586 -0.169771 -0.389308
0.166906 -0.170115 -0.389313
-0.164469 -0.183396 -0.388811
-0.174242 -0.183642 -0.389516
0.192842 -0.166196 -0.389298
0.187105 -0.16642 -0.389301
-0.164461 -0.183043 -0.374807
-0.1844 -0.180899 -0.389522
-0.164469 -0.177126 -0.388811
-0.174242 -0.177364 -0.389516
0.175586 -0.161065 -0.389308
0.166906 -0.161391 -0.389313
-0.164461 -0.176676 -0.374808
-0.1844 -0.171461 -0.389522
0.192842 -0.154635 -0.389298
0.187105 -0.154843 -0.389301
0.175586 -0.152358 -0.389308
-0.16446 -0.167125 -0.374811
-0.164469 -0.164586 -0.388811
-0.174242 -0.164807 -0.389516
0.166906 -0.149759 -0.389313
-0.1844 -0.162023 -0.389522
0.192842 -0.145964 -0.389298
0.187105 -0.14616 -0.389301
-0.164464 -0.156369 -0.381865
-0.164469 -0.155181 -0.388811
-0.174242 -0.15539 -0.389516
0.191695 -0.135397 -0.418081
0.180972 -0.134885 -0.423251
0.169881 -0.135249 -0.423257
0.161523 -0.135524 -0.423262
0.150326 -0.135892 -0.423269
-0.164455 -0.155592 -0.367648
0.192842 -0.137292 -0.389298
0.141889 -0.133362 -0.423274
0.130585 -0.133726 -0.42328
0.122066 -0.134 -0.423286
0.110654 -0.134368 -0.423292
0.102053 -0.134644 -0.423297
0.0905308 -0.135015 -0.423304
0.0818471 -0.135295 -0.423309
0.0702127 -0.13567 -0.423316
0.0614445 -0.135952 -0.423322
-0.16445 -0.153578 -0.360371
-0.1844 -0.149438 -0.389522
0.0496968 -0.13346 -0.423329
0.0408429 -0.133739 -0.423334
0.0319519 -0.134019 -0.423339
0.0200392 -0.134395 -0.423346
0.0110608 -0.134678 -0.423351
0.00204448 -0.134962 -0.423357
-0.0100366 -0.135343 -0.423364
-0.0191423 -0.13563 -0.423369
-0.0282867 -0.135918 -0.423375
-0.164464 -0.146892 -0.381865
-0.164469 -0.145776 -0.388811
-0.174242 -0.145972 -0.389516
0.19173 -0.134651 -0.369549
0.191695 -0.127022 -0.41808
0.180972 -0.126541 -0.423251
0.169881 -0.126883 -0.423257
0.161523 -0.127141 -0.423262
0.150326 -0.127486 -0.423269
-0.0405398 -0.133373 -0.423382
-0.0497754 -0.133658 -0.423387
-0.0590506 -0.133944 -0.423393
-0.0683655 -0.134231 -0.423398
-0.0777206 -0.13452 -0.423404
-0.0902566 -0.134906 -0.423411
-0.0997061 -0.135198 -0.423417
-0.109196 -0.13549 -0.423423
-0.118728 -0.135784 -0.423428
-0.16445 -0.147112 -0.360372
-0.164454 -0.145968 -0.367649
0.141889 -0.124939 -0.423274
0.130585 -0.12528 -0.42328
0.122066 -0.125537 -0.423286
0.110654 -0.125881 -0.423292
0.102053 -0.126141 -0.423297
0.0905308 -0.126488 -0.423304
0.0818471 -0.12675 -0.423309
0.0702127 -0.127101 -0.423316
0.0614445 -0.127366 -0.423322
-0.128301 -0.133089 -0.423434
-0.137916 -0.133379 -0.42344
-0.147572 -0.13367 -0.423445
-0.160514 -0.134061 -0.423453
-0.17027 -0.134355 -0.423459
-0.180068 -0.13465 -0.423465
-0.18991 -0.134947 -0.423471
0.0496968 -0.12485 -0.423329
0.0408429 -0.125111 -0.423334
0.0319519 -0.125373 -0.423339
0.0200392 -0.125724 -0.423346
0.0110608 -0.125989 -0.423351
0.00204448 -0.126255 -0.423357
-0.0100366 -0.126611 -0.423364
-0.0191423 -0.12688 -0.423369
-0.0282867 -0.127149 -0.423375
0.191758 -0.13384 -0.314606
0.191724 -0.125787 -0.36945
-0.0405398 -0.124579 -0.423382
-0.0497754 -0.124845 -0.423387
-0.0590506 -0.125112 -0.423393
-0.0683655 -0.125381 -0.423398
-0.0777206 -0.12565 -0.423404
-0.0902566 -0.126011 -0.423411
-0.0997061 -0.126284 -0.423417
-0.109196 -0.126557 -0.423423
-0.118728 -0.126832 -0.423428
-0.128301 -0.127107 -0.423434
-0.137916 -0.127384 -0.42344
0.191695 -0.115856 -0.41808
0.180972 -0.115417 -0.423251
0.169881 -0.115729 -0.423257
0.161523 -0.115964 -0.423262
0.150326 -0.116279 -0.423269
0.141889 -0.116516 -0.423274
0.130585 -0.116834 -0.42328
0.122066 -0.117074 -0.423286
0.110654 -0.117395 -0.423292
-0.147572 -0.124659 -0.423445
-0.160514 -0.125023 -0.423453
-0.17027 -0.125297 -0.423459
-0.180068 -0.125573 -0.423465
-0.18991 -0.12585 -0.423471
0.102053 -0.114802 -0.423297
0.0905308 -0.115118 -0.423304
0.0818471 -0.115357 -0.423309
0.0702127 -0.115676 -0.423316
0.0614445 -0.115917 -0.423322
0.0496968 -0.116239 -0.423329
0.0408429 -0.116482 -0.423334
0.0319519 -0.116727 -0.423339
0.0200392 -0.117054 -0.423346
0.0110608 -0.1173 -0.423351
0.191796 -0.132901 -0.25225
0.191758 -0.124393 -0.314598
0.191724 -0.116909 -0.369443
0.00204448 -0.114645 -0.423357
-0.0100366 -0.114969 -0.423364
-0.0191423 -0.115212 -0.423369
-0.0282867 -0.115457 -0.423375
-0.0405398 -0.115785 -0.423382
-0.0497754 -0.116033 -0.423387
-0.0590506 -0.116281 -0.423393
-0.0683655 -0.11653 -0.423398
-0.0777206 -0.116781 -0.423404
-0.0902566 -0.117116 -0.423411
-0.0997061 -0.117369 -0.423417
0.191695 -0.107481 -0.41808
0.180972 -0.107073 -0.423251
0.169881 -0.107363 -0.423257
-0.109196 -0.114646 -0.423423
-0.118728 -0.114894 -0.423428
-0.128301 -0.115144 -0.423434
-0.137916 -0.115395 -0.42344
-0.147572 -0.115647 -0.423445
-0.160514 -0.115985 -0.423453
-0.17027 -0.11624 -0.423459
-0.180068 -0.116495 -0.423465
-0.18991 -0.116752 -0.423471
0.19184 -0.135436 -0.180741
0.191796 -0.126173 -0.252244
0.161523 -0.104787 -0.423262
0.150326 -0.105071 -0.423269
0.141889 -0.105286 -0.423274
0.130585 -0.105573 -0.42328
0.122066 -0.10579 -0.423286
0.110654 -0.10608 -0.423292
0.102053 -0.106298 -0.423297
0.0905308 -0.106591 -0.423304
0.0818471 -0.106812 -0.423309
0.0702127 -0.107108 -0.423316
0.0614445 -0.10733 -0.423322
0.191757 -0.114947 -0.31459
0.0496968 -0.104759 -0.423329
0.0408429 -0.104978 -0.423334
0.0319519 -0.105198 -0.423339
0.0200392 -0.105493 -0.423346
0.0110608 -0.105715 -0.423351
0.00204448 -0.105938 -0.423357
-0.0100366 -0.106237 -0.423364
-0.0191423 -0.106462 -0.423369
-0.0282867 -0.106688 -0.423375
-0.0405398 -0.106992 -0.423382
-0.0497754 -0.10722 -0.423387
-0.0590506 -0.107449 -0.423393
0.191724 -0.105071 -0.369437
-0.0683655 -0.10473 -0.423398
-0.0777206 -0.104955 -0.423404
-0.0902566 -0.105257 -0.423411
-0.0997061 -0.105484 -0.423417
-0.109196 -0.105712 -0.423423
-0.118728 -0.105942 -0.423428
-0.128301 -0.106172 -0.423434
-0.137916 -0.106403 -0.42344
-0.147572 -0.106636 -0.423445
-0.160514 -0.106947 -0.423453
-0.17027 -0.107182 -0.423459
-0.180068 -0.107418 -0.423465
0.19189 -0.134475 -0.0978956
0.191839 -0.124602 -0.180731
0.191795 -0.11608 -0.252235
0.191695 -0.0963137 -0.41808
0.180972 -0.0959489 -0.423251
0.169881 -0.0962082 -0.423257
0.161523 -0.0964037 -0.423262
0.150326 -0.0966655 -0.423269
0.141889 -0.0968628 -0.423274
0.130585 -0.0971272 -0.42328
0.122066 -0.0973264 -0.423286
-0.18991 -0.104622 -0.423471
0.188697 -0.183639 0.359913
0.193472 -0.101703 -0.347048
0.110654 -0.0947645 -0.423292
0.102053 -0.0949598 -0.423297
0.0905308 -0.0952214 -0.423304
0.0818471 -0.0954186 -0.423309
0.0702127 -0.0956828 -0.423316
0.0614445 -0.0958819 -0.423322
0.0496968 -0.0961486 -0.423329
0.0408429 -0.0963497 -0.423334
0.0319519 -0.0965516 -0.423339
0.0200392 -0.0968221 -0.423346
0.0110608 -0.097026 -0.423351
0.00204448 -0.0972307 -0.423357
0.177905 -0.17829 0.358966
0.19189 -0.12668 -0.0978875
0.191839 -0.11738 -0.180724
0.191724 -0.0961918 -0.369437
-0.0100366 -0.0945944 -0.423364
-0.0191423 -0.094795 -0.423369
-0.0282867 -0.0949965 -0.423375
-0.0405398 -0.0952664 -0.423382
-0.0497754 -0.0954699 -0.423387
-0.0590506 -0.0956742 -0.423393
-0.0683655 -0.0958794 -0.423398
-0.0777206 -0.0960855 -0.423404
-0.0902566 -0.0963616 -0.423411
-0.0997061 -0.0965698 -0.423417
-0.109196 -0.0967789 -0.423423
-0.118728 -0.0969888 -0.423428
-0.128301 -0.0971997 -0.423434
-0.137916 -0.0974115 -0.42344
0.18876 -0.17246 0.357947
0.191949 -0.133349 -0.000789285
0.193508 -0.102174 -0.286927
0.189251 -0.0874287 -0.423246
-0.147572 -0.0946205 -0.423445
-0.160514 -0.0948968 -0.423453
-0.17027 -0.0951051 -0.423459
-0.180068 -0.0953143 -0.423465
-0.18991 -0.0955244 -0.423471
0.180972 -0.0848244 -0.423251
0.169881 -0.0850537 -0.423257
0.161523 -0.0852265 -0.423262
0.150326 -0.0854579 -0.423269
0.141889 -0.0856324 -0.423274
0.130585 -0.0858661 -0.42328
0.122066 -0.0860422 -0.423286
0.110654 -0.0862781 -0.423292
0.102053 -0.0864559 -0.423297
0.0905308 -0.0866941 -0.423304
0.0818471 -0.0868737 -0.423309
0.0702127 -0.0871142 -0.423316
0.0614445 -0.0872955 -0.423322
0.188823 -0.161309 0.355987
0.191949 -0.124883 -0.000779867
0.191889 -0.114988 -0.0978754
0.191838 -0.106546 -0.180713
0.193472 -0.0895593 -0.34705
0.191724 -0.0873126 -0.369437
0.0496968 -0.0846682 -0.423329
0.0408429 -0.0848453 -0.423334
0.0319519 -0.0850231 -0.423339
0.0200392 -0.0852613 -0.423346
0.0110608 -0.0854408 -0.423351
0.00204448 -0.0856211 -0.423357
-0.0100366 -0.0858626 -0.423364
-0.0191423 -0.0860447 -0.423369
-0.0282867 -0.0862276 -0.423375
-0.0405398 -0.0864726 -0.423382
-0.0497754 -0.0866573 -0.423387
-0.0590506 -0.0868427 -0.423393
-0.0683655 -0.087029 -0.423398
-0.0777206 -0.087216 -0.423404
-0.0902566 -0.0874667 -0.423411
0.192019 -0.132011 0.114606
0.19355 -0.0992318 -0.217976
0.193508 -0.0924428 -0.286929
-0.0997061 -0.0846843 -0.423417
-0.109196 -0.0848676 -0.423423
-0.118728 -0.0850518 -0.423428
-0.128301 -0.0852367 -0.423434
-0.137916 -0.0854224 -0.42344
-0.147572 -0.085609 -0.423445
-0.160514 -0.085859 -0.423453
-0.17027 -0.0860475 -0.423459
-0.180068 -0.0862367 -0.423465
-0.18991 -0.0864269 -0.423471
0.188886 -0.150186 0.354031
0.191948 -0.116418 -0.00077033
0.191889 -0.107193 -0.097867
0.191695 -0.0767718 -0.41808
0.180972 -0.076481 -0.423251
0.169881 -0.0766877 -0.423257
0.161523 -0.0768435 -0.423262
0.150326 -0.0770523 -0.423269
0.141889 -0.0772095 -0.423274
0.130585 -0.0774202 -0.42328
0.192104 -0.135507 0.253988
0.193598 -0.0995811 -0.138095
0.19355 -0.0922679 -0.217978
0.193472 -0.0804513 -0.347053
0.122066 -0.0747579 -0.423286
0.110654 -0.0749629 -0.423292
0.102053 -0.0751174 -0.423297
0.0905308 -0.0753244 -0.423304
0.0818471 -0.0754804 -0.423309
0.0702127 -0.0756894 -0.423316
0.0614445 -0.0758469 -0.423322
0.0496968 -0.0760579 -0.423329
0.0408429 -0.0762169 -0.423334
0.0319519 -0.0763766 -0.423339
0.0200392 -0.0765906 -0.423346
0.0110608 -0.0767519 -0.423351
0.00204448 -0.0769138 -0.423357
-0.0100366 -0.0771308 -0.423364
-0.0191423 -0.0772944 -0.423369
-0.0282867 -0.0774587 -0.423375
0.192019 -0.118116 0.114623
0.191724 -0.0754736 -0.369437
-0.0405398 -0.0747475 -0.423382
-0.0497754 -0.0749071 -0.423387
-0.0590506 -0.0750674 -0.423393
-0.0683655 -0.0752284 -0.423398
-0.0777206 -0.0753901 -0.423404
-0.0902566 -0.0756068 -0.423411
-0.0997061 -0.0757701 -0.423417
-0.109196 -0.0759342 -0.423423
-0.118728 -0.0760989 -0.423428
-0.128301 -0.0762644 -0.423434
-0.137916 -0.0764306 -0.42344
-0.147572 -0.0765975 -0.423445
-0.160514 -0.0768212 -0.423453
-0.17027 -0.0769898 -0.423459
-0.180068 -0.0771592 -0.423465
-0.18991 -0.0773293 -0.423471
0.192104 -0.125281 0.254002
0.193654 -0.0999907 -0.044461
0.193598 -0.0920654 -0.138097
0.193508 -0.0794681 -0.286932
0.192018 -0.108853 0.114635
0.19355 -0.0818223 -0.217981
0.193472 -0.0713435 -0.347055
0.191695 -0.065605 -0.41808
0.180972 -0.0653565 -0.423251
0.169881 -0.0655332 -0.423257
0.161523 -0.0656663 -0.423262
0.150326 -0.0658446 -0.423269
0.141889 -0.065979 -0.423274
0.130585 -0.0661591 -0.42328
0.122066 -0.0662948 -0.423286
0.110654 -0.0664766 -0.423292
0.102053 -0.0666136 -0.423297
0.0905308 -0.0667971 -0.423304
0.0818471 -0.0669354 -0.423309
0.0702127 -0.0671208 -0.423316
0.0614445 -0.0672604 -0.423322
0.0496968 -0.0674476 -0.423329
0.192103 -0.115055 0.254016
0.193721 -0.100477 0.0668112
0.193654 -0.091828 -0.0444635
0.191724 -0.0665943 -0.369437
0.0408429 -0.0647125 -0.423334
0.0319519 -0.0648481 -0.423339
0.0200392 -0.0650298 -0.423346
0.0110608 -0.0651667 -0.423351
0.00204448 -0.0653042 -0.423357
-0.0100366 -0.0654885 -0.423364
-0.0191423 -0.0656273 -0.423369
-0.0282867 -0.0657668 -0.423375
-0.0405398 -0.0659537 -0.423382
-0.0497754 -0.0660945 -0.423387
-0.0590506 -0.066236 -0.423393
-0.0683655 -0.066378 -0.423398
-0.0777206 -0.0665207 -0.423404
-0.0902566 -0.0667119 -0.423411
-0.0997061 -0.066856 -0.423417
-0.109196 -0.0670008 -0.423423
-0.118728 -0.0671461 -0.423428
-0.128301 -0.0672921 -0.423434
-0.137916 -0.0674388 -0.42344
0.193598 -0.0807919 -0.1381
0.193509 -0.0697371 -0.286935
-0.147572 -0.0645822 -0.423445
-0.160514 -0.0647708 -0.423453
-0.17027 -0.064913 -0.423459
-0.180068 -0.0650558 -0.423465
-0.18991 -0.0651992 -0.423471
0.193802 -0.101065 0.201224
0.193721 -0.0915459 0.0668082
0.19355 -0.0713767 -0.217983
0.193473 -0.0622356 -0.347057
0.191695 -0.0572299 -0.41808
0.180972 -0.0570131 -0.423251
0.169881 -0.0571672 -0.423257
0.161523 -0.0572834 -0.423262
0.150326 -0.0574389 -0.423269
0.193654 -0.079584 -0.0444674
0.141889 -0.0547486 -0.423274
0.130585 -0.054898 -0.42328
0.122066 -0.0550106 -0.423286
0.110654 -0.0551614 -0.423292
0.102053 -0.0552751 -0.423297
0.0905308 -0.0554274 -0.423304
0.0818471 -0.0555422 -0.423309
0.0702127 -0.055696 -0.423316
0.0614445 -0.0558119 -0.423322
0.0496968 -0.0559671 -0.423329
0.0408429 -0.0560842 -0.423334
0.0319519 -0.0562017 -0.423339
0.0200392 -0.0563591 -0.423346
0.0110608 -0.0564778 -0.423351
0.00204448 -0.056597 -0.423357
-0.0100366 -0.0567567 -0.423364
-0.0191423 -0.056877 -0.423369
-0.0282867 -0.0569979 -0.423375
-0.0405398 -0.0571599 -0.423382
-0.0497754 -0.0572819 -0.423387
-0.0590506 -0.0574045 -0.423393
0.193802 -0.0912051 0.201221
0.193598 -0.0695184 -0.138103
0.193509 -0.0600062 -0.286937
0.191724 -0.0547553 -0.369437
-0.0683655 -0.0545775 -0.423398
-0.0777206 -0.0546948 -0.423404
-0.0902566 -0.054852 -0.423411
-0.0997061 -0.0549705 -0.423417
-0.109196 -0.0550895 -0.423423
-0.118728 -0.055209 -0.423428
-0.128301 -0.0553291 -0.423434
-0.137916 -0.0554497 -0.42344
-0.147572 -0.0555708 -0.423445
-0.160514 -0.055733 -0.423453
-0.17027 -0.0558554 -0.423459
-0.180068 -0.0559782 -0.423465
-0.18991 -0.0561017 -0.423471
0.193721 -0.0781486 0.0668037
0.193654 -0.0714214 -0.0444701
0.19355 -0.0609312 -0.217986
0.193802 -0.0813449 0.201218
0.193598 -0.0620027 -0.138106
0.193473 -0.0500919 -0.347059
0.191695 -0.0460631 -0.41808
0.180972 -0.0458886 -0.423251
0.169881 -0.0460126 -0.423257
0.161523 -0.0461061 -0.423262
0.150326 -0.0462313 -0.423269
0.141889 -0.0463257 -0.423274
0.130585 -0.0464521 -0.42328
0.122066 -0.0465474 -0.423286
0.110654 -0.046675 -0.423292
0.102053 -0.0467712 -0.423297
0.0905308 -0.0469001 -0.423304
0.0818471 -0.0469972 -0.423309
0.0702127 -0.0471273 -0.423316
0.0614445 -0.0472254 -0.423322
0.0496968 -0.0473568 -0.423329
0.0408429 -0.0474558 -0.423334
0.193721 -0.0692172 0.0668011
0.193509 -0.0502753 -0.286939
0.191724 -0.0458761 -0.369437
0.0319519 -0.0446731 -0.423339
0.0200392 -0.0447983 -0.423346
0.0110608 -0.0448926 -0.423351
0.00204448 -0.0449873 -0.423357
-0.0100366 -0.0451143 -0.423364
-0.0191423 -0.0452099 -0.423369
-0.0282867 -0.045306 -0.423375
-0.0405398 -0.0454347 -0.423382
-0.0497754 -0.0455318 -0.423387
-0.0590506 -0.0456292 -0.423393
-0.0683655 -0.0457271 -0.423398
-0.0777206 -0.0458254 -0.423404
-0.0902566 -0.0459571 -0.423411
-0.0997061 -0.0460564 -0.423417
-0.109196 -0.0461561 -0.423423
-0.118728 -0.0462562 -0.423428
-0.128301 -0.0463568 -0.423434
-0.137916 -0.0464578 -0.42344
-0.147572 -0.0465593 -0.423445
-0.160514 -0.0466952 -0.423453
-0.17027 -0.0467977 -0.423459
-0.180068 -0.0469007 -0.423465
-0.18991 -0.0470041 -0.423471
0.193802 -0.0714849 0.201218
0.193655 -0.0591775 -0.0444738
0.19355 -0.0504857 -0.217989
0.193721 -0.060286 0.0668011
0.193598 -0.0507294 -0.138109
0.193473 -0.0409842 -0.347062
0.189251 -0.0374695 -0.423246
0.193802 -0.061625 0.201218
0.193654 -0.0510151 -0.0444739
0.193509 -0.0405445 -0.286942
0.191724 -0.0369968 -0.369437
0.180972 -0.0347641 -0.423251
0.169881 -0.0348581 -0.423257
0.161523 -0.0349289 -0.423262
0.150326 -0.0350237 -0.423269
0.141889 -0.0350952 -0.423274
0.130585 -0.035191 -0.42328
0.122066 -0.0352632 -0.423286
0.110654 -0.0353599 -0.423292
0.102053 -0.0354328 -0.423297
0.0905308 -0.0355304 -0.423304
0.0818471 -0.035604 -0.423309
0.0702127 -0.0357025 -0.423316
0.0614445 -0.0357768 -0.423322
0.0496968 -0.0358764 -0.423329
0.0408429 -0.0359514 -0.423334
0.0319519 -0.0360267 -0.423339
0.0200392 -0.0361277 -0.423346
0.0110608 -0.0362037 -0.423351
0.00204448 -0.0362801 -0.423357
-0.0100366 -0.0363825 -0.423364
-0.0191423 -0.0364596 -0.423369
-0.0282867 -0.0365371 -0.423375
-0.0405398 -0.0366409 -0.423382
-0.0497754 -0.0367192 -0.423387
-0.0590506 -0.0367978 -0.423393
-0.0683655 -0.0368767 -0.423398
-0.0777206 -0.036956 -0.423404
-0.0902566 -0.0370622 -0.423411
-0.0997061 -0.0371422 -0.423417
-0.109196 -0.0372226 -0.423423
-0.118728 -0.0373034 -0.423428
-0.128301 -0.0373845 -0.423434
-0.137916 -0.037466 -0.42344
0.193721 -0.0513547 0.0668011
0.19355 -0.0400403 -0.217992
-0.147572 -0.034544 -0.423445
-0.160514 -0.0346449 -0.423453
-0.17027 -0.0347209 -0.423459
-0.180068 -0.0347973 -0.423465
-0.18991 -0.034874 -0.423471
0.193802 -0.051765 0.201218
0.193598 -0.0394562 -0.13811
0.193418 -0.0319145 -0.346028
0.193721 -0.0424235 0.0668011
0.193654 -0.0387715 -0.0444739
0.193509 -0.0308138 -0.286944
0.191695 -0.0265212 -0.41808
0.180972 -0.0264207 -0.423251
0.169881 -0.0264921 -0.423257
0.161523 -0.026546 -0.423262
0.150326 -0.0266181 -0.423269
0.141889 -0.0266724 -0.423274
0.130585 -0.0267452 -0.42328
0.122066 -0.0268 -0.423286
0.110654 -0.0268735 -0.423292
0.102053 -0.0269289 -0.423297
0.0905308 -0.0270031 -0.423304
0.0818471 -0.027059 -0.423309
0.0702127 -0.0271339 -0.423316
0.0614445 -0.0271904 -0.423322
0.0496968 -0.027266 -0.423329
0.0408429 -0.0273231 -0.423334
0.0319519 -0.0273803 -0.423339
0.0200392 -0.027457 -0.423346
0.193802 -0.041905 0.201218
0.193598 -0.0319407 -0.13811
0.19355 -0.029595 -0.217992
0.191724 -0.0251578 -0.369437
0.0110608 -0.0246185 -0.423351
0.00204448 -0.0246705 -0.423357
-0.0100366 -0.0247401 -0.423364
-0.0191423 -0.0247925 -0.423369
-0.0282867 -0.0248452 -0.423375
-0.0405398 -0.0249158 -0.423382
-0.0497754 -0.024969 -0.423387
-0.0590506 -0.0250225 -0.423393
-0.0683655 -0.0250761 -0.423398
-0.0777206 -0.02513 -0.423404
-0.0902566 -0.0252023 -0.423411
-0.0997061 -0.0252567 -0.423417
-0.109196 -0.0253114 -0.423423
-0.118728 -0.0253663 -0.423428
-0.128301 -0.0254215 -0.423434
-0.137916 -0.0254769 -0.42344
-0.147572 -0.0255325 -0.423445
-0.160514 -0.0256071 -0.423453
-0.17027 -0.0256633 -0.423459
-0.180068 -0.0257197 -0.423465
-0.18991 -0.0257764 -0.423471
0.193654 -0.0306091 -0.0444739
0.193802 -0.032045 0.201218
0.193721 -0.0290266 0.0668011
0.186341 -0.024375 -0.141773
0.189727 -0.024373 0.0561227
0.181041 -0.0243729 0.0544082
0.172354 -0.0243728 0.0526935
0.191724 -0.0162786 -0.369437
0.191695 -0.0153544 -0.41808
0.180972 -0.0152962 -0.423251
0.169881 -0.0153375 -0.423257
0.161523 -0.0153687 -0.423262
0.150326 -0.0154104 -0.423269
0.141889 -0.0154419 -0.423274
0.130585 -0.015484 -0.42328
0.122066 -0.0155158 -0.423286
0.110654 -0.0155583 -0.423292
0.102053 -0.0155904 -0.423297
0.0905308 -0.0156334 -0.423304
0.0818471 -0.0156657 -0.423309
0.0702127 -0.0157091 -0.423316
0.0614445 -0.0157418 -0.423322
0.0496968 -0.0157856 -0.423329
0.0408429 -0.0158186 -0.423334
0.0319519 -0.0158518 -0.423339
0.0200392 -0.0158962 -0.423346
0.0110608 -0.0159296 -0.423351
0.00204448 -0.0159632 -0.423357
-0.0100366 -0.0160083 -0.423364
-0.0191423 -0.0160422 -0.423369
-0.0282867 -0.0160763 -0.423375
-0.0405398 -0.016122 -0.423382
-0.0497754 -0.0161564 -0.423387
-0.0590506 -0.016191 -0.423393
-0.0683655 -0.0162257 -0.423398
-0.0777206 -0.0162606 -0.423404
-0.0902566 -0.0163074 -0.423411
-0.0997061 -0.0163426 -0.423417
-0.109196 -0.016378 -0.423423
-0.118728 -0.0164135 -0.423428
-0.128301 -0.0164492 -0.423434
-0.137916 -0.016485 -0.42344
-0.147572 -0.016521 -0.423445
-0.160514 -0.0165693 -0.423453
-0.17027 -0.0166056 -0.423459
-0.180068 -0.0166422 -0.423465
-0.18991 -0.0166789 -0.423471
0.18931 -0.0243699 0.340865
0.178693 -0.0243702 0.338791
0.168075 -0.0243706 0.336728
0.157457 -0.024371 0.334665
0.188705 -0.019183 0.359646
0.177879 -0.0192086 0.35964
0.172455 -0.0192215 0.359637
0.161585 -0.0192473 0.35963
0.191724 -0.00739937 -0.369437
0.191695 -0.00697926 -0.41808
0.180972 -0.00695282 -0.423251
0.169881 -0.00697162 -0.423257
0.161523 -0.00698578 -0.423262
0.150326 -0.00700475 -0.423269
0.141889 -0.00701905 -0.423274
0.130585 -0.00703821 -0.42328
0.122066 -0.00705264 -0.423286
0.110654 -0.00707198 -0.423292
0.102053 -0.00708656 -0.423297
0.0905308 -0.00710608 -0.423304
0.0818471 -0.0071208 -0.423309
0.0702127 -0.00714051 -0.423316
0.0614445 -0.00715537 -0.423322
0.0496968 -0.00717528 -0.423329
0.0408429 -0.00719028 -0.423334
0.0319519 -0.00720535 -0.423339
0.0200392 -0.00722553 -0.423346
0.0110608 -0.00724075 -0.423351
0.00204448 -0.00725603 -0.423357
-0.0100366 -0.0072765 -0.423364
-0.0191423 -0.00729193 -0.423369
-0.0282867 -0.00730743 -0.423375
-0.0405398 -0.00732819 -0.423382
-0.0497754 -0.00734384 -0.423387
-0.0590506 -0.00735956 -0.423393
-0.0683655 -0.00737534 -0.423398
-0.0777206 -0.00739119 -0.423404
-0.0902566 -0.00741244 -0.423411
-0.0997061 -0.00742845 -0.423417
-0.109196 -0.00744453 -0.423423
-0.118728 -0.00746068 -0.423428
-0.128301 -0.00747691 -0.423434
-0.137916 -0.0074932 -0.42344
0.188705 -0.00822128 0.359646
0.177879 -0.00823228 0.35964
0.172455 -0.0082378 0.359637
0.161585 -0.00824885 0.35963
-0.147572 -0.00450574 -0.423445
-0.160514 -0.0045189 -0.423453
-0.17027 -0.00452882 -0.423459
-0.180068 -0.00453878 -0.423465
-0.18991 -0.00454879 -0.423471
0.188705 0.00274044 0.359646
0.177879 0.00274411 0.35964
0.172455 0.00274595 0.359637
0.161585 0.00274963 0.35963
0.191724 0.00443961 -0.369437
0.191695 0.00418754 -0.41808
0.180972 0.00417168 -0.423251
0.169881 0.00418295 -0.423257
0.161523 0.00419145 -0.423262
0.150326 0.00420284 -0.423269
0.141889 0.00421141 -0.423274
0.130585 0.00422291 -0.42328
0.122066 0.00423157 -0.423286
0.110654 0.00424317 -0.423292
0.102053 0.00425192 -0.423297
0.0905308 0.00426363 -0.423304
0.0818471 0.00427246 -0.423309
0.0702127 0.00428429 -0.423316
0.0614445 0.00429321 -0.423322
0.0496968 0.00430515 -0.423329
0.0408429 0.00431415 -0.423334
0.0319519 0.00432319 -0.423339
0.0200392 0.0043353 -0.423346
0.0110608 0.00434443 -0.423351
0.00204448 0.0043536 -0.423357
-0.0100366 0.00436588 -0.423364
-0.0191423 0.00437514 -0.423369
-0.0282867 0.00438444 -0.423375
-0.0405398 0.0043969 -0.423382
-0.0497754 0.00440629 -0.423387
-0.0590506 0.00441572 -0.423393
-0.0683655 0.00442519 -0.423398
-0.0777206 0.0044347 -0.423404
-0.0902566 0.00444745 -0.423411
-0.0997061 0.00445705 -0.423417
-0.109196 0.0044667 -0.423423
-0.118728 0.00447639 -0.423428
-0.128301 0.00448613 -0.423434
-0.137916 0.0044959 -0.42344
-0.147572 0.00450572 -0.423445
-0.160514 0.00451888 -0.423453
-0.17027 0.0045288 -0.423459
-0.180068 0.00453876 -0.423465
-0.18991 0.00454877 -0.423471
0.188705 0.0137021 0.359646
0.177879 0.0137205 0.35964
0.172455 0.0137297 0.359637
0.161585 0.0137481 0.35963
0.188705 0.0246638 0.359646
0.177879 0.0246968 0.35964
0.172455 0.0247134 0.359637
0.161585 0.0247465 0.35963
0.191724 0.0133189 -0.369437
0.191695 0.0125627 -0.41808
0.180972 0.0125151 -0.423251
0.169881 0.0125489 -0.423257
0.161523 0.0125744 -0.423262
0.150326 0.0126085 -0.423269
0.141889 0.0126343 -0.423274
0.130585 0.0126688 -0.42328
0.122066 0.0126947 -0.423286
0.110654 0.0127296 -0.423292
0.102053 0.0127558 -0.423297
0.0905308 0.0127909 -0.423304
0.0818471 0.0128174 -0.423309
0.0702127 0.0128529 -0.423316
0.0614445 0.0128797 -0.423322
0.0496968 0.0129155 -0.423329
0.0408429 0.0129425 -0.423334
0.0319519 0.0129696 -0.423339
0.0200392 0.013006 -0.423346
0.0110608 0.0130333 -0.423351
0.00204448 0.0130608 -0.423357
-0.0100366 0.0130977 -0.423364
-0.0191423 0.0131255 -0.423369
-0.0282867 0.0131534 -0.423375
-0.0405398 0.0131907 -0.423382
-0.0497754 0.0132189 -0.423387
-0.0590506 0.0132472 -0.423393
-0.0683655 0.0132756 -0.423398
-0.0777206 0.0133041 -0.423404
-0.0902566 0.0133424 -0.423411
-0.0997061 0.0133712 -0.423417
-0.109196 0.0134002 -0.423423
-0.118728 0.0134292 -0.423428
-0.128301 0.0134584 -0.423434
-0.137916 0.0134878 -0.42344
-0.147572 0.0135172 -0.423445
-0.160514 0.0135567 -0.423453
-0.17027 0.0135864 -0.423459
-0.180068 0.0136163 -0.423465
-0.18991 0.0136463 -0.423471
0.188705 0.0356255 0.359646
0.177879 0.0356732 0.35964
0.172455 0.0356971 0.359637
0.161585 0.035745 0.35963
-0.144349 0.0225123 -0.423443
-0.154034 0.0225615 -0.423449
-0.163761 0.022611 -0.423455
-0.173531 0.0226607 -0.423461
-0.183344 0.0227105 -0.423467
-0.1932 0.0227607 -0.423472
0.188705 0.0465871 0.359646
0.177879 0.0466495 0.35964
0.172455 0.0466808 0.359637
0.161585 0.0467434 0.35963
0.191724 0.0251578 -0.369437
0.191695 0.0237295 -0.41808
0.180972 0.0236396 -0.423251
0.169881 0.0237035 -0.423257
0.161523 0.0237516 -0.423262
0.150326 0.0238161 -0.423269
0.141889 0.0238648 -0.423274
0.130585 0.0239299 -0.42328
0.122066 0.023979 -0.423286
0.110654 0.0240447 -0.423292
0.102053 0.0240943 -0.423297
0.0905308 0.0241606 -0.423304
0.0818471 0.0242107 -0.423309
0.0702127 0.0242777 -0.423316
0.0614445 0.0243282 -0.423322
0.0496968 0.0243959 -0.423329
0.0408429 0.0244469 -0.423334
0.0319519 0.0244982 -0.423339
0.0200392 0.0245668 -0.423346
0.0110608 0.0246185 -0.423351
0.00204448 0.0246705 -0.423357
-0.0100366 0.0247401 -0.423364
-0.0191423 0.0247925 -0.423369
-0.0282867 0.0248452 -0.423375
-0.0405398 0.0249158 -0.423382
-0.0497754 0.024969 -0.423387
-0.0590506 0.0250225 -0.423393
-0.0683655 0.0250761 -0.423398
-0.0777206 0.02513 -0.423404
-0.0902566 0.0252023 -0.423411
-0.0997061 0.0252567 -0.423417
-0.109196 0.0253114 -0.423423
-0.118728 0.0253663 -0.423428
-0.128301 0.0254215 -0.423434
0.188705 0.0575488 0.359646
0.177879 0.0576259 0.35964
0.172455 0.0576645 0.359637
0.161585 0.0577418 0.35963
0.191724 0.0340371 -0.369437
0.113513 0.0325088 -0.423291
0.104924 0.0325758 -0.423296
0.0963 0.032643 -0.423301
0.0847456 0.0327331 -0.423308
0.0760379 0.0328009 -0.423313
0.067294 0.0328691 -0.423318
0.0555788 0.0329604 -0.423325
0.0467496 0.0330292 -0.42333
0.0349197 0.0331214 -0.423337
0.026004 0.0331909 -0.423343
0.0170506 0.0332607 -0.423348
0.00505415 0.0333543 -0.423355
-0.00398755 0.0334247 -0.42336
-0.0130675 0.0334955 -0.423366
-0.0252342 0.0335903 -0.423373
-0.0344046 0.0336618 -0.423378
-0.0436139 0.0337336 -0.423384
-0.0528627 0.0338057 -0.423389
-0.0652561 0.0339023 -0.423397
-0.0745978 0.0339751 -0.423402
-0.0839796 0.0340483 -0.423408
-0.0934019 0.0341217 -0.423413
-0.102865 0.0341955 -0.423419
-0.115546 0.0342943 -0.423427
-0.125105 0.0343688 -0.423432
-0.134706 0.0344437 -0.423438
-0.144349 0.0345189 -0.423443
-0.154034 0.0345943 -0.423449
-0.163761 0.0346702 -0.423455
-0.173531 0.0347463 -0.423461
-0.183344 0.0348228 -0.423467
-0.1932 0.0348997 -0.423472
0.188705 0.0685105 0.359646
0.177879 0.0686022 0.35964
0.172455 0.0686482 0.359637
0.161585 0.0687403 0.35963
0.191695 0.0348963 -0.41808
0.180972 0.0347641 -0.423251
0.169881 0.034858 -0.423257
0.161523 0.0349289 -0.423262
0.150326 0.0350237 -0.423269
0.141889 0.0350952 -0.423274
0.130585 0.035191 -0.42328
0.188705 0.0794722 0.359646
0.177879 0.0795786 0.35964
0.172455 0.079632 0.359637
0.161585 0.0797388 0.35963
0.191724 0.0429164 -0.369437
-0.0405398 0.0425035 -0.423382
-0.0497754 0.0425943 -0.423387
-0.0590506 0.0426854 -0.423393
-0.0683655 0.042777 -0.423398
-0.0777206 0.0428689 -0.423404
-0.0902566 0.0429921 -0.423411
-0.0997061 0.043085 -0.423417
-0.109196 0.0431783 -0.423423
-0.118728 0.043272 -0.423428
-0.128301 0.0433661 -0.423434
-0.137916 0.0434606 -0.42344
-0.147572 0.0435555 -0.423445
-0.160514 0.0436827 -0.423453
-0.17027 0.0437785 -0.423459
-0.180068 0.0438748 -0.423465
-0.18991 0.0439716 -0.423471
0.191695 0.0432714 -0.41808
0.180972 0.0431075 -0.423251
0.169881 0.043224 -0.423257
0.161523 0.0433118 -0.423262
0.150326 0.0434294 -0.423269
0.141889 0.0435181 -0.423274
0.130585 0.0436369 -0.42328
0.122066 0.0437264 -0.423286
0.110654 0.0438463 -0.423292
0.102053 0.0439366 -0.423297
0.0905308 0.0440577 -0.423304
0.0818471 0.0441489 -0.423309
0.0702127 0.0442711 -0.423316
0.0614445 0.0443633 -0.423322
0.0496968 0.0444867 -0.423329
0.0408429 0.0445797 -0.423334
0.0319519 0.0446731 -0.423339
0.0200392 0.0447983 -0.423346
0.0110608 0.0448926 -0.423351
0.00204448 0.0449873 -0.423357
-0.0100366 0.0451143 -0.423364
-0.0191423 0.0452099 -0.423369
-0.0282867 0.045306 -0.423375
0.188705 0.0904339 0.359646
0.177879 0.090555 0.35964
0.172455 0.0906157 0.359637
0.161585 0.0907372 0.35963
-0.144349 0.0525287 -0.423443
-0.154034 0.0526436 -0.423449
-0.163761 0.0527589 -0.423455
-0.173531 0.0528748 -0.423461
-0.183344 0.0529912 -0.423467
-0.1932 0.0531081 -0.423472
0.191724 0.0547553 -0.369437
0.0963 0.0525126 -0.423301
0.0847456 0.0526575 -0.423308
0.0760379 0.0527667 -0.423313
0.067294 0.0528764 -0.423318
0.0555788 0.0530233 -0.423325
0.0467496 0.053134 -0.42333
0.0349197 0.0532823 -0.423337
0.026004 0.0533941 -0.423343
0.0170506 0.0535064 -0.423348
0.00505415 0.0536568 -0.423355
-0.00398755 0.0537702 -0.42336
-0.0130675 0.0538841 -0.423366
-0.0252342 0.0540367 -0.423373
-0.0344046 0.0541516 -0.423378
-0.0436139 0.0542671 -0.423384
-0.0528627 0.0543831 -0.423389
-0.0652561 0.0545385 -0.423397
-0.0745978 0.0546557 -0.423402
-0.0839796 0.0547733 -0.423408
-0.0934019 0.0548915 -0.423413
-0.102865 0.0550101 -0.423419
-0.115546 0.0551691 -0.423427
-0.125105 0.055289 -0.423432
-0.134706 0.0554094 -0.423438
0.191695 0.0544382 -0.41808
0.180972 0.054232 -0.423251
0.169881 0.0543786 -0.423257
0.161523 0.054489 -0.423262
0.150326 0.054637 -0.423269
0.141889 0.0547486 -0.423274
0.130585 0.054898 -0.42328
0.122066 0.0550106 -0.423286
0.110654 0.0551614 -0.423292
0.191724 0.0636346 -0.369437
-0.00700994 0.0625337 -0.423362
-0.0130675 0.062622 -0.423366
-0.0252342 0.0627993 -0.423373
-0.0344046 0.062933 -0.423378
-0.0436139 0.0630672 -0.423384
-0.0528627 0.063202 -0.423389
-0.0652561 0.0633826 -0.423397
-0.0745978 0.0635187 -0.423402
-0.0839796 0.0636554 -0.423408
-0.0934019 0.0637927 -0.423413
-0.102865 0.0639307 -0.423419
-0.115546 0.0641155 -0.423427
-0.125105 0.0642548 -0.423432
-0.134706 0.0643947 -0.423438
-0.144349 0.0645352 -0.423443
-0.154034 0.0646764 -0.423449
-0.163761 0.0648181 -0.423455
-0.173531 0.0649605 -0.423461
-0.183344 0.0651035 -0.423467
-0.1932 0.0652471 -0.423472
0.191695 0.0628133 -0.41808
0.180972 0.0625754 -0.423251
0.169881 0.0627445 -0.423257
0.161523 0.062872 -0.423262
0.150326 0.0630427 -0.423269
0.141889 0.0631714 -0.423274
0.130585 0.0633438 -0.42328
0.122066 0.0634737 -0.423286
0.110654 0.0636478 -0.423292
0.102053 0.063779 -0.423297
0.0905308 0.0639547 -0.423304
0.0818471 0.0640871 -0.423309
0.0702127 0.0642646 -0.423316
0.0614445 0.0643983 -0.423322
0.0496968 0.0645775 -0.423329
0.0408429 0.0647125 -0.423334
0.0319519 0.0648481 -0.423339
0.0200392 0.0650298 -0.423346
0.0110608 0.0651667 -0.423351
0.191724 0.0725138 -0.369437
-0.0839796 0.0725376 -0.423408
-0.0934019 0.0726941 -0.423413
-0.102865 0.0728512 -0.423419
-0.115546 0.0730618 -0.423427
-0.125105 0.0732206 -0.423432
-0.134706 0.07338 -0.423438
-0.144349 0.0735401 -0.423443
-0.154034 0.073701 -0.423449
-0.163761 0.0738625 -0.423455
-0.173531 0.0740248 -0.423461
-0.183344 0.0741877 -0.423467
-0.1932 0.0743514 -0.423472
0.0876402 0.072532 -0.423306
0.0818471 0.0726321 -0.423309
0.0702127 0.0728332 -0.423316
0.0614445 0.0729847 -0.423322
0.0496968 0.0731878 -0.423329
0.0408429 0.0733408 -0.423334
0.0319519 0.0734945 -0.423339
0.0200392 0.0737004 -0.423346
0.0110608 0.0738556 -0.423351
0.00204448 0.0740114 -0.423357
-0.0100366 0.0742203 -0.423364
-0.0191423 0.0743776 -0.423369
-0.0282867 0.0745357 -0.423375
-0.0405398 0.0747475 -0.423382
-0.0497754 0.0749071 -0.423387
-0.0590506 0.0750675 -0.423393
-0.0683655 0.0752285 -0.423398
0.191695 0.0739801 -0.41808
0.180972 0.0736999 -0.423251
0.169881 0.0738991 -0.423257
0.161523 0.0740492 -0.423262
0.150326 0.0742503 -0.423269
0.141889 0.0744019 -0.423274
0.130585 0.0746049 -0.42328
0.122066 0.0747579 -0.423286
0.110654 0.0749629 -0.423292
0.102053 0.0751174 -0.423297
-0.144349 0.0825451 -0.423443
-0.154034 0.0827256 -0.423449
-0.163761 0.0829069 -0.423455
-0.173531 0.083089 -0.423461
-0.183344 0.083272 -0.423467
-0.1932 0.0834557 -0.423472
0.191724 0.0843528 -0.369437
0.0110608 0.0825445 -0.423351
0.00204448 0.0827186 -0.423357
-0.0100366 0.082952 -0.423364
-0.0191423 0.0831279 -0.423369
-0.0282867 0.0833046 -0.423375
-0.0405398 0.0835413 -0.423382
-0.0497754 0.0837197 -0.423387
-0.0590506 0.0838989 -0.423393
-0.0683655 0.0840788 -0.423398
-0.0777206 0.0842596 -0.423404
-0.0902566 0.0845017 -0.423411
-0.0997061 0.0846843 -0.423417
-0.109196 0.0848676 -0.423423
-0.118728 0.0850517 -0.423428
-0.128301 0.0852367 -0.423434
0.155932 0.0825439 -0.423266
0.144705 0.0827684 -0.423272
0.136244 0.0829376 -0.423277
0.12491 0.0831643 -0.423284
0.116368 0.0833351 -0.423289
0.104924 0.0835639 -0.423296
0.0963 0.0837364 -0.423301
0.0847456 0.0839674 -0.423308
0.0760379 0.0841415 -0.423313
0.067294 0.0843164 -0.423318
0.0555788 0.0845506 -0.423325
0.0467496 0.0847272 -0.42333
0.0349197 0.0849637 -0.423337
0.026004 0.085142 -0.423343
0.191695 0.0851469 -0.41808
0.180972 0.0848244 -0.423251
0.169881 0.0850537 -0.423257
-0.1932 0.0925599 -0.423472
-0.0497754 0.0925323 -0.423387
-0.0590506 0.0927304 -0.423393
-0.0683655 0.0929293 -0.423398
-0.101133 0.100927 -0.356366
0.0847456 0.0925065 -0.423308
0.0760379 0.0926983 -0.423313
0.067294 0.0928909 -0.423318
-0.0493147 0.15091 0.0704277
-0.0486747 0.148239 0.0467654
-0.0480505 0.145658 0.0238979
-0.0474509 0.143166 0.00182712
-0.0468654 0.140755 -0.0195266
-0.0463047 0.138427 -0.0401504
-0.0457606 0.136174 -0.0601105
-0.045234 0.133992 -0.0794309
-0.0447239 0.13188 -0.0981419
-0.0442296 0.129833 -0.116272
-0.0437504 0.127849 -0.133849
-0.0432857 0.125925 -0.150896
-0.0428347 0.124057 -0.167438
-0.042397 0.122244 -0.183496
-0.0419719 0.120484 -0.199091
-0.0415588 0.118773 -0.214244
-0.0411573 0.11711 -0.228972
-0.0407669 0.115494 -0.243294
-0.0403869 0.113921 -0.257226
-0.0400173 0.11239 -0.270784
-0.0396574 0.1109 -0.283982
-0.0393069 0.109449 -0.296835
-0.0389655 0.108036 -0.309356
-0.0386327 0.106658 -0.321558
-0.0383083 0.105315 -0.333452
-0.0379921 0.104006 -0.34505
-0.0385836 0.103062 -0.35357
-0.0483297 0.103214 -0.354142
-0.0581042 0.103365 -0.354716
-0.0679281 0.103524 -0.355233
-0.0777875 0.103685 -0.355739
-0.0876877 0.10385 -0.356219
0.189251 0.0929797 -0.423246
-0.055238 0.175327 0.240097
-0.0543924 0.171832 0.210071
-0.0535799 0.168474 0.181218
-0.0527985 0.165245 0.153471
-0.0520466 0.162137 0.126768
-0.051329 0.159148 0.101081
-0.0550285 0.174361 0.188129
-0.053433 0.167771 0.133159
-0.0519601 0.161665 0.0822204
-0.0512596 0.158773 0.0581015
-0.0505939 0.155989 0.0348744
-0.0499349 0.153292 0.0123785
-0.0493097 0.150693 -0.00930464
-0.0487059 0.14818 -0.0302631
-0.0481179 0.145748 -0.0505501
-0.0475488 0.143395 -0.0701821
-0.0469979 0.141116 -0.08919
-0.0464642 0.138909 -0.107603
-0.0459469 0.136769 -0.12545
-0.0454453 0.134695 -0.142754
-0.0449587 0.132682 -0.159542
-0.0444864 0.130729 -0.175835
-0.0440279 0.128833 -0.191656
-0.0427284 0.123459 -0.236479
-0.0419206 0.120119 -0.264341
-0.0415329 0.118516 -0.277714
-0.0400803 0.11251 -0.327817
-0.100654 0.110383 -0.357576
-0.0556461 0.176817 0.166823
-0.0540504 0.170227 0.113416
-0.0533031 0.167117 0.0882076
-0.0512054 0.158428 0.0177753
-0.044605 0.131143 -0.203376
-0.044156 0.129288 -0.218416
-0.043295 0.12573 -0.247254
-0.0420889 0.120745 -0.287654
-0.0417078 0.119171 -0.300418
-0.0413366 0.117636 -0.312853
-0.0402779 0.113262 -0.34831
-0.0477965 0.112532 -0.35574
-0.0575869 0.11271 -0.356214
-0.0707094 0.112956 -0.356793
-0.0805972 0.113144 -0.357206
-0.090537 0.113339 -0.357571
-0.0546542 0.172618 0.0942305
-0.0539011 0.169504 0.0696864
-0.0531703 0.166498 0.0459929
-0.051953 0.160888 0.00174904
-0.0511495 0.1581 -0.0202008
-0.0505144 0.155483 -0.0408306
-0.0499017 0.152952 -0.0607816
-0.0493086 0.150501 -0.0800937
-0.0487342 0.148128 -0.0987966
-0.0476381 0.1436 -0.134487
-0.046607 0.139341 -0.168061
-0.0438501 0.127954 -0.257809
-0.110428 0.116904 -0.358531
-0.0537658 0.168828 0.028651
-0.0493062 0.150412 -0.112603
-0.0482051 0.145866 -0.147473
-0.0471685 0.141587 -0.180298
-0.0466727 0.13954 -0.195999
-0.0461909 0.137552 -0.211252
-0.0452675 0.13374 -0.24049
-0.044394 0.130134 -0.268152
-0.0439746 0.128402 -0.28143
-0.100279 0.119849 -0.358524
-0.0565894 0.180431 0.0814761
-0.0558101 0.177206 0.0573854
-0.0543244 0.171085 0.0116656
-0.0536285 0.168186 -0.0099926
-0.052943 0.165376 -0.0309812
-0.0522935 0.162666 -0.0512258
-0.0516569 0.160039 -0.0708493
-0.0510406 0.157496 -0.0898488
-0.0498648 0.152644 -0.126092
-0.0487593 0.148082 -0.16017
-0.046735 0.13973 -0.22256
-0.0458062 0.135897 -0.251188
-0.0445047 0.130527 -0.291302
-0.0440934 0.12883 -0.303977
-0.0433022 0.125565 -0.328366
-0.0429214 0.123994 -0.340102
-0.0802187 0.12256 -0.358223
-0.0901735 0.122782 -0.358518
-0.110236 0.123242 -0.359002
-0.0571455 0.182631 0.0631483
-0.0563729 0.179413 0.0397252
-0.0515899 0.159688 -0.10387
-0.0504106 0.154824 -0.139274
-0.0493011 0.150248 -0.172586
-0.0487706 0.14806 -0.188514
-0.046334 0.138011 -0.261668
-0.0446105 0.130903 -0.313409
-0.0434294 0.126035 -0.34885
-0.050498 0.125037 -0.357553
-0.0603187 0.125251 -0.357916
-0.0701959 0.125475 -0.358217
-0.0569025 0.181552 0.0224465
-0.0554329 0.175449 -0.0208828
-0.0547251 0.172543 -0.0415107
-0.0540438 0.169733 -0.0614531
-0.0533841 0.167014 -0.080757
-0.0509442 0.156955 -0.15216
-0.0492987 0.150172 -0.200312
-0.0487814 0.14804 -0.215451
-0.0477896 0.143951 -0.244474
-0.0468511 0.140082 -0.271937
-0.0464005 0.138225 -0.285123
-0.0451177 0.132937 -0.322661
-0.10001 0.129335 -0.359204
-0.0539099 0.169111 -0.0949985
-0.0532703 0.166475 -0.113254
-0.0526503 0.16392 -0.130949
-0.0514658 0.159039 -0.164758
-0.0492963 0.1501 -0.226675
-0.0469051 0.140246 -0.294926
-0.046464 0.138429 -0.307515
-0.0452068 0.133248 -0.343397
-0.110033 0.132769 -0.359498
-0.0564698 0.179588 -0.0519025
-0.0557656 0.176687 -0.0715177
-0.0531625 0.165965 -0.144027
-0.0519758 0.161077 -0.177078
-0.0514083 0.15874 -0.192885
-0.0488013 0.148001 -0.265501
-0.0469112 0.134306 -0.358394
-0.0534554 0.134467 -0.358589
-0.0633218 0.134717 -0.358825
-0.0732304 0.134971 -0.359046
-0.0831873 0.13523 -0.35924
-0.0562671 0.178685 -0.0859845
-0.0555854 0.175878 -0.104526
-0.0549248 0.173158 -0.122493
-0.0536631 0.167963 -0.156812
-0.0519063 0.16073 -0.204594
-0.0513538 0.158455 -0.21962
-0.0508168 0.156244 -0.234226
-0.0502946 0.154093 -0.248431
-0.049292 0.149966 -0.275698
-0.0488106 0.147984 -0.288791
-0.0931443 0.138663 -0.359532
-0.0554149 0.175113 -0.135769
-0.0541526 0.169917 -0.169312
-0.0535491 0.167433 -0.185349
-0.04929 0.149903 -0.298527
-0.0488195 0.147966 -0.31103
-0.0483611 0.146079 -0.323213
-0.0479141 0.14424 -0.33509
-0.116731 0.142537 -0.359708
-0.0540275 0.169344 -0.197224
-0.0512525 0.157926 -0.269308
-0.0483794 0.146104 -0.343939
-0.0479416 0.144304 -0.355305
-0.0598295 0.144041 -0.359317
-0.0697449 0.144324 -0.359467
-0.0797173 0.144617 -0.359569
-0.103187 0.145322 -0.359701
-0.0563621 0.17889 -0.161429
-0.0557216 0.176256 -0.1777
-0.0544956 0.171213 -0.208846
-0.0539086 0.168798 -0.22376
-0.0533379 0.166451 -0.23826
-0.0527828 0.164168 -0.252361
-0.0517171 0.159784 -0.279434
-0.0512053 0.157679 -0.292436
-0.0897216 0.148091 -0.359694
-0.0561798 0.178084 -0.189747
-0.0516597 0.159498 -0.302105
-0.0506734 0.155442 -0.326624
-0.0501988 0.153491 -0.338421
-0.0566281 0.179873 -0.201534
-0.0542436 0.170071 -0.259559
-0.0536874 0.167785 -0.273091
-0.0521055 0.161282 -0.311588
-0.0501807 0.153358 -0.358493
-0.0597226 0.153483 -0.359624
-0.0696673 0.153801 -0.359682
-0.0796746 0.154131 -0.359684
-0.099922 0.154842 -0.359426
-0.110396 0.155325 -0.358608
-0.117617 0.155736 -0.357575
-0.0564457 0.179071 -0.227872
-0.0558418 0.176589 -0.242266
-0.0541263 0.169539 -0.283146
-0.0525426 0.163031 -0.320889
-0.0898219 0.157694 -0.359433
-0.056272 0.178307 -0.252948
-0.0545565 0.171259 -0.293004
-0.0540144 0.169032 -0.305661
-0.0529714 0.164747 -0.330013
-0.0524695 0.162685 -0.341732
-0.113098 0.162979 -0.351981
-0.0566936 0.17999 -0.263413
-0.0561065 0.177579 -0.276849
-0.0528887 0.164367 -0.350468
-0.0530876 0.162737 -0.359667
-0.0630349 0.163091 -0.359638
-0.0731466 0.163509 -0.359276
-0.0983344 0.165174 -0.354876
-0.0565199 0.179231 -0.286834
-0.0843083 0.167629 -0.35626
-0.0563541 0.178506 -0.309194
-0.0557977 0.176221 -0.321442
-0.0552552 0.173995 -0.333381
-0.055127 0.173418 -0.353691
-0.0641753 0.173242 -0.356406
