ply
format ascii 1.0
comment Created by Open3D
element vertex 1621
property double x
property double y
property double z
end_header
-0.146742 -0.111227 -0.201442
-0.316826 0.157335 0.000153255
-0.277085 0.258574 -0.171505
-0.166032 -0.169622 -0.206273
-0.0964094 -0.146669 0.0879109
0.00475037 -0.112421 0.219729
-0.296095 0.208394 0.197777
-0.183227 -0.237367 -0.219051
-0.113213 -0.0519882 -0.0584249
-0.248799 0.130674 0.200402
0.266669 -0.112707 0.008441
-0.22905 0.115158 -0.205052
0.336677 -0.0809973 0.0411218
0.0415318 -0.0498141 0.207761
-0.27909 0.17604 0.0451522
0.112067 -0.105544 -0.232398
-0.271025 0.164173 0.151071
0.126812 -0.0294894 -0.0660725
-0.300495 0.18678 0.182146
-0.0508836 -0.12579 0.226702
-0.148504 -0.133626 -0.0705175
-0.161126 -0.00942631 0.202106
0.0425603 -0.109956 0.0431887
-0.256352 0.127086 0.162061
-0.058611 -0.117741 0.0398083
-0.136416 -0.138409 -0.0498659
0.29204 -0.207242 -0.24913
-0.155447 -0.0798979 -0.011083
-0.105258 -0.0540223 0.174596
0.238475 -0.118068 -0.0940922
-0.122268 -0.182605 -0.205773
-0.32163 0.210464 0.135766
-0.216825 0.0844203 -0.107335
-0.304878 0.224208 -0.16077
-0.19519 0.0824405 0.202134
0.0865412 -0.103017 0.225997
0.281677 -0.0175733 -0.0239499
-0.305895 0.215483 0.0668614
-0.299995 0.2068 0.177411
0.110151 -0.13043 0.110943
0.18339 -0.112132 -0.23156
0.293073 -0.0906797 -0.183936
-0.283509 0.0995431 -0.0371465
-0.150345 -0.0404176 0.145539
-0.31559 0.214297 -0.088662
0.0396996 -0.134659 -0.176609
0.0944219 -0.127429 -0.0134092
0.296348 -0.168005 0.232334
-0.138256 -0.0311919 0.0120677
-0.287643 0.188626 0.0851624
0.0798396 -0.134442 -0.129195
-0.230608 0.134295 -0.2011
-0.216823 0.0844163 0.0236631
-0.106654 -0.103615 0.00861556
0.295058 -0.0931106 -0.0981857
-0.150665 -0.129786 -0.223036
0.0592079 -0.134364 -0.163205
-0.274755 0.249689 0.135355
-0.293484 0.130591 0.0574125
0.159612 -0.100949 -0.188874
0.132484 -0.12441 0.0327424
0.308136 -0.112108 0.170211
0.118125 -0.104142 0.114115
0.090125 -0.114258 0.234249
-0.32268 0.178447 0.0732656
0.0178971 -0.134061 0.0235453
-0.118096 0.0632866 -0.0698842
0.17474 -0.122459 0.0754181
-0.183884 -0.0230946 -0.0422043
0.295058 -0.108173 0.0993992
-0.176734 -0.0187716 0.0970733
-0.114833 -0.0391629 0.201677
-0.135934 -0.034608 0.0451295
-0.0970891 0.0897022 0.204276
-0.289154 0.240254 -0.104121
-0.0246689 -0.121293 0.228464
-0.319648 0.177416 -0.00271528
-0.0661289 -0.0223844 -0.00443227
-0.141167 0.0972333 0.0220817
-0.147226 -0.14236 -0.225341
-0.158731 0.0102287 -0.212047
0.21014 -0.117582 -0.013473
-0.051192 -0.114484 0.218533
-0.242 0.0593655 0.0721719
0.282231 -0.24502 0.236907
-0.137066 -0.0805933 -0.0434122
0.255554 -0.101393 -0.224542
-0.200747 0.023353 0.128596
-0.206991 0.194092 -0.141274
0.257777 -0.0933957 -0.15922
-0.139572 0.053658 -0.198234
0.0212005 -0.0962142 -0.207884
0.133092 0.0936191 -0.232397
0.125879 -0.16273 -0.222517
-0.0802919 -0.147619 -0.140572
0.0598461 -0.13069 0.040782
-0.0705582 -0.00666407 0.00379612
-0.28813 0.123352 0.0604428
0.282465 -0.0075189 -0.238391
0.280999 -0.0916088 0.14401
-0.250112 0.135341 0.225122
-0.11549 -0.0768097 -0.0754632
-0.189536 0.115482 -0.199032
-0.0361578 -0.118767 -0.209396
-0.119566 0.0654486 0.152075
-0.198187 -0.0158825 0.0208031
0.00397342 -0.134999 0.00209711
-0.017669 -0.117488 0.211421
0.158523 -0.126015 -0.164179
0.278424 0.113068 -0.250695
-0.108069 -0.060715 -0.172189
0.197094 -0.0240816 -0.0853729
0.311353 -0.0240686 0.248479
-0.180931 0.0316024 0.12002
0.227464 -0.121557 -0.12853
-0.129709 -0.0681778 -0.215825
-0.124303 -0.0517229 -0.145428
-0.225936 0.124795 -0.200625
0.24711 -0.16273 0.232737
-0.260411 0.260832 0.00326843
-0.179437 -0.217786 0.216662
0.197908 -0.0980025 0.0939185
-0.129712 -0.0833158 0.040461
0.0178825 -0.116481 0.230686
0.123487 -0.124953 -0.0130563
0.181442 -0.185792 -0.229135
-0.130317 -0.185792 0.214256
-0.127405 -0.0838117 -0.00560088
-0.250819 0.11864 0.161663
0.30836 0.101933 -0.225137
-0.0926403 -0.0380072 0.145791
-0.20757 0.0372346 -0.130141
-0.319269 0.227856 0.116781
0.281444 -0.0915745 -0.101425
-0.0531355 -0.140943 -0.0548567
-0.209671 0.0738924 -0.0277008
-0.145428 -0.00115426 -0.22407
0.0514123 -0.109275 -0.0648936
-0.0280332 -0.0467089 0.199232
-0.193055 0.049443 0.0436598
-0.163816 0.130561 -0.12532
-0.101502 -0.0440293 0.112294
0.0920963 -0.0321606 0.0428612
0.302613 -0.0159624 0.0385886
-0.299264 0.166568 0.0994805
-0.192065 0.172128 -0.136108
0.248175 -0.0201511 0.074752
-0.243511 0.0357141 0.00680155
-0.192155 0.048119 -0.00382657
0.156279 -0.125007 0.0916803
-0.304842 0.213933 0.0496543
-0.0686025 -0.0445256 0.0687552
-0.160961 -0.0235798 -0.154941
-0.145288 -0.030759 0.169363
-0.116072 0.0603082 -0.154648
-0.280343 0.117884 -0.0859098
-0.286248 0.103166 0.0308996
-0.321421 0.228394 -0.0165322
0.316586 -0.0888704 0.0946509
0.201926 -0.180297 -0.233898
-0.142473 -0.0249865 0.0918335
-0.156705 -0.004044 0.0411073
-0.143905 -0.0407926 -0.206639
-0.0373927 -0.12403 0.228343
-0.109616 -0.0656461 0.127184
0.131618 -0.185792 -0.222221
-0.289496 0.23997 -0.020932
0.298605 -0.101196 -0.230837
-0.314798 0.218622 0.00935177
-0.255204 0.140893 -0.0378442
-0.257945 0.147304 0.214765
-0.241337 0.11966 0.200359
0.267985 -0.0883565 0.23496
-0.297754 0.189108 0.1635
-0.0848429 -0.0409104 -0.0594375
-0.02063 -0.137334 0.0228331
-0.119057 0.0647002 -0.1114
0.0961782 -0.127303 0.015557
-0.159091 -0.000533752 0.106898
-0.172592 0.0193318 -0.0636685
0.1745 -0.02582 0.103192
0.279144 -0.0917515 -0.147934
-0.236385 0.237343 0.0224415
-0.308203 0.237638 -0.124107
0.0757803 -0.1074 -0.00872764
-0.280486 0.199675 -0.21201
-0.290138 0.161027 -0.146022
0.153213 -0.027458 0.156733
-0.176771 0.0254818 -0.110687
-0.144239 -0.0223875 0.100554
-0.208637 0.0505202 -0.184209
-0.0842823 -0.0405023 0.0604218
-0.0977814 0.0333938 0.0621233
-0.292426 0.195664 0.160848
-0.152177 -0.0107073 0.144754
-0.0827396 0.0112603 0.141028
-0.212653 -0.00992313 -0.00898114
0.0811953 -0.13081 -0.0801804
-0.100068 -0.0469467 0.136979
-0.258457 0.14568 0.013297
-0.23544 0.179319 0.191706
-0.1907 0.0824248 -0.215713
-0.300474 0.229185 0.0854303
0.0459791 -0.133128 -0.0667409
-0.276007 0.0973433 -0.00867056
-0.216665 0.118682 0.189994
-0.285291 0.13036 -0.125578
-0.0439327 -0.116612 -0.0167701
-0.173062 0.144166 -0.120441
-0.18375 0.159893 0.0454791
0.263217 -0.104744 -0.230062
-0.296068 0.247856 -0.0953451
-0.185377 0.162287 -0.128928
-0.0840606 -0.045715 0.102705
-0.158934 -0.024655 -0.164929
0.202029 -0.121437 -0.178146
-0.174358 -0.00895343 0.139229
-0.273814 0.226004 -0.199152
-0.32253 0.194005 -0.140025
-0.136411 -0.0339066 -0.151518
-0.141655 0.0094122 -0.197553
0.295058 -0.09355 0.0375729
0.282133 -0.0915216 -0.0582098
-0.337634 0.199316 -0.0542115
0.169133 -0.121374 0.0400592
-0.103811 -0.109313 -0.106538
-0.156112 -0.00542466 0.181668
-0.215196 0.121651 -0.221701
0.289946 0.000893775 0.22669
0.280703 -0.0916316 -0.0190994
0.245931 -0.0203238 0.0252648
-0.210506 0.0751214 0.149039
-0.230513 0.0576784 0.145318
-0.0963947 -0.146818 -0.168878
-0.0743697 -0.00105563 0.038199
-0.246792 0.0726279 -0.0983005
-0.0570415 -0.140253 -0.0086266
0.0680919 -0.135527 -0.130074
-0.0664828 -0.0228549 0.0481933
-0.129691 -0.150548 -0.211037
-0.151945 -0.0451099 -0.141472
0.000123315 -0.140046 -0.111702
-0.185579 -0.0249822 -0.115971
-0.119919 -0.0568818 0.124215
-0.333056 0.203495 -0.0478158
-0.168813 -0.03145 0.113796
-0.165257 -0.0160163 -0.156967
0.299862 -0.0506244 -0.251579
-0.181694 0.00594631 0.136711
-0.149103 -0.136139 0.0855631
-0.136582 -0.0813118 -0.19063
0.295932 -0.113492 -0.122463
0.188616 -0.0247339 0.0194256
-0.0767709 -0.119139 0.00859836
0.237085 -0.183197 0.229067
-0.101727 0.0392001 0.0286914
-0.2124 0.0779091 0.0966484
0.00807334 -0.139865 -0.146138
0.209883 -0.117104 0.190592
-0.0712188 -0.0447269 -0.0596998
-0.178225 -0.0406327 0.0491935
-0.280561 0.151306 0.145727
-0.321392 0.210354 0.0684658
0.198734 -0.0979389 -0.01128
0.0970259 -0.128359 0.181881
-0.33933 0.198164 0.0396321
-0.126977 -0.0849618 0.198751
-0.313122 0.182871 0.118005
0.272222 -0.0997449 -0.242632
0.154894 0.117096 -0.239124
0.220264 -0.0962823 -0.165681
-0.307153 0.233318 0.0178167
-0.261778 0.106372 -0.123405
-0.14209 -0.149062 -0.0828637
0.263796 -0.0896316 0.241359
-0.0974774 -0.143905 -0.0256001
-0.104921 0.0438988 -0.00364697
-0.0412467 -0.0424207 0.000934072
0.165095 -0.124546 -0.0958655
-0.28066 0.0938486 0.0235642
-0.153499 -0.237524 0.20744
-0.290449 0.240272 -0.0294664
0.173007 -0.0999186 0.158695
-0.175234 0.147362 0.127518
-0.340639 0.19747 0.0276188
-0.199533 0.0589745 -0.0405355
-0.122725 -0.0540445 -0.127817
-0.112417 -0.0621144 0.2227
0.18379 -0.0871458 -0.214873
-0.279755 0.118497 0.0143568
-0.180226 0.0305657 -0.0171493
-0.250055 0.132007 0.2114
-0.283884 0.183095 -0.0368928
0.0629706 -0.116202 0.232944
-0.24057 0.11936 -0.138159
-0.298249 0.204233 -0.0445707
-0.172556 -0.0488038 -0.0574752
-0.0881467 -0.00146892 -0.195163
-0.123566 0.0713351 -0.122274
-0.107122 -0.135445 -0.204985
0.143922 -0.102157 0.19037
-0.297386 0.224684 -0.223055
0.297933 -0.09043 0.153676
-0.293395 0.19709 -0.0383094
0.0682375 -0.111848 -0.232908
0.00782457 -0.16273 0.221646
0.118373 -0.104952 0.219454
-0.00423293 -0.118892 -0.227276
0.146823 -0.108291 -0.236833
-0.0741365 -0.00139871 0.0970053
0.244808 -0.181734 0.239748
-0.275826 0.0903882 -0.00385262
0.301561 -0.235995 -0.251311
-0.119993 0.0660773 0.0328404
0.0143101 -0.0381459 0.15531
-0.119292 0.0650459 -0.0874246
-0.141745 0.0980837 0.154042
-0.148674 -0.19777 0.20121
-0.171806 0.0166617 0.180351
-0.26667 0.108991 -0.113659
-0.0712929 -0.00558303 0.159922
-0.0168486 -0.0405434 -0.186565
-0.18958 0.0443295 -0.160716
0.341878 -0.0427176 -0.0546257
-0.141896 -0.0258359 0.0778148
-0.145409 0.103475 -0.17002
-0.066047 -0.118313 0.172981
0.0833592 0.103044 -0.21242
-0.264637 0.252042 0.133887
-0.107338 -0.0531929 0.155512
0.075025 -0.107458 0.160245
0.342459 -0.06273 0.13839
-0.238789 0.240881 -0.0863578
-0.183277 0.0350554 -0.126869
0.0945404 -0.0319726 0.187926
-0.00424004 -0.113558 -0.141261
-0.156032 -0.004123 -0.21194
0.210514 -0.123627 0.137323
0.213923 -0.116223 0.192142
-0.0684492 -0.021567 -0.166018
0.185645 -0.114946 0.199929
0.308136 -0.102822 -0.134031
0.202526 -0.0236636 -0.110027
-0.154618 -0.0233993 -0.16845
-0.287173 0.223753 0.190161
-0.0740339 -0.118928 0.153581
-0.250464 0.111769 -0.160776
-0.139024 0.0940808 0.107291
-0.0980655 0.0338118 0.138148
-0.313072 0.216009 0.148735
-0.300055 0.242629 -0.0470039
-0.16421 0.0286286 -0.199982
-0.261266 0.147279 -0.186437
0.0767278 -0.0333431 0.101551
0.0413943 -0.133931 -0.0743723
-0.217975 0.012971 -0.0242084
-0.146524 -0.0610396 -0.12804
-0.252283 0.136595 0.100746
-0.277042 0.256783 0.153172
-0.0900992 -0.0445325 0.116484
0.22338 -0.11647 0.0151862
0.245363 0.102336 -0.220145
-0.251451 0.258055 -0.0908374
0.0390831 -0.0362397 -0.0562531
-0.0431151 -0.166016 0.213623
-0.116469 -0.138681 0.211042
0.113983 -0.126044 -0.0370773
0.195911 -0.121806 0.0948509
-0.304374 0.239995 -0.131174
0.0550012 -0.108999 0.0656458
-0.233259 0.108601 0.127893
-0.164136 0.131032 0.100475
-0.299031 0.231239 0.0386653
-0.130856 0.0820623 0.139268
0.0565627 0.112668 -0.212593
-0.254453 0.256686 -0.115167
-0.132938 -0.0390176 0.168073
-0.135632 -0.135117 0.0551578
0.0365804 -0.136418 0.10542
0.209346 -0.0231388 -0.0615895
0.231753 -0.0953982 0.12673
-0.110729 -0.0503004 -0.0745925
-0.211433 0.00344366 -0.0257054
-0.239256 0.241568 0.0788568
-0.110641 -0.070587 0.0453083
-0.0876576 -0.0982899 -0.204446
0.260715 -0.11904 0.133395
-0.147511 -0.200327 0.22283
-0.295892 0.2442 0.129101
0.245554 -0.0912632 0.212076
0.308136 -0.107425 -0.141167
-0.0656691 -0.0714381 -0.206999
-0.11747 -0.0897028 -0.205112
0.0875802 -0.106492 0.00728343
0.288056 -0.07671 0.221233
0.306078 -0.09043 -0.0217167
0.198379 0.116346 -0.24688
-0.209 0.0416059 -0.124975
-0.0200827 -0.137393 0.0318732
0.177199 -0.0256124 -0.0813338
-0.159398 -8.18036e-05 0.0137803
-0.0666049 -0.0230066 0.0894533
-0.295048 0.182725 0.211591
-0.218634 0.211224 0.154067
-0.147319 0.103491 0.18316
-0.218475 0.0868471 0.0967636
-0.262027 0.255306 0.14486
-0.324183 0.189701 0.0979046
-0.218632 0.0608476 -0.177815
-0.321745 0.165487 -0.0215127
-0.282318 0.257691 -0.00866403
0.265157 0.0981159 -0.244666
0.298627 -0.159967 0.251651
0.0698806 -0.107854 -0.117958
-0.286314 0.120924 -0.102924
0.21919 -0.120541 0.172849
0.0212562 -0.0978874 -0.207114
0.327911 -0.087999 -0.0633565
-0.178023 -0.0448365 -0.0368581
0.276432 -0.16273 0.241082
0.338234 -0.0310357 0.119252
0.0652974 -0.129957 -0.0174513
0.178663 -0.121138 -0.0550554
0.295058 -0.106974 0.0131528
-0.154241 -0.0701801 -0.0783484
-0.166962 0.000617884 0.223262
-0.279104 0.176061 -0.0389529
-0.309757 0.22235 0.0507504
-0.200142 0.125646 0.214026
0.0422189 -0.0359984 0.0416011
0.0152343 -0.112059 0.161668
0.0750424 -0.0334728 -0.0687504
0.181402 -0.121273 -0.0621161
-0.244839 0.189543 -0.199215
0.295058 -0.112142 -0.211973
-0.328432 0.200125 -0.1142
0.187465 -0.0988061 0.134109
-0.154163 0.0305072 -0.211842
-0.0958491 -0.0479311 -0.195034
0.181342 -0.0252936 -0.0565679
0.0483403 -0.109512 0.0817721
-0.13488 0.0879825 -0.0450983
-0.116479 -0.073251 0.119964
-0.0608275 -0.122285 0.208434
-0.171885 0.0182926 0.138914
-0.0790747 -0.0362995 -0.177165
-0.168814 -0.00466415 0.191572
-0.159732 -0.0442816 0.114925
-0.301354 0.237927 -0.0884675
-0.271213 0.0905452 -0.0125752
0.118118 -0.0301583 -0.0844535
-0.189361 -0.00229929 -0.0899544
-0.224604 0.220008 -0.117834
-0.150295 -0.0190253 -0.195143
-0.040395 -0.129718 -0.208808
-0.105675 -0.0525513 0.0482119
-0.156107 0.119218 0.0768782
0.297201 -0.113492 -0.102306
0.030046 -0.0956095 0.207656
0.34194 -0.0654412 0.199711
-0.238919 0.0285583 0.00516698
0.240076 -0.104168 0.241114
-0.319054 0.211943 -0.0428086
-0.0973077 -0.167547 0.220891
-0.301994 0.170548 0.125686
0.308136 -0.113417 -0.0528601
-0.108612 0.0493299 0.0835778
0.0380774 -0.0469715 -0.206719
0.062357 -0.13022 0.0188224
-0.214041 0.0803237 0.168536
-0.208666 -0.0143879 -0.024548
0.308136 -0.10615 -0.142142
0.0386413 -0.132019 -0.000433421
-0.216259 0.207729 -0.0674602
0.00768625 -0.13594 0.0588442
0.00326773 -0.11298 0.127539
0.258669 -0.0933271 0.0549829
-0.268724 0.160787 -0.110124
-0.0973252 -0.148733 -0.144463
-0.0681156 -0.1336 0.211507
-0.0693624 -0.16273 0.215883
-0.277657 0.246105 0.103374
0.286206 -0.208552 -0.245221
0.313901 0.0627791 -0.228237
-0.0656959 -0.0443019 0.0586196
-0.298793 0.206992 0.182913
-0.0724196 -0.0448193 0.138706
-0.293146 0.196723 0.0692266
-0.290682 0.193097 0.0345373
-0.264256 0.115899 -0.134539
0.173806 -0.105599 0.214056
0.270429 -0.0873367 -0.23526
-0.316544 0.230582 -0.00625878
0.203005 -0.119022 0.186868
-0.0674984 -0.120153 0.220325
-0.252596 0.0489711 -0.000191025
0.228596 -0.0216576 0.17405
0.225265 -0.118064 -0.0730109
-0.298004 0.203871 -0.143672
-0.108662 -0.0537037 0.0387286
0.0666283 0.102859 -0.240601
-0.175299 0.00843025 0.204674
0.0201386 -0.111682 0.15757
-0.309263 0.222914 -0.0451207
-0.0181829 -0.138932 -0.176076
-0.0529454 -0.117305 -0.00917996
-0.298039 0.230895 -0.102065
-0.296144 0.201135 0.00406988
-0.166728 0.134846 -0.0740449
-0.31038 0.236148 0.106995
0.0731167 -0.107605 0.181593
0.119414 -0.125197 0.00432785
-0.300609 0.241707 0.00700895
-0.276017 0.171519 0.170478
-0.248717 0.13508 0.183438
0.143286 0.106342 0.244713
-0.289384 0.237507 0.174309
0.320823 -0.0145612 0.105216
-0.263928 0.15373 -0.0104503
-0.312444 0.171087 0.0950519
-0.250779 0.258362 0.172457
-0.265372 0.254016 -0.194147
-0.270726 0.260841 0.0294912
-0.21091 0.0566863 0.148381
-0.319004 0.161209 -0.0177783
-0.177274 0.0141983 -0.201781
-0.268597 0.220143 -0.199198
-0.0855966 -0.0332202 -0.103106
-0.23072 0.104866 -0.188866
0.32994 -0.0878429 -0.193205
-0.279396 0.176491 0.0353939
0.0832535 0.113872 -0.229659
0.044177 0.107205 0.21101
0.0227399 -0.135949 0.0823906
-0.258623 0.256365 -0.0551863
0.0638472 -0.122439 -0.219143
-0.147578 -0.0174744 -0.0323688
-0.175229 0.147355 -0.149259
0.165631 -0.126525 0.149823
0.102048 -0.132414 0.126779
0.212377 -0.0967628 -0.238124
-0.222721 0.0930958 0.0232977
0.0224202 -0.0375218 -0.0561522
-0.28597 0.186163 -0.0281696
-0.113081 0.0559072 0.0714947
-0.30464 0.179022 -0.162108
-0.192321 0.172506 -0.0632971
-0.307321 0.21954 0.22203
-0.0394591 -0.126511 0.200202
-0.30291 0.20385 0.172859
0.295058 -0.0972134 -0.171881
-0.127655 -0.0701638 -0.225621
-0.117321 0.0621449 -0.137041
0.283971 0.0905821 0.233497
0.342438 -0.0464121 -0.194967
-0.0825132 -0.0311248 -0.0426393
0.00371656 -0.140524 -0.142057
0.292083 -0.0167727 0.164966
-0.112427 0.0549448 -0.0203676
0.282348 0.078192 0.238636
-0.174416 0.0220165 -0.138489
0.187692 -0.0987887 0.0657931
-0.321034 0.179421 -0.0909172
0.19297 -0.0896244 0.213111
0.175802 -0.0257199 -0.0107974
-0.152771 -0.228697 -0.204311
-0.0777494 0.00391752 -0.0665162
0.217876 -0.109909 -0.231039
0.0516104 -0.133359 -0.0803297
-0.193947 -0.0218219 0.0253725
-0.218552 0.0970483 0.226616
-0.291629 0.245207 -0.134312
-0.13666 -0.0727874 -0.201553
-0.126084 -0.0491026 -0.127131
-0.107652 -0.0594421 -0.130508
0.290676 -0.175911 0.226445
-0.085879 -0.148443 0.120937
-0.136999 -0.140861 -0.127222
-0.19012 0.169266 -0.0827493
-0.271729 0.165208 -0.0266692
0.308068 0.0321789 -0.249124
-0.188275 0.0299339 0.202407
-0.297396 0.232873 -0.0713907
-0.187804 0.00246122 0.112833
-0.00419981 -0.0395701 -0.169459
0.0262672 -0.11121 0.177517
-0.271357 0.119126 -0.120551
-0.330015 0.220163 -0.0716012
-0.165428 0.132934 -0.0356807
-0.264942 0.154969 -0.199937
-0.068422 -0.00980749 0.108302
-0.00896147 -0.139124 -0.174309
0.191902 -0.101345 -0.216815
0.211095 -0.122333 -0.154546
-0.211262 0.113837 -0.215117
-0.215348 0.0332311 0.101293
-0.0308117 -0.0416178 -0.0995124
0.0593162 -0.121972 -0.216419
0.25389 -0.16273 -0.231899
-0.0108875 -0.136517 0.0239325
0.0543125 -0.0350679 -0.185605
-0.16578 -0.0599645 0.0440424
-0.246574 0.0605715 -0.0598118
-0.160448 0.0302855 0.222707
-0.287033 0.241883 -0.148633
-0.337918 0.211778 0.00912179
0.289531 0.123147 0.22429
-0.091999 -0.0463258 -0.0813271
-0.194276 0.0892284 -0.213998
-0.219929 0.0301069 0.0618114
-0.181008 0.014329 -0.167005
0.29537 -0.0503144 -0.250173
-0.136316 0.097285 0.231388
-0.290972 0.237562 -0.080238
0.161005 -0.11981 -0.190837
-0.199782 0.183484 0.174663
-0.300765 0.163593 0.115673
-0.0234937 -0.139814 -0.0803652
-0.0258284 -0.121045 -0.228212
0.0858899 -0.132685 -0.155671
-0.165453 0.132969 0.155631
0.0242389 -0.0373819 0.0653003
0.0653797 -0.129852 0.00915545
0.252707 -0.119853 0.141133
0.0439625 -0.109686 -0.217194
0.184476 -0.119626 -0.00194827
-0.266391 0.253622 0.0316905
0.329516 -0.0878755 -0.133754
-0.308855 0.237123 -0.130523
-0.154339 0.0180612 -0.222873
-0.292709 0.239241 -0.0827849
0.296113 -0.113492 -0.143216
0.286012 0.0447025 -0.244866
-0.205493 0.191886 -0.176133
-0.274803 0.260113 0.163227
-0.244081 0.0622805 -0.0523091
-0.29063 0.189625 -0.200754
-0.234576 0.110539 -0.127572
-0.228114 0.225173 -0.176918
0.134118 0.0936524 0.219727
-0.255144 0.257353 0.178601
0.305597 -0.0340572 0.250414
-0.274937 0.106947 0.0695069
-0.201972 0.158758 -0.196471
0.0328611 -0.132534 -0.0028445
0.26458 -0.1163 0.100875
-0.00331292 -0.140346 -0.111735
0.26815 -0.0338458 0.220736
-0.187726 0.0416012 -0.0744111
-0.0226796 -0.139323 0.0725816
-0.0364369 -0.0420506 0.0060126
-0.244011 0.085395 -0.133374
-0.319233 0.222719 0.137404
0.0287835 0.090067 0.222321
-0.143896 -0.0228923 -0.0517543
0.218792 0.116151 -0.247853
0.12769 -0.128704 -0.10764
-0.16775 -0.0450531 -0.0941604
0.0152547 -0.135377 -0.0599249
-0.0454008 -0.0427403 0.148776
-0.0840619 -0.0403419 0.125256
-0.265442 0.159415 -0.22486
-0.0967485 0.105579 0.204291
-0.00729494 -0.142079 -0.130032
-0.12633 0.0754017 -0.161917
0.0667128 -0.0591398 -0.213594
0.14058 -0.162824 0.234003
-0.0894345 -0.0358285 -0.067267
-0.122635 0.0699655 0.177598
0.308136 -0.111521 0.0379109
-0.149768 -0.0188029 0.224496
-0.157205 -0.00330888 0.163814
0.272417 -0.16273 -0.228408
-0.0355717 -0.173446 0.214039
-0.0808501 -0.119453 0.0047738
-0.18708 -0.038781 -0.0648131
-0.332256 0.200388 -0.10279
-0.104245 -0.0458935 -0.155859
-0.135698 -0.135396 -0.080959
-0.24993 0.144873 0.198012
-0.314164 0.179256 -0.0696047
-0.172455 0.0425275 0.188233
-0.292328 0.19552 0.139149
0.0161002 -0.109632 -0.22306
0.317787 0.00998082 0.239734
-0.181697 0.156872 -0.127605
-0.201323 0.0172698 -0.123094
-0.109771 -0.0663939 0.141132
-0.128251 -0.0485091 -0.186357
-0.332527 0.218098 -0.0561537
-0.191144 -0.0194581 0.0601433
-0.137166 -0.166062 -0.204138
-0.0736863 -0.0305275 -0.196564
0.116621 -0.0302736 -0.0310388
0.096887 -0.132394 0.120988
0.239287 -0.020835 -0.01644
-0.151224 -0.145045 0.169214
-0.305746 0.215264 0.0568429
-0.177974 -0.222249 -0.221211
0.30936 0.00939788 -0.225567
-0.204115 0.0657176 0.00559863
0.186514 -0.109001 0.238006
-0.235934 0.0538735 -0.0304774
-0.0914473 -0.0462834 0.0941577
0.194497 -0.098265 0.0440122
0.315652 0.0326597 -0.231434
-0.180928 -0.016451 0.107778
-0.300947 0.208201 -0.0516379
-0.26443 0.261115 -0.0952886
0.0521069 -0.0352376 0.0496183
-0.0963756 -0.0793008 -0.2061
0.12693 -0.103464 -0.184918
-0.303316 0.226149 -0.013459
-0.217503 0.0715857 0.219294
-0.0803445 0.0891951 0.205075
-0.0852047 -0.0329539 0.162132
-0.11331 -0.0817646 0.215146
0.343011 -0.0552982 -0.0349868
-0.0846304 -0.0407557 0.0627505
-0.309896 0.202315 -0.182739
-0.222369 0.0512734 -0.103322
0.0742453 -0.129005 0.00108518
-0.14705 -0.194912 -0.201034
0.0816874 -0.128902 -0.0455471
-0.157118 -0.00343629 -0.150061
0.25101 0.0976319 -0.22122
-0.130066 -0.0832257 0.133628
-0.0623347 -0.144202 0.09435
-0.180799 0.155551 -0.117704
0.295058 -0.104276 0.144353
-0.111658 0.10632 0.208096
-0.0525145 -0.0532123 0.200716
-0.140284 -0.0758176 0.147275
0.0656618 -0.129923 0.0174913
-0.0994021 -0.0468955 -0.16874
-0.0847934 -0.0326744 -0.0513045
-0.0985808 -0.0494051 -0.185489
-0.336833 0.200637 -0.01992
-0.089864 0.0217436 -0.0791934
0.111122 -0.104681 -0.177238
-0.145271 0.103272 0.0335203
-0.194609 0.0763163 0.188447
-0.142417 -0.0564615 -0.14582
-0.277374 0.248259 -0.0222752
-0.167307 0.0115551 -0.00439982
-0.137917 -0.0316901 -0.11728
0.217674 0.113637 -0.2478
-0.213656 0.101238 -0.195307
-0.162294 -0.0698796 0.0028132
-0.30975 0.239465 -0.225361
-0.134525 -0.130468 0.0981557
0.006745 -0.118408 0.230348
-0.308916 0.218833 0.0160269
-0.103704 -0.0455262 -0.118529
-0.0932745 -0.120409 0.0799025
-0.0578971 -0.122116 -0.225496
-0.0631926 -0.0175023 -0.102437
0.0747396 -0.10748 0.0964565
-0.148115 0.107458 -0.0350195
-0.160841 0.00204181 -0.0981896
-0.162331 0.0718537 0.191704
-0.138196 -0.0789156 0.0664244
-0.256766 0.260198 -0.0577955
-0.15457 -0.00975628 -0.18639
-0.314644 0.214941 0.0275798
-0.280371 0.125268 -0.105398
-0.232111 0.101806 0.201179
0.30034 -0.113492 -0.0433455
-0.0859525 -0.0417181 -0.185161
-0.129496 -0.0833707 0.184601
-0.242962 0.12288 0.0043154
-0.14844 0.107936 0.105151
-0.134708 -0.0820441 0.110301
0.208907 -0.122671 -0.152291
0.220852 -0.169019 0.238428
-0.111371 -0.0820822 -0.0108466
-0.139868 -0.0687396 0.209739
-0.238354 0.0303082 0.0279409
-0.268369 0.102291 -0.0244558
0.0959521 -0.105848 -0.156032
0.00830401 -0.166942 -0.223225
-0.0714558 -0.0288015 0.0310935
0.0545768 -0.109032 -0.159674
-0.0991458 -0.0496672 -0.145801
0.159166 -0.0831678 0.215765
-0.290597 0.198167 0.18144
0.317526 -0.173873 0.240245
0.106929 -0.182735 0.232148
-0.212776 0.202604 0.0801205
-0.084609 0.0140111 0.125363
0.160245 -0.104719 0.216743
-0.106484 0.0461995 -0.0819781
-0.241444 0.111246 -0.201665
0.186015 0.118494 -0.229461
0.146018 -0.101995 0.153636
0.24317 -0.0915529 -0.229867
-0.129839 -0.0832835 -0.0730275
-0.209974 0.111252 -0.208291
0.285287 0.0222596 -0.243543
-0.135542 -0.0351852 -0.178417
-0.166995 0.0125517 0.182538
0.113473 -0.108406 0.21497
0.3042 -0.09043 0.0407457
0.246291 -0.115866 -0.0653925
-0.120885 -0.103991 -0.205505
-0.274828 0.0999434 0.0904742
-0.169664 0.139166 0.0818163
-0.121929 -0.0484532 0.226836
-0.20749 -0.00286241 0.0106252
0.0272126 -0.11444 0.212479
0.140855 -0.185792 -0.226045
-0.167745 0.0833772 0.224192
0.335094 -0.0838509 -0.00795127
-0.300755 0.241108 -0.177848
-0.256226 0.257098 -0.186575
-0.151344 -0.145551 -0.034589
0.339226 -0.0336851 0.143096
-0.140744 -0.0444339 -0.218156
0.304961 -0.100505 -0.250168
-0.0655785 -0.0215941 0.125977
-0.127679 -0.0838333 -0.0337038
-0.246016 0.0674442 -0.0861228
-0.215597 0.206754 0.0232063
0.179921 -0.0254029 -0.165168
-0.172909 0.0197982 0.0165529
-0.10839 -0.0487103 0.0379914
0.283439 0.0780554 0.240627
-0.324174 0.214182 0.129476
0.189956 -0.0986144 -0.131306
-0.071225 -0.0234534 0.0078271
-0.289719 0.176182 0.162057
-0.327131 0.178657 0.0501075
-0.221896 0.0552278 0.16443
-0.271114 0.251522 -0.180369
0.118761 -0.0301089 0.125956
0.00279152 0.0899662 0.238018
0.142914 -0.123575 -0.0366378
-0.159998 -0.245211 -0.222763
-0.282911 0.126919 -0.0487822
-0.251912 0.136049 -0.0287723
0.112406 -0.0702858 -0.217183
-0.119722 -0.0133146 0.19111
-0.222225 0.0923655 0.0820993
-0.29199 0.237895 0.144134
-0.183356 0.0351718 0.152996
-0.0495244 -0.0430576 0.143983
0.260817 -0.0343091 -0.220578
-0.128392 0.0784366 0.0734135
-0.252393 0.171892 0.205235
-0.079119 -0.0453348 0.177522
-0.258089 0.136502 -0.201618
0.240631 -0.0930271 0.229185
0.139591 -0.164293 0.223693
0.017833 0.0950033 -0.238276
0.299452 -0.14351 -0.25145
-0.244195 0.108566 0.150959
-0.270189 0.103539 0.118104
-0.221104 0.0907166 0.0447729
0.332538 -0.0208668 0.0613063
0.274073 -0.116506 0.164921
0.161235 -0.0983698 0.235339
-0.296682 0.247089 0.10981
0.254959 -0.115652 -0.0757322
0.117214 0.109569 -0.214035
-0.171066 0.141229 -0.0893645
0.00501185 -0.112846 0.0563186
-0.230206 0.0699989 -0.126776
0.291289 0.0907249 -0.22578
0.280037 -0.0176995 -0.11147
0.305108 -0.0860595 0.2158
-0.0995831 -0.115791 0.0163287
-0.296577 0.237477 -0.0478439
-0.300318 0.205383 -0.206247
-0.14856 -0.13386 -0.000812353
-0.170958 0.14107 -0.161567
0.275631 -0.183909 0.241447
-0.222059 0.123157 -0.2222
-0.295104 0.125275 0.0589704
-0.139211 -0.163003 0.218582
-0.147276 0.106223 -0.0429404
-0.236134 0.119846 0.18441
0.207869 0.11915 0.247792
-0.210332 0.199008 0.104331
0.225115 -0.116209 0.0052606
0.163768 -0.121751 0.0331975
-0.0477064 -0.11028 0.198727
-0.238845 0.0644672 0.0702707
-0.321697 0.200017 0.126461
-0.242658 0.246574 0.0788071
-0.10545 0.0446777 0.134149
-0.157127 -0.0230442 0.174647
0.110476 -0.126256 0.0303485
0.195192 -0.119198 -0.0432114
0.011341 -0.134518 -0.0151788
-0.13891 -0.0302295 0.12769
-0.148137 -0.0166523 -0.0896873
0.0382884 -0.132112 -0.00600738
0.0381057 0.0974913 0.210722
0.129933 -0.103233 0.11521
-0.324964 0.193579 -0.111131
-0.2895 0.232018 -0.198191
-0.10616 0.096057 -0.232366
-0.226026 0.101672 -0.225151
-0.306027 0.157963 -0.0921491
-0.117083 -0.0562138 0.0994463
-0.115845 0.0599735 -0.0591087
-0.0333717 -0.143467 -0.144121
0.342931 -0.0513983 -0.0684771
-0.193164 0.0496029 0.157833
-0.26594 0.111853 0.0854278
0.110494 -0.100878 0.227538
0.120215 -0.167841 0.222625
-0.158764 0.00907521 -0.226092
-0.204063 0.0656406 0.0960318
0.172466 -0.163536 0.235761
-0.227345 0.180863 0.190961
-0.298918 0.244295 -0.0934544
-0.290291 0.240344 0.12102
0.283391 -0.100948 0.24326
-0.110772 -0.175617 0.209894
0.0342867 -0.0366088 -0.143889
-0.0650541 -0.020841 0.0737247
-0.339434 0.196589 0.0492457
-0.219722 0.0829646 -0.182271
-0.137184 -0.00918593 0.188266
0.124287 0.104385 -0.243349
-0.297132 0.246527 0.127209
0.301809 -0.0900075 0.0374595
-0.316557 0.184233 0.110146
-0.29541 0.19958 -0.208415
-0.25118 0.258179 0.0359805
0.0373996 -0.132526 -0.0335024
-0.207094 0.0540376 0.193193
-0.338482 0.182218 -0.0343063
0.230722 -0.115825 -0.0131976
-0.247376 0.0977661 -0.145471
-0.265025 0.155343 0.119862
-0.250367 0.16132 0.223569
-0.301281 0.135295 -0.0202891
-0.18655 0.111891 0.191594
-0.218772 0.211427 0.118118
-0.0855153 -0.0413999 -0.148639
0.152925 -0.100032 0.226155
0.159559 -0.169721 0.235049
-0.289369 0.240075 -0.160232
-0.242648 0.246559 -0.0622413
-0.148952 -0.135507 -0.0121421
-0.19791 0.180729 0.0689193
-0.0127457 -0.184049 0.215297
-0.207019 0.194132 -0.0631551
-0.288913 0.240455 -0.0491803
-0.110226 -0.0542431 -0.116803
0.24899 -0.114582 0.040823
-0.246644 0.25244 -0.0519495
0.122957 -0.171044 0.222776
-0.163316 -0.163515 -0.218748
0.283377 -0.240377 0.234661
-0.231056 0.0448013 0.076808
-0.253397 0.108612 0.141289
-0.147441 -0.129161 -0.145651
-0.279796 0.161694 0.162206
-0.210027 0.0744158 0.0353336
-0.319252 0.211809 -0.04399
-0.202658 0.0611496 0.175388
0.0593993 -0.108661 -0.00949427
-0.165088 0.125647 -0.191761
0.340503 -0.0372293 0.109904
-0.13958 -0.0745094 -0.0496739
0.308136 -0.0912405 0.13756
-0.291611 0.231208 0.204725
-0.183172 -0.0118103 0.110626
-0.299925 0.198047 -0.221667
-0.188881 0.0145029 0.142632
0.186532 -0.0988779 0.132056
-0.291012 0.193583 -0.0874726
-0.23765 0.239205 -0.0710209
0.256455 -0.0950414 -0.244759
-0.33522 0.200957 0.0271664
-0.330509 0.188346 0.0294651
-0.110717 -0.0892726 -0.0135793
0.291994 -0.0646428 0.225345
-0.0946046 -0.0472516 0.0451864
0.190256 -0.0980297 0.239717
0.163327 -0.0266797 -0.199861
-0.0646846 -0.0203103 0.131546
-0.211845 0.0112277 -0.06824
-0.27468 0.246097 -0.198713
-0.0271666 -0.122689 0.227983
-0.202856 0.0293499 0.133312
0.257974 -0.115827 -0.0841865
-0.0730138 -0.00305085 0.146851
0.0505332 -0.134601 -0.0978956
0.145955 -0.0280164 -0.162994
-0.175834 -0.0233837 -0.116398
-0.184924 0.0245739 0.221501
0.221231 -0.0962078 -0.195926
0.342409 -0.0461969 -0.141961
-0.110805 -0.0713819 0.0780474
-0.30949 0.164956 0.0301735
0.204331 -0.118571 0.0489273
-0.136593 -0.0574217 0.215282
0.219496 -0.184454 0.238353
-0.28513 0.184928 -0.113723
-0.194855 -0.0128612 -0.0709874
0.243373 -0.165969 -0.236182
0.340399 -0.0716679 -0.166513
-0.260367 0.260825 0.142247
0.19393 0.0956912 0.24221
0.08383 -0.128589 0.0358411
-0.0693998 -0.00836866 -0.172113
0.29416 -0.0166128 -0.0278028
-0.0309103 -0.0416254 -0.0310008
-0.24783 0.163055 -0.20257
-0.298641 0.204809 0.0479062
0.289763 -0.0891572 0.230362
-0.274687 0.169561 0.122522
-0.15928 0.123886 -0.122584
-0.103172 -0.0138981 -0.19909
0.0892768 -0.133892 0.134991
-0.30803 0.224119 -0.0220304
-0.25445 0.119782 0.185152
0.129596 -0.0292752 -0.0310407
-0.154454 0.074728 0.190876
-0.197387 -0.00679835 0.0035748
-0.0511449 -0.183048 -0.209693
-0.0422151 -0.11648 -0.157202
-0.124783 0.0266424 -0.198629
0.318377 -0.0147494 -0.14998
-0.065791 -0.0218992 -0.00462748
0.291397 -0.062978 0.249388
-0.27699 0.248322 0.138748
-0.0323304 -0.133991 0.1897
-0.0388933 -0.11731 -0.219864
0.28701 -0.0207596 -0.246689
-0.239001 0.241192 0.149777
0.0220669 -0.0939284 0.208249
-0.313742 0.23169 0.00764818
0.212961 -0.18329 0.237993
0.202889 -0.0976193 -0.161331
-0.279808 0.245124 0.00401422
-0.024877 0.104976 0.236699
0.100934 -0.0314806 0.0584614
-0.106336 -0.104353 -0.174885
-0.0776989 -0.0278531 0.151272
0.308136 -0.112284 0.0878908
0.0986078 0.0985305 0.213606
-0.204096 0.0498994 -0.169094
0.240488 -0.094726 0.0480717
0.251665 -0.185792 0.23231
-0.253022 0.259134 0.164524
-0.0817883 -0.0306322 0.171399
-0.175474 -0.00511242 0.142814
-0.236624 0.0788324 -0.140398
-0.265578 0.251613 0.0522193
-0.128232 -0.0459422 0.101134
0.311934 -0.20733 0.248283
0.0860069 -0.0326292 0.162455
-0.128651 -0.0678887 -0.215327
-0.127762 -0.0466339 -0.046349
0.12536 -0.166979 0.222909
-0.261551 0.107399 -0.0932523
-0.13416 -0.0821837 -0.0646927
-0.0897336 -0.1359 0.191256
-0.215379 0.206434 -0.0295588
-0.144692 -0.0158502 0.210248
-0.208709 0.0650642 -0.20104
-0.144226 -0.16273 -0.207233
-0.106328 -0.047309 0.0817725
-0.178294 0.027722 0.0216999
-0.0709564 0.0999479 -0.205063
-0.185191 -0.0381858 -0.0667244
-0.256549 0.142872 -0.149043
0.282669 0.0394537 0.236048
-0.134768 -0.13149 0.18888
0.235741 -0.0211079 0.179297
-0.25174 0.135795 0.0471586
0.246756 0.121226 -0.23284
-0.0845167 -0.040673 -0.125196
-0.265463 0.0845358 0.0330174
-0.119449 -0.0696643 -0.0325311
0.19311 -0.0243881 0.0835564
-0.108729 -0.0980682 -0.191971
-0.185392 -0.0323531 -0.0451525
-0.131695 -0.0728773 -0.224404
-0.149103 -0.13614 -0.209806
0.27687 -0.0493938 -0.225713
-0.288088 0.254572 0.00738409
-0.156522 0.119828 0.138358
0.130947 -0.114823 0.20434
-0.244069 0.24865 -0.0281084
-0.297829 0.232404 0.0524801
-0.0227143 -0.16289 0.225003
0.0154243 -0.135466 0.0623336
-0.189888 -0.0263592 0.0345863
0.342959 -0.0527623 0.0786521
0.179593 -0.0490909 -0.219281
-0.183453 -0.028008 -0.00164556
-0.258969 0.146433 -0.0736811
-0.196559 0.0255323 -0.149613
0.295058 -0.106022 -0.0478163
-0.0916972 0.0917608 0.233515
-0.0999163 -0.0429518 -0.10865
0.266691 -0.0927098 -0.0114764
-0.273494 0.247166 0.167793
-0.10643 0.0461198 0.0428625
-0.0388957 -0.0422398 -0.0215257
-0.300523 0.137685 0.0409067
-0.304151 0.225111 0.156614
-0.134883 0.0879876 -0.0872828
-0.241617 0.0592564 -0.11606
-0.29743 0.180467 0.152801
0.305135 0.0327546 -0.224245
0.111983 -0.0306304 -0.000594795
-0.263366 0.153169 -0.19982
-0.233625 0.233283 0.0453577
0.203679 -0.095848 0.228174
-0.287976 0.199198 -0.186785
-0.148811 0.108482 -0.0555348
0.303695 -0.0158791 0.0947053
-0.286959 0.198834 0.189914
-0.217011 0.0482545 0.130175
-0.281793 0.165388 -0.170612
-0.0286686 -0.162767 0.224674
0.308136 -0.0934618 -0.219359
-0.198612 0.181762 -0.117152
-0.292382 0.237569 -0.0902172
-0.206287 0.00550064 0.0682102
-0.238281 0.151673 -0.20589
-0.214317 0.204872 -0.142095
-0.141853 0.0681037 -0.196859
0.312629 -0.210289 0.22705
-0.132045 0.0838115 5.2277e-05
-0.0499508 -0.139985 -0.0354398
-0.0482324 -0.139823 -0.0341845
-0.148171 -0.0357994 -0.215324
-0.230212 0.0564385 0.108568
-0.144447 -0.0220823 -0.169746
-0.0884232 -0.0351412 0.168842
0.266978 -0.0972306 0.219205
-0.212009 0.0235084 0.0954921
-0.341826 0.202083 -0.00671935
0.190393 -0.0412766 0.217166
-0.139595 -0.029222 -0.0891365
0.159051 -0.122088 0.0275697
-0.217103 0.0117083 0.0170959
-0.0750482 -0.145499 0.0965612
-0.323317 0.209046 -0.100272
0.304665 -0.15517 -0.224098
0.303364 -0.09043 0.152222
0.285149 0.0398574 0.243751
-0.0357081 -0.140651 0.07626
-0.168138 0.0127785 0.135656
0.291229 -0.0929022 0.22759
-0.119389 -0.0696797 -0.201774
-0.246626 0.054128 0.00153753
0.317268 -0.209493 -0.240292
-0.319516 0.15674 0.0581053
-0.00986049 -0.0400057 0.170084
0.225468 -0.0958818 -0.179641
-0.139023 0.0945243 0.202276
-0.176938 -0.0201201 -0.119883
0.0386532 -0.132401 -0.0319314
-0.0505093 -0.143642 -0.101871
0.115314 -0.173957 0.23261
0.0771066 0.108998 0.212581
-0.185624 0.0385083 -0.0753395
0.192821 -0.098394 -0.0338816
-0.118574 -0.0813981 0.00971392
0.308136 -0.0964946 -0.0142805
0.167573 -0.0263531 0.04033
0.0765509 -0.0871186 -0.212635
-0.175964 -0.0202512 -0.152618
0.153595 -0.12488 -0.180626
0.112107 -0.185554 0.232433
0.214188 -0.0227663 -0.0693958
0.119225 -0.115055 0.234111
-0.291442 0.131735 -0.0784352
0.00753821 -0.112651 -0.0320681
-0.236533 0.0540141 0.0226187
-0.150764 -0.143114 0.0139619
-0.332557 0.202766 0.0882825
-0.0778243 -0.0351932 -0.111484
-0.276247 0.259779 0.0609364
-0.0939617 -0.119377 0.214239
-0.276255 0.171868 -0.145458
-0.185036 -0.0146886 -0.106085
0.112779 -0.110332 0.211742
-0.123109 -0.0230639 0.189477
0.236451 -0.0950367 -0.15577
-0.249555 0.256723 -0.0243977
-0.298434 0.236631 -0.0287155
-0.262829 0.117633 0.164958
0.0590724 -0.0347016 0.0371221
-0.313812 0.199276 0.144166
0.194517 -0.119171 0.0365722
0.314305 -0.215311 -0.246102
-0.244337 0.235573 0.186095
-0.311222 0.235052 0.0870649
0.0616741 -0.131978 0.179006
-0.311787 0.234997 -0.101964
-0.260915 0.26092 0.0431378
-0.271097 0.186432 -0.199421
0.17721 -0.122109 0.0727118
0.227989 -0.119384 0.0996957
-0.288832 0.190375 0.135481
0.111079 -0.130747 0.116091
-0.10295 -0.0450132 0.100387
-0.0821646 0.0104142 -0.165251
-0.0504087 -0.0431257 -0.014938
0.116339 0.0930483 -0.227729
-0.115855 -0.0537837 0.0127351
-0.229427 0.227105 0.0560265
0.317104 -0.0548772 -0.234086
0.337328 -0.0795762 -0.193545
-0.02115 -0.182033 -0.221602
0.098151 -0.113587 -0.233526
-0.212512 0.0780738 -0.0336366
-0.272667 0.260608 -0.17092
-0.269725 0.0892309 0.0185018
-0.267692 0.25311 -0.0360669
-0.19279 0.0177562 -0.145978
0.286693 -0.00140383 0.24657
-0.0583101 -0.0437336 -0.0609306
-0.221122 0.214885 -0.0324357
-0.197032 0.0922103 -0.215395
-0.076309 -0.119103 -0.109435
-0.0764444 0.086486 0.22935
-0.156189 0.0242538 -0.201455
-0.0953263 -0.123858 -0.222683
-0.0945195 0.0285939 0.111894
-0.224223 0.0640559 -0.123913
-0.0968154 -0.125808 0.20618
-0.0789419 0.0056722 -0.0678055
-0.142439 -0.0250364 -0.0375164
0.285777 -0.171128 0.229954
-0.217995 0.120691 -0.219043
-0.252804 0.059615 0.0690205
-0.203713 -0.0130714 0.0720934
-0.18176 -0.00921202 0.103078
-0.103228 -0.110344 0.181761
-0.147717 0.106872 -0.172691
0.142306 -0.102281 -0.053523
-0.190085 0.0450729 0.130173
-0.0112851 -0.141199 -0.150001
-0.0949292 -0.0474288 0.0375993
0.312434 -0.199706 -0.247656
0.218628 -0.0224246 0.176197
0.0511901 -0.0353081 -0.185848
0.0757842 -0.182291 -0.226944
-0.180791 0.0313969 0.132235
0.0521801 -0.136576 0.141034
-0.292615 0.138846 -0.0946625
0.241055 -0.0265274 0.214186
-0.0639663 -0.0163639 -0.0430151
-0.267881 0.238353 -0.198543
-0.186702 0.119053 -0.219203
-0.165204 -0.221379 0.226751
0.332939 -0.0874278 -0.143497
-0.101699 -0.0362976 -0.198795
0.164895 -0.127478 0.136609
-0.152498 0.109316 -0.215739
-0.219445 0.0236118 0.0644429
-0.104785 -0.052208 -0.0317059
0.317811 -0.124941 0.235836
0.283975 -0.0541431 0.241606
-0.320916 0.181739 -0.098427
-0.229516 0.113875 0.20867
0.153852 -0.106409 -0.212191
0.299305 -0.0983032 -0.240723
-0.0874602 -0.0428156 -0.129641
-0.302812 0.225676 -0.142924
-0.0590176 -0.120391 0.223613
-0.293873 0.236224 0.00204688
-0.0235305 -0.0410575 0.12204
-0.338733 0.19857 -0.012001
-0.137924 -0.144742 -0.155438
0.283312 -0.0357539 -0.223073
-0.314311 0.155067 0.0219881
-0.17826 0.0276723 -0.169582
0.186197 -0.125716 -0.136338
-0.124584 0.0728324 -0.133178
0.325672 -0.0881712 -0.163557
0.0236265 -0.111413 -0.0816952
-0.165344 0.132809 -0.128506
-0.0985098 0.0344656 -0.176078
-0.260322 0.234944 0.19039
-0.117453 -0.0548696 -0.171157
-0.134006 0.0866973 0.135197
0.10938 -0.0308307 -0.0176843
-0.203297 0.0100481 0.0941272
-0.164577 -0.03966 0.109589
0.117872 -0.104161 -0.155041
-0.0522042 0.0873102 -0.222312
-0.188221 0.166471 0.0439027
0.242668 -0.0945583 0.0677448
0.230729 0.0969441 -0.244205
0.339602 -0.0740973 -0.166582
-0.0401835 -0.118078 -0.221657
0.0969694 -0.10577 -0.138937
-0.253776 0.055539 0.0433483
0.0682625 -0.17666 -0.22653
0.34005 -0.0358877 -0.211423
-0.218854 0.211547 -0.184482
0.266714 -0.092708 -0.151934
-0.271989 0.251116 -0.0787522
0.295058 -0.0918796 -0.179175
0.193021 -0.024395 0.128801
-0.250197 0.133526 -0.0773629
0.0334757 -0.110655 0.11142
-0.100704 0.0376938 -0.0542327
0.130394 -0.103198 0.0632667
-0.0944719 -0.0392518 0.0660039
0.131078 -0.126173 0.0746706
-0.291773 0.194702 0.0265766
-0.244004 0.124412 0.14921
-0.167351 0.0150892 -0.191393
0.035492 -0.0444501 -0.204937
-0.237668 0.163685 0.19137
-0.273376 0.233726 0.191742
0.0673151 -0.0760623 0.214056
0.071734 -0.129643 -0.0371029
-0.189024 -0.0119968 -0.099327
-0.211702 0.054244 -0.182989
0.0154743 -0.140139 0.128256
-0.232215 0.107065 0.0859952
0.308136 -0.0964675 -0.0814414
-0.142843 0.0850362 -0.193796
-0.187768 -0.0298155 0.0328879
0.0319935 0.0901779 0.235961
0.0248885 -0.114195 -0.212438
0.338317 -0.0774159 -0.170129
-0.248877 0.0864111 0.113903
-0.113554 0.056603 0.00242308
-0.304853 0.21395 -0.0825381
-0.13398 -0.128181 -0.137392
-0.143254 -0.151697 -0.225322
0.111626 -0.104642 -0.143137
-0.147149 -0.127936 0.170851
0.122115 -0.103948 -0.234346
0.192555 -0.120411 0.0652025
-0.115763 -0.0743143 0.0963933
-0.141369 -0.149131 -0.198734
0.237329 -0.115311 0.0177413
-0.13064 -0.0684323 0.130481
-0.0965648 -0.0483219 -0.146616
0.197743 -0.110014 -0.224933
-0.317782 0.216205 -0.0126272
-0.292743 0.19613 0.141828
0.161435 0.0945826 0.221627
0.296858 -0.0434841 0.251098
-0.328389 0.220969 -0.0858023
-0.163588 0.11151 -0.215428
0.0209173 -0.111622 0.0871201
0.0100636 -0.135185 0.0482677
-0.287297 0.241709 0.0840494
-0.0924218 -0.046004 -0.1458
0.295129 -0.0905215 -0.12019
-0.313498 0.229741 -0.154904
0.098442 -0.12741 0.0413912
0.226136 -0.0930892 -0.22872
0.119946 -0.0300177 0.0377392
0.33539 -0.0833583 -0.192828
-0.135408 -0.134178 -0.0699773
0.3116 -0.236792 0.248396
-0.247038 0.175279 0.191204
0.0170324 -0.137244 -0.171511
-0.283382 0.257195 0.099074
0.265638 -0.0927908 0.175353
-0.105453 -0.0544484 -0.114945
-0.175412 -0.0191663 -0.103361
-0.272153 0.0966548 0.0445235
0.0725685 -0.107647 0.157495
0.0908335 -0.0322578 -0.0327373
0.200526 -0.0238175 -0.101738
0.0200626 -0.111687 0.152656
-0.0916011 0.0242997 0.0450867
0.155875 -0.110725 -0.219143
-0.241112 0.0503205 -0.0960486
0.0248697 -0.111318 0.155236
0.292039 -0.118578 -0.225528
0.00852391 0.110511 -0.227139
0.124531 -0.124744 0.00282435
-0.149024 0.108627 -0.21789
0.048064 -0.121037 -0.200565
0.182063 -0.1244 -0.11343
0.106581 -0.10503 0.148862
-0.240359 0.243191 -0.119614
-0.293956 0.236145 -0.135922
0.00475939 -0.16715 0.226517
-0.291419 0.23983 0.031826
-0.133989 -0.0640561 -0.153657
-0.0716328 0.106907 0.233007
-0.180197 0.0305232 -0.146281
-0.213967 0.100991 -0.224259
-0.0818639 -0.0306835 -0.0693645
0.250997 -0.019934 -0.119057
-0.278032 0.150255 0.150081
-0.0824691 -0.0310948 0.097846
-0.223305 0.0752328 -0.16526
-0.161173 -0.0593063 -0.0803756
-0.2087 -0.012274 -0.0444974
0.0307686 -0.112114 0.22765
-0.0820036 -0.142693 0.0341242
-0.288405 0.224815 0.209726
-0.0845907 0.0139842 0.0566695
-0.0754581 0.000545846 0.016652
0.0465886 -0.0356622 -0.182898
-0.272152 0.260706 0.0461948
-0.00380399 -0.138731 0.0896356
-0.127221 0.0767123 -0.0293341
-0.276502 0.246631 -0.0743396
-0.0589385 -0.043782 0.0183207
0.0648231 -0.130188 0.0341132
0.0116665 -0.134988 -0.180045
-0.232645 0.0608666 0.0836378
0.209164 -0.0231528 -0.0931105
-0.338757 0.198598 -0.0678206
0.0849036 -0.130558 0.0819021
-0.0239217 -0.142246 -0.113261
-0.263385 0.0861906 0.0568516
0.116086 -0.12586 0.0373605
-0.305717 0.156094 0.0386786
-0.147567 -0.0382104 -0.162646
0.318335 -0.0481739 0.236792
-0.289987 0.239561 0.152791
-0.0834133 -0.146111 -0.164012
0.189044 -0.124741 0.14733
0.0674022 -0.132419 0.0877378
-0.236936 0.0398828 0.00173907
0.0936025 -0.130295 -0.0904828
-0.191824 0.171773 -0.00527511
0.00655716 -0.108251 0.200195
0.0315893 -0.133128 -0.0428223
0.184465 -0.120097 0.0425864
-0.146517 -0.148634 0.0758916
0.188723 -0.120421 0.0589586
-0.0994859 0.0359019 -0.118663
0.0676556 -0.108025 -0.0558291
-0.222596 0.0523267 -0.105559
-0.218578 0.105907 -0.199125
-0.0927087 -0.126266 -0.224177
0.341403 -0.0408216 -0.15062
-0.117628 -0.0715459 0.0808673
0.305346 -0.0897353 0.112351
-0.221767 0.0739017 -0.149768
0.142905 -0.123545 -0.0340076
-0.173924 -0.04141 0.0703484
0.0192335 -0.0680871 0.211387
-0.0451 -0.126422 -0.199672
0.283678 0.0435191 -0.233612
-0.279896 0.177226 0.179711
-0.0617941 -0.145895 -0.143161
0.0265502 -0.0372041 -0.126004
0.160458 -0.0872953 -0.2144
-0.13156 0.0830976 0.109917
-0.250355 0.2579 -0.171157
-0.0541385 -0.130408 0.224206
0.192866 -0.0244069 -0.134937
0.201696 -0.0237275 -0.202107
-0.0310912 0.0880302 0.234445
-0.306117 0.146673 -0.0521585
-0.161731 -0.0621932 0.0617881
0.303359 -0.0898882 0.0964711
-0.0843794 -0.040573 0.145958
0.0335772 0.111637 0.225092
-0.0654597 -0.0141663 0.0573811
-0.270566 0.251777 -0.121606
-0.173418 -0.0138674 -0.140895
-0.229578 0.0444724 -0.0897845
0.2335 0.0970367 -0.229559
-0.296267 0.247607 -0.0768828
-0.159172 -0.254755 0.220551
-0.2313 0.0957248 -0.201721
0.196413 -0.0981176 0.159988
-0.234509 0.109505 -0.199877
0.286574 0.00586403 -0.245892
-0.182363 0.0646642 0.203082
0.153912 -0.0274042 -0.0825185
0.282789 -0.0933247 -0.238983
-0.294728 0.232481 0.17397
0.0757313 0.106253 0.212515
0.27424 -0.0944634 0.226589
-0.197477 0.0559492 -0.0442811
-0.106142 -0.0458629 -0.19717
0.0656415 -0.134246 0.110071
-0.0830539 0.00434929 0.184517
-0.185174 -0.0214119 -0.0396362
-0.0958227 -0.04662 0.0224691
-0.117731 -0.0803815 0.0709787
-0.0859538 -0.148794 -0.131118
0.342991 -0.0543672 -0.20456
-0.161435 -0.0288039 0.137869
0.317749 0.0514918 -0.235264
-0.22011 0.0210848 0.0496257
-0.273612 0.118055 -0.111211
-0.160478 -0.016575 -0.21613
0.233075 -0.0952965 0.126171
-0.250719 0.134293 0.0486341
-0.252647 0.137131 0.102802
-0.145344 0.10338 -0.154711
0.120506 -0.125348 -0.0249516
-0.167224 -0.175426 0.217826
-0.0677199 -0.145239 0.160172
-0.233258 0.145464 -0.207393
-0.251767 0.258148 -0.184965
-0.266835 0.0950479 0.0844444
-0.211717 0.0769035 -0.0310205
-0.136076 -0.03338 -0.198824
-0.188234 0.0786657 0.216233
-0.286453 0.206246 -0.194909
0.125152 -0.103601 0.136284
0.243439 -0.0929893 -0.237426
-0.085051 -0.146816 -0.156453
0.291905 0.123258 -0.244385
-0.087882 -0.148703 -0.125061
0.266505 -0.114005 0.188222
0.0537842 -0.109093 -0.0820702
-0.146955 -0.148591 -0.0853478
-0.238734 0.0675051 0.105433
0.194026 -0.0983012 0.0281452
0.0458669 -0.0645809 -0.213197
-0.218582 0.211148 0.14686
-0.0658466 -0.0135971 -0.0318023
-0.13482 -0.16193 -0.20683
-0.207631 0.0764517 0.226078
-0.145503 -0.125406 0.00535172
-0.0595138 -0.120081 -0.221416
0.0903432 -0.106279 0.194303
0.299712 -0.258986 -0.222949
-0.121719 0.0686172 -0.182875
0.0533361 0.112528 0.237781
-0.22099 0.0394162 -0.108641
0.282259 -0.0175285 -0.0380618
-0.195111 0.0375078 -0.170181
0.0142672 -0.0381492 -0.120914
-0.205768 -0.005026 -0.0236781
-0.225635 0.221526 -0.0610331
0.148458 -0.101808 -0.190006
0.332715 -0.0211351 -0.195762
-0.310299 0.222229 -0.0315146
-0.17409 -0.0335141 -0.102917
-0.277796 0.2594 0.064334
0.0820806 -0.128379 -0.00540281
0.208304 0.102717 -0.247353
0.22848 -0.16273 -0.233448
-0.241142 0.0906951 -0.148898
-0.284276 0.183671 -0.169032
0.290234 0.0984037 -0.226134
0.0313477 -0.185792 0.227795
-0.241617 0.133028 0.193263
0.339365 -0.0340584 -0.175955
-0.170914 0.141006 -0.101921
-0.0840248 -0.119697 0.0938413
-0.0832208 -0.133924 -0.220883
0.0448542 -0.137309 -0.139071
0.306096 -0.0156944 -0.157945
-0.239978 0.118451 0.224805
-0.315662 0.217724 -0.0431885
-0.13102 -0.0418387 -0.0388295
-0.11922 0.0649398 -0.0887362
0.304542 -0.0897972 -0.160411
-0.216283 0.0836213 0.0398793
0.136143 -0.0704478 -0.218304
0.298895 -0.170514 -0.228986
0.137888 -0.102621 0.172175
-0.248743 0.135322 -0.225054
-0.110959 -0.0874619 0.059809
-0.295422 0.231349 0.171728
0.297188 -0.246172 0.251201
-0.260436 0.0762077 -0.0357315
-0.288064 0.105471 0.0269612
-0.0392546 -0.165691 0.224091
-0.305035 0.141937 -0.0362516
-0.0457082 -0.139922 0.047449
-0.190094 0.0618735 0.202269
0.342516 -0.0621115 0.112929
-0.304429 0.233942 0.0752528
-0.139354 -0.106396 0.199508
0.22505 -0.116465 -0.0267584
0.223999 -0.114906 0.193711
0.256355 -0.115022 0.187447
-0.293452 0.194216 -0.223458
-0.260239 0.255863 -0.0809762
-0.14091 0.0968565 -0.165334
-0.213645 0.203883 0.164818
0.198726 -0.023956 -0.169021
0.277442 -0.0888097 0.234034
-0.266658 0.122797 -0.113432
0.169746 -0.0271885 0.206629
-0.25889 0.146317 0.0518922
0.089737 -0.104864 0.224793
-0.0687132 -0.117359 0.215498
0.0830374 -0.113343 -0.207984
0.224249 -0.0219921 0.124374
0.289764 -0.0194248 -0.226293
0.101536 -0.131328 0.157825
-0.0712147 -0.0285401 -0.193683
-0.280339 0.134505 -0.125152
-0.297107 0.233154 -0.0821217
-0.273858 0.111349 0.0299566
-0.177916 0.0117095 -0.186379
-0.195984 0.177895 -0.121409
-0.298183 0.160273 -0.0860686
0.0268651 -0.0371798 0.162378
-0.263086 0.194507 -0.198293
0.308136 -0.0984114 0.119594
-0.291735 0.206798 -0.193202
-0.305227 0.223747 0.0986027
0.158971 -0.122697 0.0535989
0.261736 -0.1022 0.242378
-0.339821 0.199912 -0.0560659
0.295058 -0.112733 -0.132643
-0.245743 0.0707731 0.0899438
-0.093032 -0.142168 0.180052
-0.223451 0.218312 0.132844
0.308136 -0.102442 0.11551
0.0227644 -0.0374954 -0.0867515
-0.0855507 0.086176 -0.229185
0.322368 -0.0144423 0.0793654
0.253034 0.111143 -0.220511
-0.0812197 -0.147356 -0.145083
