ply
format ascii 1.0
comment Created by Open3D
element vertex 544
property double x
property double y
property double z
end_header
-0.0782588 -0.188645 0.37361
-0.0825726 -0.187636 0.394245
-0.0647153 -0.187265 0.373611
-0.0827386 -0.18534 -0.402705
-0.0827323 -0.185029 -0.374721
-0.0560954 -0.185474 -0.37363
-0.0782588 -0.169968 0.37361
-0.0825726 -0.169058 0.394245
-0.0757569 -0.174422 -0.37363
0.0925574 -0.188603 0.373643
0.0831324 -0.186928 0.396711
-0.0647153 -0.164566 0.373611
-0.0827386 -0.16583 -0.402705
0.110844 -0.186998 0.373646
-0.0560954 -0.16553 -0.37363
0.0829661 -0.186091 -0.402852
0.08297 -0.185914 -0.384532
0.103582 -0.184263 -0.373597
0.083128 -0.174236 0.375637
0.0831324 -0.174036 0.396711
-0.0782588 -0.15129 0.37361
-0.0825726 -0.15048 0.394245
-0.0827386 -0.154125 -0.402705
-0.0827323 -0.153866 -0.374721
0.110844 -0.173798 0.373646
-0.0560954 -0.153564 -0.37363
0.0829661 -0.163671 -0.402852
0.08297 -0.163514 -0.384532
-0.0647153 -0.134301 0.373611
-0.0825763 -0.132053 0.376069
-0.0827386 -0.134615 -0.402705
-0.0827323 -0.13439 -0.374721
0.103582 -0.156965 -0.373597
0.0925574 -0.149582 0.373643
-0.0560954 -0.133621 -0.37363
0.110844 -0.147399 0.373646
0.0831324 -0.143956 0.396711
0.103582 -0.143316 -0.373597
0.0829661 -0.136766 -0.402852
0.08297 -0.136635 -0.384532
0.110844 -0.134199 0.373646
0.0925574 -0.132239 0.373643
-0.0827351 -0.114995 -0.386703
-0.0827323 -0.114913 -0.374721
-0.0782588 -0.110199 0.37361
-0.0825726 -0.109609 0.394245
-0.0560954 -0.113677 -0.37363
0.0829661 -0.123314 -0.402852
0.08297 -0.123196 -0.384532
-0.0647153 -0.104036 0.373611
0.083128 -0.114006 0.375637
0.0831324 -0.113875 0.396711
0.103582 -0.116017 -0.373597
-0.0782588 -0.091521 0.37361
-0.0825726 -0.0910311 0.394245
-0.0560954 -0.0937341 -0.37363
0.110844 -0.103399 0.373646
-0.0827386 -0.0838907 -0.402705
-0.0827323 -0.08375 -0.374721
0.0829661 -0.0964088 -0.402852
0.08297 -0.0963168 -0.384532
0.103582 -0.0932689 -0.373597
0.0925574 -0.0888821 0.373643
0.0831324 -0.0837951 0.396711
-0.0647153 -0.0737712 0.373611
-0.0825742 -0.0724865 0.38698
-0.0560954 -0.0737907 -0.37363
-0.0782588 -0.0691077 0.37361
0.110844 -0.0769993 0.373646
-0.0827386 -0.0643812 -0.402705
-0.0827323 -0.0642733 -0.374721
0.0829661 -0.0739882 -0.402852
0.08297 -0.0739175 -0.384532
0.0925574 -0.0715392 0.373643
0.103582 -0.0659707 -0.373597
0.110844 -0.0637994 0.373646
-0.0647153 -0.0548555 0.373611
-0.0560954 -0.0538472 -0.37363
-0.0782588 -0.05043 0.37361
-0.0825726 -0.05016 0.394245
0.083128 -0.0537764 0.375637
0.0831324 -0.0537148 0.396711
-0.0827386 -0.0448718 -0.402705
-0.0827323 -0.0447965 -0.374721
0.0829661 -0.0470834 -0.402852
0.08297 -0.0470384 -0.384532
-0.126497 -0.0380349 0.133563
-0.126498 -0.0379818 0.155118
-0.126499 -0.0379112 0.183764
-0.1265 -0.0378584 0.205179
-0.126501 -0.0377883 0.23364
-0.126502 -0.0377358 0.254916
-0.126502 -0.0377097 0.265532
-0.126503 -0.0376401 0.29377
-0.126504 -0.0375881 0.31488
-0.126505 -0.0375621 0.325413
-0.126506 -0.0374931 0.35343
-0.126507 -0.0374415 0.374375
-0.126507 -0.03739 0.395263
-0.126509 -0.0373216 0.423025
-0.126851 -0.035672 -0.437018
-0.126852 -0.0356204 -0.413849
-0.126852 -0.0355775 -0.394594
-0.126853 -0.035509 -0.36388
-0.126853 -0.0354664 -0.344745
-0.126853 -0.0353983 -0.314223
-0.126854 -0.0353306 -0.283818
-0.126854 -0.0352883 -0.264874
-0.126855 -0.035221 -0.234658
-0.126855 -0.0351539 -0.204556
-0.126856 -0.0350871 -0.174569
-0.126856 -0.0350205 -0.144696
-0.126857 -0.0349542 -0.114937
-0.126858 -0.0348881 -0.0852891
-0.126858 -0.0348634 -0.0742002
-0.126858 -0.0347977 -0.0447065
-0.126859 -0.0347322 -0.0153238
-0.126859 -0.0347077 -0.00433379
-0.126859 -0.0346425 0.0248973
-0.126859 -0.0346182 0.0358307
-0.12686 -0.0345534 0.0649113
-0.12686 -0.0345291 0.0757885
-0.126861 -0.0344646 0.10472
-0.127983 -0.0243804 -0.436455
-0.127983 -0.0243628 -0.424875
-0.127981 -0.0243159 -0.394078
-0.12798 -0.0242867 -0.37489
-0.127978 -0.02424 -0.344285
-0.127977 -0.0241936 -0.313798
-0.127976 -0.0241647 -0.294802
-0.127974 -0.0241185 -0.264503
-0.127972 -0.0240725 -0.23432
-0.127971 -0.0240267 -0.204252
-0.127969 -0.0239811 -0.174298
-0.127968 -0.0239356 -0.144458
-0.128317 -0.0198926 0.129873
-0.128315 -0.0198695 0.147816
-0.128313 -0.0198418 0.169293
-0.128312 -0.0198142 0.19071
-0.12831 -0.0197913 0.208513
-0.128309 -0.0197638 0.229821
-0.128307 -0.019741 0.247533
-0.128306 -0.0197137 0.268734
-0.128304 -0.0196865 0.289875
-0.128302 -0.0196593 0.310959
-0.128301 -0.0196367 0.328484
-0.128657 -0.0160387 0.349367
-0.128655 -0.0160167 0.370279
-0.128654 -0.0159984 0.387662
-0.128652 -0.0159764 0.40847
-0.128649 -0.0159546 0.42922
-0.12981 -0.00550594 -0.121795
-0.129807 -0.00549814 -0.0995923
-0.129804 -0.00549167 -0.0811379
-0.1298 -0.00548392 -0.0590499
-0.129797 -0.00547747 -0.0406908
-0.129794 -0.00547105 -0.0223749
-0.12979 -0.00546335 -0.00045234
-0.129787 -0.00545696 0.0177694
-0.129783 -0.00544931 0.0395793
-0.12978 -0.00544295 0.0577075
-0.129776 -0.00543533 0.0794055
-0.129772 -0.00542774 0.101043
-0.13013 -0.00180526 0.129781
-0.130126 -0.00180316 0.147693
-0.130122 -0.00180066 0.169132
-0.130118 -0.00179816 0.190512
-0.130114 -0.00179608 0.208284
-0.13011 -0.00179359 0.229556
-0.130106 -0.00179111 0.250768
-0.130103 -0.00178905 0.268401
-0.130099 -0.00178658 0.289506
-0.130095 -0.00178412 0.310554
-0.130091 -0.00178207 0.328049
-0.130991 0.00561122 -0.438811
-0.130986 0.00560447 -0.41957
-0.130981 0.00559775 -0.400375
-0.130977 0.00559103 -0.381226
-0.130972 0.00558434 -0.362123
-0.130967 0.00557632 -0.339259
-0.130962 0.00556966 -0.320256
-0.130957 0.00556302 -0.301299
-0.130953 0.00555639 -0.282386
-0.130947 0.00554845 -0.259751
-0.130943 0.00554186 -0.240937
-0.130938 0.00553528 -0.222168
-0.130933 0.0055274 -0.199705
-0.130928 0.00552086 -0.181033
-0.130924 0.00551433 -0.162407
-0.130918 0.00550651 -0.140112
-0.130914 0.00550002 -0.121582
-0.130909 0.00549224 -0.0994031
-0.130904 0.00548578 -0.0809686
-0.130899 0.00547805 -0.0589044
-0.130894 0.00547162 -0.040565
-0.13089 0.00546521 -0.0222687
-0.130885 0.00545753 -0.000369579
-0.13088 0.00545115 0.0178328
-0.130875 0.00544351 0.0396194
-0.130871 0.00543716 0.0577284
-0.130866 0.00542957 0.0794035
-0.13086 0.00542199 0.101018
-0.1308 0.00533513 0.348803
-0.130795 0.00532782 0.369673
-0.13079 0.00532052 0.390485
-0.130786 0.00531446 0.407786
-0.130781 0.0053072 0.428494
-0.132298 0.019816 0.129671
-0.132291 0.019793 0.147545
-0.132284 0.0197656 0.16894
-0.132277 0.0197382 0.190276
-0.132271 0.0197154 0.20801
-0.132264 0.0196882 0.229238
-0.132257 0.019661 0.250407
-0.132251 0.0196384 0.268003
-0.132244 0.0196114 0.289065
-0.132237 0.0195844 0.31007
-0.132231 0.019562 0.327529
-0.13398 0.0354347 -0.437313
-0.13397 0.0353838 -0.414298
-0.133957 0.0353161 -0.383714
-0.133949 0.0352739 -0.364658
-0.133936 0.0352066 -0.334264
-0.133923 0.0351396 -0.303985
-0.13391 0.0350728 -0.273822
-0.133897 0.0350062 -0.243773
-0.133885 0.03494 -0.213837
-0.133872 0.034874 -0.184015
-0.133859 0.0348082 -0.154305
-0.133846 0.0347427 -0.124707
-0.133834 0.0346774 -0.0952208
-0.133829 0.034653 -0.0841918
-0.133816 0.034588 -0.054857
-0.133804 0.0345233 -0.0256321
-0.133799 0.0344991 -0.0147009
-0.133787 0.0344348 0.0143743
-0.133782 0.0344107 0.0252495
-0.13377 0.0343466 0.0541758
-0.133761 0.0342988 0.0758
-0.133748 0.0342351 0.104539
-0.133644 0.033696 0.348054
-0.133635 0.03365 0.368867
-0.133626 0.033604 0.389624
-0.133617 0.0335582 0.410324
-0.133609 0.0335201 0.427531
-0.134099 0.037773 0.126006
-0.134086 0.0377032 0.154549
-0.134081 0.0376771 0.165225
-0.134068 0.0376076 0.193623
-0.134058 0.0375557 0.214854
-0.134053 0.0375298 0.225447
-0.134397 0.0410144 0.253562
-0.134387 0.040958 0.27462
-0.134382 0.0409298 0.285127
-0.134369 0.040855 0.313076
-0.134991 0.0459569 -0.224725
-0.134977 0.0458701 -0.194893
-0.134962 0.0457836 -0.165174
-0.134956 0.0457513 -0.154058
-0.134941 0.0456653 -0.124492
-0.134927 0.0455795 -0.095037
-0.134921 0.0455475 -0.0840199
-0.134907 0.0454622 -0.0547166
-0.134892 0.0453773 -0.0255228
-0.134887 0.0453455 -0.0146033
-0.134872 0.045261 0.014441
-0.134867 0.0452294 0.0253046
-0.134852 0.0451453 0.0542004
-0.134847 0.0451138 0.0650087
-0.134833 0.0450302 0.0937571
-0.134713 0.0443315 0.333881
-0.135898 0.0557014 0.115209
-0.135762 0.0548392 0.354425
-0.13575 0.0547644 0.375178
-0.135738 0.0546898 0.395873
-0.135723 0.0545907 0.42338
-0.136239 0.059165 0.143719
-0.136227 0.0590832 0.165042
-0.13621 0.0589745 0.193381
-0.136197 0.0588932 0.214567
-0.136191 0.0588527 0.225139
-0.136175 0.0587448 0.253258
-0.136162 0.0586642 0.274279
-0.136149 0.0585838 0.295243
-0.136133 0.0584769 0.323106
-0.136955 0.0651012 -0.439654
-0.136943 0.0650233 -0.420518
-0.136931 0.0649457 -0.401428
-0.13692 0.0648683 -0.382384
-0.136906 0.0647756 -0.35959
-0.136894 0.0646985 -0.340646
-0.136882 0.0646217 -0.321746
-0.136868 0.0645297 -0.299125
-0.136857 0.0644532 -0.280324
-0.136846 0.0643769 -0.261567
-0.136832 0.0642856 -0.239117
-0.136826 0.0654304 0.343753
-0.136813 0.0653412 0.364513
-0.136799 0.0652522 0.385216
-0.136786 0.0651635 0.405863
-0.136768 0.0650456 0.433304
-0.138039 0.075997 -0.40091
-0.138026 0.0759065 -0.381887
-0.138011 0.0757981 -0.359119
-0.137998 0.0757081 -0.340195
-0.137985 0.0756182 -0.321316
-0.137972 0.0755286 -0.302482
-0.137957 0.0754213 -0.27994
-0.137944 0.0753321 -0.261203
-0.137928 0.0752254 -0.238778
-0.137916 0.0751367 -0.220139
-0.137903 0.0750482 -0.201544
-0.137888 0.0749423 -0.179287
-0.137875 0.0748543 -0.160788
-0.137863 0.0747664 -0.142332
-0.137847 0.0746613 -0.120242
-0.137835 0.0745739 -0.101881
-0.13782 0.0744694 -0.0799048
-0.137807 0.0743824 -0.0616382
-0.137792 0.0742784 -0.0397745
-0.13778 0.0741919 -0.0216014
-0.137765 0.0740884 0.000150539
-0.137753 0.0740023 0.0182309
-0.137738 0.0738994 0.0398719
-0.137726 0.0738138 0.0578601
-0.137711 0.0737113 0.0793909
-0.137696 0.0736091 0.100862
-0.138397 0.080641 0.118681
-0.138382 0.0805296 0.140028
-0.138369 0.080437 0.157773
-0.138353 0.0803261 0.179013
-0.138338 0.0802156 0.200194
-0.138325 0.0801237 0.217801
-0.13831 0.0800137 0.238876
-0.138294 0.079904 0.259893
-0.138279 0.0797946 0.280852
-0.138266 0.0797037 0.298274
-0.138251 0.0795948 0.319129
-0.138978 0.085818 -0.179013
-0.138964 0.0857173 -0.160534
-0.13895 0.0856168 -0.142098
-0.138934 0.0854965 -0.120032
-0.13892 0.0853966 -0.101691
-0.138903 0.085277 -0.0797382
-0.13889 0.0851775 -0.0614911
-0.138873 0.0850585 -0.0396506
-0.13886 0.0859263 0.439407
-0.139911 0.094588 -0.438162
-0.139896 0.0944752 -0.419083
-0.139937 0.0957045 -0.0213925
-0.139919 0.0955713 0.000313334
-0.139904 0.0954605 0.0183555
-0.139886 0.0953279 0.0399509
-0.139871 0.0952177 0.0579013
-0.139854 0.0950859 0.079387
-0.139836 0.0949543 0.100813
-0.139639 0.0934887 0.339567
-0.139622 0.0933615 0.36028
-0.139605 0.0932347 0.380936
-0.139591 0.0931293 0.398108
-0.139574 0.0930032 0.418662
-0.140177 0.0983898 0.118609
-0.140159 0.0982541 0.13992
-0.140144 0.0981413 0.157634
-0.140126 0.0980063 0.178837
-0.140108 0.0978716 0.199982
-0.140093 0.0977597 0.217558
-0.140075 0.0976257 0.238597
-0.141015 0.105602 -0.437604
-0.141001 0.105501 -0.422354
-0.140982 0.10535 -0.399534
-0.140965 0.105225 -0.380567
-0.140949 0.1051 -0.361645
-0.140929 0.104951 -0.338998
-0.140913 0.104827 -0.320175
-0.140897 0.104703 -0.301396
-0.140877 0.104555 -0.278919
-0.140861 0.104431 -0.260238
-0.140845 0.104309 -0.2416
-0.140826 0.104161 -0.219292
-0.140809 0.104039 -0.200751
-0.140409 0.101002 0.259515
-0.140391 0.100864 0.280432
-0.140376 0.10075 0.297819
-0.140358 0.100612 0.318631
-0.140903 0.105594 0.100789
-0.142021 0.115847 -0.334787
-0.141993 0.115628 -0.304738
-0.141965 0.11541 -0.274802
-0.141937 0.115192 -0.244979
-0.141871 0.11468 -0.174598
-0.141843 0.114465 -0.145151
-0.141833 0.114385 -0.134136
-0.141805 0.114172 -0.10484
-0.141778 0.113959 -0.075653
-0.141768 0.11388 -0.0647359
-0.141741 0.113668 -0.0356978
-0.141738 0.11442 0.339028
-0.141718 0.114265 0.3597
-0.141698 0.11411 0.380315
-0.141679 0.113956 0.400874
-0.141662 0.113827 0.417965
-0.141642 0.113674 0.438422
-0.142297 0.119552 0.125619
-0.142269 0.119333 0.153935
-0.142248 0.119169 0.175104
-0.14222 0.118951 0.203239
-0.1422 0.118788 0.224273
-0.142179 0.118626 0.24525
-0.142152 0.11841 0.27313
-0.142131 0.118249 0.293973
-0.142111 0.118088 0.314759
-0.142993 0.125792 -0.214957
-0.142963 0.125557 -0.18539
-0.142952 0.125468 -0.17433
-0.142923 0.125234 -0.144915
-0.142893 0.125 -0.115609
-0.142802 0.124276 -0.0247287
-0.142772 0.124046 0.00413096
-0.142751 0.123874 0.0257057
-0.142722 0.123646 0.0543792
-0.142711 0.12356 0.0651045
-0.143951 0.134888 -0.439929
-0.143931 0.134727 -0.420919
-0.143911 0.134568 -0.401954
-0.143888 0.134376 -0.379255
-0.143868 0.134217 -0.360389
-0.143368 0.130212 0.114934
-0.143953 0.1356 -0.100809
-0.143929 0.135411 -0.0789651
-0.14391 0.135254 -0.0608085
-0.143886 0.135066 -0.0390761
-0.143747 0.133949 0.0900595
-0.143843 0.135389 0.324708
-0.143832 0.135297 0.335048
-0.143809 0.135114 0.355687
-0.143779 0.13487 0.383119
-0.143756 0.134688 0.403628
-0.143734 0.134506 0.424082
-0.145047 0.145817 -0.439372
-0.145026 0.145644 -0.420383
-0.145005 0.145471 -0.401439
-0.144979 0.145265 -0.378765
-0.144958 0.145093 -0.35992
-0.144937 0.144922 -0.341119
-0.144916 0.144751 -0.322362
-0.144891 0.144547 -0.299912
-0.14487 0.144377 -0.281253
-0.144845 0.144173 -0.258919
-0.144824 0.144004 -0.240355
-0.14441 0.140639 0.129057
-0.144386 0.140446 0.15025
-0.144367 0.140286 0.167867
-0.144343 0.140094 0.188954
-0.144319 0.139902 0.209983
-0.144296 0.139711 0.230955
-0.144276 0.139552 0.248387
-0.144253 0.139362 0.269255
-0.144229 0.139173 0.290065
-0.144933 0.14555 -0.0209086
-0.144909 0.145348 0.000690527
-0.144888 0.14518 0.0186442
-0.144864 0.14498 0.0401339
-0.144843 0.144813 0.0579968
-0.145138 0.147861 0.107784
-0.144822 0.145264 0.379387
-0.144798 0.145068 0.399885
-0.146024 0.155762 -0.340671
-0.146001 0.155579 -0.321935
-0.145975 0.155359 -0.29951
-0.145953 0.155176 -0.28087
-0.145882 0.154595 -0.221518
-0.145856 0.154379 -0.199375
-0.145834 0.154198 -0.18097
-0.145808 0.153983 -0.158941
-0.145786 0.153803 -0.14063
-0.145764 0.153625 -0.122362
-0.145924 0.155557 0.0401729
-0.145902 0.155378 0.0580171
-0.145876 0.155164 0.079376
-0.146167 0.158168 0.128968
-0.146141 0.157951 0.150125
-0.146119 0.157771 0.167711
-0.146093 0.157555 0.188762
-0.145896 0.155921 0.348259
-0.145808 0.155187 0.419979
-0.147009 0.165759 -0.261914
-0.146981 0.165526 -0.239681
-0.146958 0.165333 -0.221201
-0.146931 0.165101 -0.199082
-0.146806 0.164067 -0.100309
-0.146783 0.163877 -0.0821528
-0.146756 0.163649 -0.0604215
-0.146733 0.16346 -0.042358
-0.146416 0.160821 0.20971
-0.14639 0.160602 0.230639
-0.146368 0.160419 0.248036
-0.146342 0.160201 0.268861
-0.146316 0.159984 0.289629
-0.14629 0.159767 0.310341
-0.146905 0.165465 0.100652
-0.14661 0.163002 0.33091
-0.147957 0.174847 -0.437891
-0.147932 0.174641 -0.418959
-0.147908 0.174434 -0.40007
-0.147883 0.174228 -0.381227
-0.147859 0.174023 -0.362428
-0.146893 0.165927 0.378772
-0.146866 0.165703 0.399229
-0.146813 0.165258 0.439978
-0.147979 0.175596 -0.180424
-0.147954 0.175392 -0.162101
-0.147925 0.175147 -0.14017
-0.147901 0.174944 -0.121941
-0.147767 0.173814 -0.0206342
-0.147738 0.173574 0.000904426
-0.147715 0.173375 0.0188079
-0.149044 0.185691 -0.437339
-0.149013 0.185428 -0.41465
-0.148972 0.185078 -0.384498
-0.148905 0.184512 -0.335742
-0.148889 0.184382 -0.324533
-0.148849 0.184036 -0.29472
-0.148282 0.179245 0.118283
-0.148253 0.179 0.139425
-0.148225 0.178755 0.160509
-0.1482 0.178552 0.178036
-0.148172 0.178309 0.199015
-0.148143 0.178066 0.219937
-0.148114 0.177824 0.240802
-0.148091 0.177623 0.258146
-0.14787 0.175753 0.419283
-0.148956 0.185484 -0.114459
-0.148916 0.185141 -0.0854381
-0.148901 0.185012 -0.0745828
-0.14886 0.184671 -0.045709
-0.148736 0.183612 0.0438387
-0.148706 0.183359 0.0651775
-0.148408 0.180832 0.278838
-0.148379 0.180588 0.299537
-0.148695 0.183783 0.320096
-0.148666 0.183535 0.340676
-0.148642 0.183329 0.357783
-0.148868 0.185756 0.439244
