ply
format ascii 1.0
comment Created by Open3D
element vertex 1588
property double x
property double y
property double z
end_header
0.0249155 -0.0644315 0.10633
0.00415091 -0.109031 0.340076
0.102944 -0.0670602 -0.139091
-0.0432472 0.0149763 0.177321
0.0674759 -0.0215014 0.316601
-0.08443 -0.033789 -0.292907
-0.0831375 -0.0491424 -0.0343368
0.0185997 -0.109866 -0.320835
-0.15356 0.0580716 -0.00359525
0.156206 -0.108448 -0.0392779
-0.00559953 -0.109031 -0.166121
0.0674053 -0.0946685 0.00140267
0.0336091 -0.0215014 0.0955264
-0.14465 0.173062 0.306857
0.0939302 -0.109031 0.27659
-0.105298 0.0106359 -0.189053
-0.123253 0.0910259 0.23455
-0.179596 0.146348 0.225359
-0.160452 0.171171 -0.394069
-0.13115 -0.0705615 -0.339434
0.182719 -0.0610336 0.336549
-0.00310924 -0.0215014 -0.116793
-0.137981 -0.0399757 -0.333901
-0.0561908 -0.00537569 0.0294537
0.0514375 -0.0644315 -0.0846866
0.151184 -0.0368918 0.00144556
0.0679642 -0.0679088 -0.0111864
0.128796 -0.127286 0.381973
-0.0962926 0.0300312 -0.0492589
0.118201 -0.109031 -0.0802878
-0.0806288 -0.109031 0.396414
0.066308 -0.0215014 0.18046
-0.11992 0.076102 -0.333518
-0.0790966 -0.0299088 0.298713
-0.0825494 -0.11025 0.0922408
-0.140957 0.16966 -0.184613
-0.144668 0.168831 -0.0740106
-0.0589259 0.0360488 -0.116915
0.00644956 -0.0671071 -0.347366
-0.114616 0.0523548 -0.338462
-0.0221691 -0.0644315 0.326538
-0.101829 -0.00489812 -0.340539
-0.0922444 -0.0478114 0.316628
-0.0904006 0.0608812 -0.0751085
0.0442385 -0.130545 -0.0711094
0.112584 -0.0215014 -0.210457
0.0959785 -0.0215014 -0.0327267
0.150132 -0.0217862 0.0176136
0.105266 -0.117344 -0.416946
0.112458 -0.109943 0.132919
0.0768859 -0.130545 0.112395
0.0280018 -0.0696777 -0.00770489
-0.0324912 -0.067126 0.0892814
-0.147871 0.168116 -0.136674
0.174569 -0.0961444 0.219092
-0.0977774 0.0173214 -0.227319
-0.16591 0.0850725 -0.112671
0.0557428 -0.042989 0.431674
0.182665 -0.057617 0.113935
0.1032 -0.109936 -0.312623
-0.176699 0.165679 -0.111955
-0.104795 0.0454714 0.397268
0.177613 -0.0400277 0.314954
-0.102618 0.0265688 -0.279308
-0.10305 0.0005683 -0.316581
0.133748 -0.0215014 -0.220165
-0.0253952 -0.10983 0.391446
0.182361 -0.0782158 -0.299157
-0.137926 0.0883458 0.00146596
-0.070199 -0.0215014 0.36359
-0.160025 0.16952 0.341768
-0.0408478 -0.109031 0.337776
0.0520284 -0.109894 -0.372295
-0.11241 0.0424743 -0.0283866
-0.0474789 -0.0671332 -0.0904609
-0.128724 -0.0694212 0.00840877
0.0695344 -0.130545 -0.0722339
0.0238403 -0.10987 0.252248
0.031444 -0.0215014 0.0911075
-0.113331 0.0465981 -0.124996
-0.146831 0.00776498 0.424807
-0.0387434 -0.0334468 -0.431217
-0.0403844 -0.0205608 0.145577
0.0571087 -0.130545 -0.00795516
-0.0696999 -0.109031 -0.330973
-0.0872751 -0.065258 0.271894
-0.00407486 -0.0256087 -0.00522314
0.159064 -0.107477 0.324637
-0.177346 0.136275 -0.103801
0.0167036 -0.109031 -0.377118
-0.000989934 -0.0215014 0.221479
-0.17392 0.162298 -0.331129
-0.174728 0.124554 0.162172
0.114013 -0.109945 0.38357
-0.0516147 -0.0671352 -0.0652041
-0.0334162 -0.130545 0.167121
-0.132287 0.0621073 -0.431604
0.182719 -0.0605286 0.122471
-0.139635 -0.0325681 -0.195159
-0.0233911 -0.0644315 0.0438433
-0.116075 0.0588867 -0.380016
-0.162756 0.164791 0.391012
0.0316132 -0.0215014 0.206567
-0.100906 -0.00903259 0.383418
-0.0868566 -0.110095 0.323745
0.0778265 -0.0215014 0.0466171
-0.0965794 0.0141876 -0.258516
0.080971 -0.109031 0.353545
-0.0851436 -0.0555468 0.0952113
-0.0544842 0.0316458 -0.173242
0.102763 -0.109031 0.214177
0.08011 -0.0644315 -0.272767
-0.0744767 -0.0923079 0.00138146
0.0885737 -0.0670672 0.28562
-0.169188 0.0997507 0.0707404
0.0258147 -0.130545 0.41136
-0.164437 0.167152 0.430243
-0.0515909 -0.0207249 0.057648
-0.161811 0.165003 0.384437
-0.105267 0.0679829 -0.36816
0.179928 -0.0871852 0.30365
0.0964426 -0.130545 0.212267
-0.161271 0.0643024 -0.125774
0.177025 -0.0391487 0.409642
0.0610146 -0.109031 0.173815
-0.107807 -0.0297823 0.00218209
-0.121569 0.0834829 0.140141
-0.119625 -8.09282e-05 -0.00137938
0.152044 -0.109398 0.271888
0.0578253 -0.0644315 -0.305412
0.123305 -0.108848 -0.421776
0.101824 -0.109935 -0.290801
-0.149479 0.171949 0.0849433
-0.10009 -0.0126855 -0.113538
-0.15606 0.0556189 0.426827
-0.00567708 -0.0215014 -0.415671
-0.160261 0.0597779 -0.280063
0.00924535 -0.0215014 -0.241019
-0.0800257 -0.0639549 0.053662
-0.0197604 -0.109031 0.210007
0.0412118 -0.0644315 0.338814
0.0617885 -0.109031 0.0633981
-0.113765 -0.0991228 -0.237772
0.02852 -0.109874 -0.347226
0.12968 -0.0215014 -0.399952
-0.0790966 -0.0363485 0.341928
-0.0790966 -0.0337851 0.330272
-0.063833 -0.0671412 0.270116
-0.135739 -0.0500122 -0.316648
0.0900521 -0.109925 0.206467
-0.043223 -0.0837481 -0.431674
-0.08066 -0.109031 0.17948
-0.11216 0.041359 -0.221281
-0.173509 0.121608 0.0129241
-0.0596746 -0.0215014 0.305147
-0.0225167 -0.0637636 0.421376
-0.148243 0.00597298 -0.351679
-0.0790966 -0.0605116 0.355755
0.119645 -0.130545 -0.132703
0.151346 -0.0220227 -0.0285959
0.0882788 -0.109923 0.354936
0.0816049 -0.0644315 0.378688
-0.167566 0.169336 0.302125
-0.139963 -0.0304382 -0.0130216
-0.148886 0.0088509 -0.300668
-0.073377 -0.0644315 0.410339
-0.146738 -0.000767227 0.239154
-0.0932623 -0.0432539 -0.352927
0.173848 -0.0969671 0.369965
-0.0457682 -0.109813 0.293014
-0.129508 0.056374 -0.431454
0.0102852 -0.0671052 -0.368325
-0.0925007 0.00531984 0.17013
-0.0853781 0.0564085 -0.270828
0.172842 -0.0981144 -0.0165439
-0.132518 0.132504 0.021662
-0.135257 -0.0521726 -0.140285
-0.140906 -0.0268805 0.2975
-0.118455 0.0695427 -0.231454
-0.00556056 -0.0671129 0.371216
-0.101927 -0.115882 -0.359259
0.0489872 -0.0215014 0.382748
-0.0447083 -0.109814 -0.204588
0.0449086 -0.0215014 0.178507
-0.00692577 -0.109031 -0.351015
0.108146 -0.109031 0.2166
-0.0993356 -0.109031 -0.0492824
0.10321 -0.0670601 -0.274233
0.0486253 -0.0644315 0.270856
-0.0849263 -0.0489683 -0.376965
-0.0440807 -0.0215014 -0.1105
-0.00705198 -0.109845 -0.0942732
-0.0629926 -0.0644315 -0.145475
-0.139305 0.162895 -0.0511792
-0.0356812 -0.0671275 -0.172418
0.0344464 -0.0644315 -0.227022
0.0574229 -0.0670823 -0.111422
0.0241634 -0.109871 -0.0289585
0.0354538 -0.0644315 0.046826
-0.102533 -0.00174722 -0.227257
0.056882 -0.0215014 0.285935
0.030718 -0.0215014 -0.40489
0.0903955 -0.0217908 0.420762
0.0253947 -0.0670979 0.0221789
-0.0953265 -0.0340118 -0.301917
-0.101927 -0.12674 -0.386025
0.0127543 -0.130545 0.220193
-0.0197115 -0.0644315 0.267951
-0.0915584 -0.0508828 -0.392929
0.123792 -0.109031 -0.267989
0.180649 -0.0850682 0.142118
0.112972 -0.0215014 -0.227137
-0.0680225 -0.0644315 -0.345836
0.138321 -0.109964 0.183679
-0.101835 0.0669668 0.206497
-0.182536 0.160966 -0.368964
-0.0830823 -0.0410295 -0.194547
-0.0649472 -0.0132265 0.219196
0.176505 -0.0383696 0.275458
-0.0541441 0.0328868 0.140799
-0.107683 0.0467619 0.238539
-0.0399609 -0.0671296 0.200892
0.0588223 -0.109031 0.0288648
-0.100297 0.066149 -0.0577681
0.0162353 -0.0644315 -0.206847
-0.103492 0.00254625 -0.29953
0.120589 -0.109031 -0.0568784
-0.0880742 -0.109031 -0.0950654
0.0484073 -0.0215014 0.374823
-0.100814 0.0664235 0.237348
0.0453992 -0.115125 -0.416946
-0.0773671 -0.0644315 0.23186
-0.160498 0.165296 0.275649
-0.138613 0.159795 -0.277673
-0.109431 0.0291367 0.383721
0.109104 -0.102534 -0.00287449
0.0943106 -0.0670644 0.28835
-0.175365 0.127407 0.205759
-0.0843652 -0.130545 0.327338
-0.0943459 -0.108831 -0.111597
0.0471995 -0.109031 -0.0131545
0.0153223 -0.109864 -0.0448722
-0.0783215 -0.0671482 -0.16798
-0.0930805 0.0623076 -0.215437
0.122182 -0.109031 -0.0221296
-0.0806868 -0.0139108 0.1635
-0.00677284 -0.0978855 0.00182245
-0.0402109 -0.0221633 0.332956
-0.0679842 -0.0671432 -0.222765
-0.131434 -0.0692901 0.103143
-0.00405156 -0.0671122 -0.182308
-0.105168 0.0349599 -0.393905
0.0825514 -0.0644315 0.372431
-0.0522341 -0.0644315 0.0463839
-0.111169 0.0631117 -0.229844
-0.0851212 -0.0570486 -0.387501
-0.0994126 -0.109031 -0.12576
0.164302 -0.105017 0.159956
-0.149222 0.0103563 0.228507
0.0231268 -0.130545 0.221409
0.0520405 -0.130545 -0.165968
-0.163622 0.0748264 0.290578
-0.0279726 -0.0671238 0.0490643
0.0863889 -0.0644315 0.351245
-0.131584 -0.0490442 -0.426748
0.174264 -0.0352811 -0.364098
-0.115113 0.0545795 0.189147
-0.108885 0.0266941 0.0255619
-0.0831568 -0.0521756 0.374186
-0.0717657 -0.0215014 0.354737
0.0585952 -0.109899 -0.212061
-0.116787 0.0620744 0.124509
-0.0651158 -0.0671418 -0.132137
-0.0913489 0.0059037 -0.19648
0.0160467 -0.109031 0.302359
-0.0987775 -0.130545 -0.0631675
-0.175979 0.130157 0.350154
-0.0573147 -0.0215014 -0.404631
0.0486981 -0.0351515 -0.00137938
-0.0405391 -0.0159449 -0.0748153
0.170304 -0.0925787 -0.427963
-0.0826882 0.0565552 -0.152323
-0.131871 -0.0673342 -0.0478118
0.0801782 -0.109917 0.284489
0.0808138 -0.0644315 -0.139839
0.128796 -0.114649 0.127855
-0.0479842 -0.109031 0.329817
-0.0410117 -0.0147657 0.0966017
0.0338811 -0.130545 -0.125354
0.00511699 -0.130545 -0.183766
-0.0267449 -0.130545 -0.363339
-0.00305137 -0.0671117 0.332287
-0.160593 0.0612665 0.176851
-0.137265 0.153758 0.408824
-0.0424506 0.0130231 0.381695
0.111525 -0.109031 -0.304917
-0.00280251 -0.0215014 0.247917
-0.0850723 -0.0533737 -0.398992
-0.00253223 -0.0671114 -0.295474
0.0581412 -0.130545 0.330206
0.0769434 -0.0644315 0.268346
-0.0981857 -0.0212104 -0.250567
0.0819651 -0.109918 -0.192587
-0.0506678 -0.0215014 -0.121549
0.0967468 -0.0248875 -0.42574
0.0757932 -0.0644315 -0.212264
-0.146639 0.173621 0.179581
0.104536 -0.0644315 0.221447
0.0466345 -0.109889 0.203742
-0.044924 -0.0640297 -0.012661
-0.0888265 -0.168128 -0.367921
-0.134407 -0.0559796 -0.0158717
-0.0910279 0.0015607 -0.357682
-0.107813 0.0218959 -0.0836021
-0.0857954 -0.130545 0.199875
0.00769091 -0.0644315 0.130639
0.132556 -0.0644315 -0.0526483
-0.081875 -0.0417712 0.00287431
-0.0903366 -0.130545 0.316673
-0.0796398 -0.110164 0.0193135
0.0921589 -0.130545 -0.316207
-0.0582048 -0.102076 -0.00269581
0.177885 -0.0913276 -0.0514718
0.0913069 -0.0644315 0.101955
-0.146366 -0.0024335 0.326166
-0.0830876 -0.0417902 0.294046
0.0997256 -0.108256 0.0100333
-0.142746 -0.0186431 0.412335
0.00689201 -0.109857 -0.218203
-0.0906605 -0.0899879 0.431674
-0.125449 0.0885138 -0.00755539
-0.0436041 -0.130545 -0.322224
0.16883 -0.101266 0.0133315
-0.0413213 -0.0215014 0.162259
-0.0159851 -0.130545 0.0399818
-0.0707132 -0.109793 0.0222688
-0.0188413 -0.130545 0.167306
0.0279679 -0.0215014 -0.170313
0.0673215 -0.109031 -0.0309705
-0.143597 -0.00960729 0.423526
-0.171547 0.166866 -0.0279792
0.0576641 -0.0644315 -0.175599
0.0722529 -0.109031 0.268887
0.128796 -0.119355 0.409751
0.0934669 -0.109928 -0.228396
-0.0670972 -0.0935056 0.00138146
0.0275724 -0.0672294 0.0155621
-0.141637 0.041301 -0.00137938
-0.084869 -0.0471894 0.124927
0.0884131 -0.0644315 -0.155849
-0.111461 -0.0117422 0.00230705
-0.0537261 -0.0215014 0.234568
0.0630045 -0.0215014 0.267615
-0.152107 0.171344 0.163079
0.0340947 -0.130545 0.260217
0.122192 -0.0215014 -0.360177
0.0733715 -0.0215014 0.278814
-0.0830946 -0.0428621 -0.18469
-0.009266 -0.0215014 0.337328
0.119244 -0.109031 0.235942
0.0200149 -0.109867 -0.402152
-0.0873873 -0.0965721 0.431661
-0.10422 0.00580844 0.346563
0.0276441 -0.109874 -0.261242
0.0961138 -0.0644315 0.0942636
0.101878 -0.0670608 -0.108201
-0.0428758 0.00691466 -0.226801
0.0481038 -0.0644315 0.0505603
-0.122608 0.0881352 0.202125
0.108295 -0.0670576 0.185144
-0.03942 -0.0671293 0.162261
-0.0275194 -0.0671235 -0.095829
-0.0976032 -0.0256325 -0.418879
-0.0442879 0.0154883 -0.331119
-0.00546943 -0.130545 -0.298504
0.130975 -0.0215014 -0.111542
-0.0988201 -0.0183701 -0.119255
0.178829 -0.089414 -0.401738
0.03194 -0.0967907 0.00159972
0.138692 -0.0215014 0.302339
-0.157087 0.0455673 0.124776
-0.0510056 0.0280596 -0.206626
-0.145718 0.168597 0.114891
0.117646 -0.0215014 0.163308
-0.0207792 -0.130545 0.0659313
0.0317555 -0.0587637 0.428643
0.063707 -0.0670793 0.169829
0.149771 -0.0217625 0.385871
0.0914626 -0.109926 0.123774
0.0688196 -0.109907 -0.384641
-0.16231 0.0689537 -0.229088
-0.111075 0.0626677 -0.166155
-0.0830866 -0.0416607 0.136589
-0.0505496 -0.109809 -0.25203
0.0082945 -0.0671062 0.275277
-0.114402 0.0128411 -0.00277448
0.0350779 -0.0670932 -0.141486
0.104195 -0.0670596 0.100966
-0.153917 0.0313755 0.121185
0.062956 -0.0493664 -0.431601
0.156307 -0.108413 0.343874
-0.0831522 -0.0514163 -0.228783
0.0204996 -0.130545 -0.186773
-0.0167799 -0.0671183 -0.250977
0.172209 -0.0988362 0.040769
0.13103 -0.0215014 0.351834
0.0212238 -0.0215014 -0.309074
0.115116 -0.130545 0.3291
-0.120727 0.0797154 0.0217358
-0.147659 0.00335704 -0.334492
0.0117498 -0.0644315 -0.0599308
-0.0400235 -0.109818 0.289548
-0.00495805 -0.130545 -0.220681
-0.0234284 -0.0215014 0.189677
-0.0418646 0.0165693 -0.213433
-0.103209 0.0676981 0.2308
0.098433 -0.0215014 -0.13959
-0.119213 0.0729337 0.114496
-0.0955244 -0.0336857 -0.0140791
-0.154271 0.0329605 -0.0674146
0.0648611 -0.109031 -0.301299
-0.116512 -0.0274325 -0.431674
0.0226687 -0.0670992 0.091315
-0.143858 -0.0136625 -0.412414
-0.134588 -0.0551688 0.312098
-0.0274866 -0.109828 -0.050176
-0.0690087 -0.0644315 -0.339095
-0.126723 0.0124141 -0.431674
-0.172108 0.112824 0.168805
-0.0228321 -0.0671213 0.396057
0.143014 -0.0670408 -0.0896622
-0.101334 0.0238737 0.162627
-0.0393302 -0.0644315 0.324521
0.0176462 -0.0215014 -0.396391
-0.0830915 -0.0423706 -0.141722
-0.177791 0.138267 0.148445
-0.168831 0.144367 -0.430634
0.0946392 -0.0670643 0.0594694
0.0123648 -0.0364877 -0.431633
-0.130667 0.12422 0.147422
0.0477465 -0.0215014 0.0723883
-0.13775 0.0851779 0.431674
-0.0848991 -0.0481028 -0.284856
-0.101344 -0.130545 -0.226309
0.00547682 -0.0793593 -0.431183
-0.171881 0.111808 0.36842
0.00738959 -0.109031 -0.325401
0.0647065 -0.109904 -0.21058
0.0978028 -0.0644315 -0.35715
0.0476925 -0.130545 0.156188
-0.178361 0.140821 0.376971
0.175808 -0.0373265 0.4027
0.0068735 -0.0679189 0.421816
0.0283197 -0.0630558 0.42322
0.140784 -0.0215014 0.226717
-0.0209571 -0.109834 -0.338909
0.100257 -0.130545 0.209197
-0.100046 -0.0128793 -0.130127
0.00990792 -0.0215014 -0.104471
-0.136625 0.150896 0.305125
-0.175796 0.129335 0.273588
0.173897 -0.0348624 -0.311639
-0.0888054 0.00379788 0.282532
0.128796 -0.130017 -0.396015
0.108041 -0.0711902 0.00681458
-0.134859 -0.0539531 0.236455
-0.013167 -0.10984 0.331281
-0.0829805 -0.0257237 0.239352
-0.17939 0.145429 0.246129
-0.0298513 -0.0644315 0.197654
-0.0892804 -0.0610821 0.0345441
-0.0874751 -0.00659543 -0.33747
-0.0969177 -0.0268875 0.350004
0.0653096 -0.0670785 -0.0321881
-0.0146577 -0.109839 -0.109262
-0.0408089 -0.0219444 -0.365405
-0.0272648 -0.0215014 -0.24782
-0.0696444 -0.0215014 0.343498
-0.00865867 -0.109844 -0.0440015
-0.1248 0.0979499 -0.340598
-0.123831 -0.0881436 0.112839
-0.13602 -0.0487574 0.26468
0.0808647 -0.109031 0.00991806
-0.159621 0.062108 0.0111953
-0.0824842 -0.0672936 0.347986
-0.0900702 0.0166263 -0.392889
-0.088583 -0.109031 0.12616
-0.149444 0.0113477 -0.227926
-0.103822 0.00402557 -0.331322
0.0915706 -0.0931556 -0.00137938
-0.0790966 -0.0551869 -0.283713
-0.01211 -0.109841 0.417794
0.0531351 -0.130545 0.0757682
0.182719 -0.068972 -0.284311
-0.167046 0.090158 -0.0330986
0.102132 -0.130545 -0.407209
0.084057 -0.0644315 0.308766
-0.0173354 -0.0671186 0.266278
-0.0854672 -0.00596007 0.205262
-0.121682 0.0839913 -0.162177
-0.101927 -0.130288 0.20809
-0.146729 -0.000805601 -0.124954
-0.00646308 -0.0671133 0.357497
-0.0831535 -0.0516426 -0.238269
0.0735825 -0.130545 -0.0953704
-0.166402 0.16625 -0.00257571
-0.175235 0.126825 -0.127615
-0.145002 0.173414 -0.248822
-0.0727967 -0.109791 0.335584
-0.0830708 -0.0392483 -0.274383
-0.0562978 0.0339117 -0.186658
0.125778 -0.109031 0.034302
0.0682079 -0.109031 -0.0934616
-0.154023 0.0318514 0.102211
-0.0615484 0.0393215 -0.136024
-0.103732 0.00362084 -0.206509
-0.163119 0.164711 0.114071
0.0975946 -0.0215014 -0.323019
0.0358946 -0.0977949 0.00180029
-0.162017 0.0676422 0.409297
-0.011971 -0.0800978 -0.431331
0.11169 -0.130545 0.0393894
0.0677187 -0.130545 -0.205871
0.139788 -0.071747 -0.372309
0.119122 -0.130545 -0.329633
0.0669139 -0.0215014 -0.337706
0.0172037 -0.130545 -0.41368
-0.159505 0.16964 -0.0312725
-0.15893 0.0538211 -0.251449
0.0639154 -0.0670792 0.0714455
0.0657881 -0.0670783 0.266394
-0.103272 0.0671172 -0.340237
0.0391374 -0.0601917 -0.00567452
0.019614 -0.0644315 0.0438488
-0.12176 -0.0247612 -0.431674
-0.175111 0.126269 0.0851977
0.0140715 -0.0644315 0.392349
0.101635 -0.109031 -0.369044
-0.129621 0.119536 -0.20084
-0.0765148 -0.109884 -0.402036
-0.0937175 0.0132437 -0.134087
-0.0804539 -0.0222446 0.191297
0.0451098 -0.0670883 0.319477
0.0790374 -0.0215014 -0.248968
-0.107784 0.0217635 0.243619
-0.167525 0.0923054 -0.0991081
0.154703 -0.0560996 -0.00137938
-0.040037 -0.0194856 0.411547
-0.0823186 -0.158273 0.375283
0.0163042 -0.109864 0.127193
-0.155074 0.172559 -0.236458
-0.162769 0.0711603 0.0165016
-0.0287877 -0.107674 -0.42397
-0.0284287 -0.130545 -0.2063
0.134548 -0.109961 0.0381281
-0.150358 0.121971 -0.00137938
-0.0790966 -0.048614 0.323571
-0.00957968 -0.0215014 -0.0459679
0.11405 -0.0670549 0.347251
-0.0183805 -0.0644315 0.187299
-0.0678407 -0.0671431 -0.0725094
0.182719 -0.0589796 0.261782
0.175064 -0.0955805 -0.130763
-0.0103464 -0.0671152 -0.185529
-0.00737649 -0.0937232 -0.00137938
-0.0463029 -0.109813 -0.2614
-0.090368 0.0608635 0.271676
-0.0966839 -0.109031 -0.33018
0.0868205 -0.130545 -0.0236389
-0.0634431 0.0379873 0.0601436
-0.168457 0.0964771 0.190743
-0.111251 0.0372876 0.0464826
-0.0815449 -0.110286 0.271848
-0.0919179 -0.109031 0.387595
-0.167839 0.09371 0.170339
0.0587428 -0.0215014 0.0943491
-0.169453 0.100938 0.0485222
-0.143447 0.172848 -0.0533784
-0.173291 0.118121 -0.345418
-0.17452 0.123623 0.412981
0.0960519 -0.130545 0.0114634
0.139788 -0.0598293 -0.354919
-0.163663 0.0750122 -0.0441822
0.0299053 -0.0215014 0.395867
0.128322 -0.0644315 0.0772704
-0.170137 0.167191 0.20444
0.175638 -0.0947366 0.26586
0.0653327 -0.0644315 0.282187
0.166584 -0.103494 0.0192234
-0.101474 -0.00648675 -0.123522
-0.143505 0.172918 -0.206485
0.0662672 -0.0215014 0.076313
0.0568926 -0.0215014 0.295886
-0.179156 0.144381 -0.300717
0.0487557 -0.0670865 -0.17611
-0.170939 0.107588 -0.318582
-0.104637 0.00767305 0.174923
-0.0833489 -0.0252072 0.0370023
0.174185 -0.03519 0.100123
0.0988988 -0.0644315 0.190097
-0.1477 0.168154 -0.294039
-0.0221593 -0.109031 0.252511
-0.124096 0.0947974 0.354835
-0.0265656 -0.0671231 -0.411786
0.0351838 -0.0215014 0.0526988
-0.0534274 0.0170426 0.387549
-0.0547702 -0.109806 -0.0308275
0.0577049 -0.130545 0.168075
0.104478 -0.109031 -0.171039
-0.101927 -0.113235 0.392703
0.0470537 -0.10989 -0.0285064
-0.14932 0.167792 0.225772
0.131169 -0.0670465 0.38125
-0.0863823 -0.109031 0.186963
0.180073 -0.0451115 -0.188214
-0.114026 0.0497108 0.290162
-0.174649 0.124199 -0.036982
-0.0790966 -0.0253755 -0.369818
-0.149958 0.0339631 -0.426932
-0.152128 0.0783796 0.00182728
-0.160667 0.171116 0.15317
-0.178678 0.165958 0.13965
-0.0405812 -0.0187603 -0.208926
-0.052162 -0.0644315 -0.17483
0.0380372 -0.0282748 -0.00319265
-0.173893 0.162304 -0.347088
0.0232807 -0.0644315 -0.167572
-0.0791611 -0.130545 -0.230793
-0.0760466 -0.0644315 -0.351591
0.12452 -0.0670498 -0.325533
-0.159641 0.0570028 0.184921
-0.0602682 -0.130545 0.271968
-0.0796799 -0.0218208 0.41557
-0.154543 0.0341765 -0.135474
-0.0138813 -0.0215014 0.213395
0.00487737 -0.0215014 0.218131
-0.086365 -0.0660473 -0.224639
-0.0880185 0.058024 0.16216
0.0562564 -0.0215014 0.304882
0.0801937 -0.0215014 0.235936
0.0917631 -0.109031 -0.130773
0.0154038 -0.130545 -0.0285979
-0.0835309 -0.0614677 -0.239813
-0.0708044 -0.0644315 -0.210772
-0.136548 0.150548 0.247475
0.11434 -0.0644315 -0.218608
0.0369174 -0.130545 -0.4123
0.0956839 -0.109929 -0.330684
-0.0682587 -0.0215014 0.0629632
0.043281 -0.0644315 -0.254863
0.130302 -0.0671391 0.0161847
0.0944303 -0.130545 0.179909
-0.125779 0.102333 -0.244874
0.070836 -0.0215014 -0.070892
0.110048 -0.109941 -0.361599
-0.180674 0.151177 0.330495
-0.101927 -0.130426 -0.0312312
0.0556539 -0.130545 0.0843796
-0.0973887 -0.0247788 -0.411647
0.0408667 -0.0644315 0.303517
0.159733 -0.10725 -0.302177
-0.103935 -0.105373 -0.160864
0.110006 -0.0644315 0.054048
-0.053575 -0.0215014 -0.0601444
0.0878636 -0.0215014 0.0925182
-0.109641 0.0559459 0.349934
0.080532 -0.109917 -0.262574
0.158878 -0.10754 -0.179735
-0.0473954 0.0242798 -0.361452
-0.105731 0.037601 -0.387361
-0.0348455 -0.0840141 0.00138146
-0.157453 0.170112 0.338131
-0.0341565 -0.0215014 -0.220265
-0.148423 0.167993 0.202681
-0.158645 0.0525455 0.250241
0.0934946 -0.0644315 0.0602969
0.153659 -0.109077 -0.0893581
-0.0593488 -0.067139 0.123728
-0.0122154 -0.109031 0.269844
-0.00203453 -0.0215014 0.348853
-0.0903792 -0.0561624 -0.295216
0.0438548 -0.0574419 -0.00352376
-0.072655 -0.109791 0.241408
-0.105812 0.0379828 -0.363786
-0.0843011 -0.0298487 -0.41325
-0.0602587 -0.109031 0.0824117
0.18178 -0.0811331 -0.257994
-0.0955056 -0.109031 -0.381582
0.119262 -0.0644315 -0.350653
0.128796 -0.125638 0.0728163
-0.163531 0.0744192 0.325636
-0.0503068 -0.10981 0.256604
0.128796 -0.110735 -0.225456
0.0664335 -0.109031 -0.0973566
-0.124211 0.0953114 0.335585
-0.100643 -0.0102094 0.233284
0.111706 -0.164629 0.387867
0.0948181 -0.0930512 0.431674
0.109528 -0.109941 0.115942
-0.0401854 -0.0017306 -0.102552
-0.134912 -0.0537155 0.25618
-0.144427 -0.0111128 -0.0969243
0.173656 -0.0882277 0.428761
0.0138 -0.0644315 0.413333
-0.130442 0.0642386 0.00176134
-0.111868 0.0663929 0.25715
-0.09601 -0.0309515 0.314064
-0.070583 -0.109031 -0.0246139
0.0591869 -0.1099 -0.0625887
-0.0482969 -0.0632462 0.0115224
-0.042548 0.00543326 0.23056
0.115422 -0.0670542 -0.359431
-0.0286646 -0.0215014 -0.301845
-0.10825 0.0238523 -0.0648774
-0.167654 0.169313 0.284981
-0.112836 0.0443846 0.109781
0.0368629 -0.0644315 -0.058379
0.0626275 -0.109031 0.37904
-0.139694 0.134524 -0.00380787
0.0839788 -0.117154 0.416614
-0.0415748 -0.130545 0.0899501
0.0975093 -0.0670629 0.314284
-0.139624 0.164323 0.27729
-0.0443665 0.0200629 0.149769
-0.109144 0.0278518 -0.0694086
-0.12512 0.0993817 -0.258594
-0.133474 -0.0601566 0.270364
-0.0524195 -0.0671356 -0.32362
0.0808892 -0.109917 0.144912
0.125355 -0.0644315 -0.128446
-0.0790966 -0.0600989 0.300378
0.0729443 -0.081018 -0.00141696
-0.00690615 -0.0671135 0.0720135
0.0429088 -0.109886 0.0616457
-0.112043 0.0408317 -0.309194
-0.113234 0.0461648 0.251365
0.0706441 -0.0670759 0.326024
-0.155544 0.0386587 0.376091
-0.0213434 -0.130545 0.371231
0.0714978 -0.0670755 -0.312531
-0.0931371 -0.0438142 -0.274335
0.118952 -0.0644315 -0.120466
0.0296314 -0.0670958 0.105776
-0.113156 0.0729933 -0.0690231
0.0711147 -0.0218347 0.0139685
0.119872 -0.109031 0.27117
-0.00442772 -0.130545 0.167155
0.10368 -0.0670599 -0.326684
-0.105436 0.0362231 0.20358
-0.176047 0.167148 -0.191017
-0.0344133 -0.0215014 -0.167993
-0.0698865 -0.109031 -0.245842
-0.0831301 -0.0481871 -0.349753
0.0872466 -0.0644315 -0.365159
-0.0591735 0.0382891 -0.319121
-0.102553 -0.0301405 -0.428218
0.113497 -0.109944 0.272382
0.147892 -0.0216392 -0.211176
-0.105949 0.0135462 -0.144793
-0.0829295 -0.110236 0.224465
0.0366031 -0.0644315 -0.10987
-0.180343 0.149694 -0.0887761
0.0194665 -0.0215014 0.247319
0.180623 -0.0467332 -0.23634
-0.0814515 -0.130545 0.0973017
-0.085855 -0.130545 0.272692
-0.121707 0.084101 0.0638717
-0.0803226 -0.0221727 -0.36768
-0.0633246 -0.0671409 0.160037
0.0325 -0.109031 0.235484
-0.143542 -0.0150765 -0.0254166
-0.0744131 0.0231472 -0.414246
-0.112162 0.0724638 0.157599
-0.0526234 -0.017367 -0.258263
0.108668 -0.130545 0.162242
-0.112132 0.0676285 -0.34994
-0.113276 -0.0995041 -0.306185
-0.0427931 -0.0644315 0.333942
-0.0743997 -0.10979 0.125676
-0.0604899 -0.130545 0.196522
-0.171317 0.109283 -0.334987
-0.0949457 -0.0404564 -0.0105987
0.11616 -0.0670538 0.122757
0.0989184 -0.109932 0.0674507
0.0755814 -0.0670735 -0.186565
-0.0539057 -0.0215014 0.165207
-0.118975 0.0718707 0.0990466
-0.172953 0.162514 -0.0674104
0.00882558 -0.0671059 0.0620368
-0.0787217 -0.110082 0.309899
-0.110523 0.0600826 0.0708509
0.0990076 -0.130545 -0.337124
0.00187791 -0.0671093 -0.305463
-0.174696 0.146093 0.00582226
-0.0928397 -0.045146 -0.392635
-0.0030917 -0.109031 -0.236136
0.0512384 -0.0644315 -0.238257
0.0520272 -0.109894 0.166894
-0.0841464 -0.0597572 0.170201
0.0442764 -0.109887 -0.222843
-0.0254119 -0.130545 0.24161
-0.159118 0.169729 -0.142977
-0.0811516 0.051899 -0.377092
0.14432 -0.0215014 0.338584
0.128796 -0.119641 0.348143
0.0123254 -0.109031 0.162345
0.0724091 -0.10991 0.288252
0.0150159 -0.0644315 -0.257298
-0.17287 0.166561 0.424772
0.162847 -0.105743 -0.282939
-0.042565 -0.0644315 -0.0764864
-0.152073 0.0231193 0.0982271
-0.0240497 -0.109831 -0.145716
-0.0838642 -0.0671519 -0.0844647
-0.130572 -0.0728664 -0.230104
0.0363406 -0.0644315 0.250175
0.182719 -0.0600303 -0.169107
0.0158774 -0.0215014 -0.368017
-0.133396 -0.0139616 0.00239632
0.0182527 -0.0215014 0.234008
-0.110304 0.0614764 -0.415181
0.178575 -0.0899297 -0.337292
0.0546082 -0.130545 -0.385899
0.159117 -0.107459 -0.0340673
0.00505112 -0.109031 0.177892
-0.0416988 -0.0671304 -0.264109
-0.0267866 -0.0215014 -0.196509
0.0872447 -0.0670679 0.381028
-0.0899881 0.00370482 0.245384
0.115285 -0.109031 -0.34901
-0.0848877 -0.0477435 -0.0365904
0.0420603 -0.0215014 -0.225872
-0.0458351 -0.0608741 0.4266
-0.0968686 -0.0271073 -0.370607
0.0613094 -0.0670804 -0.219315
-0.0533995 -0.11107 0.416614
0.09288 -0.109927 -0.119598
-0.123694 0.0929985 0.383436
0.0413227 -0.0644315 0.102036
0.0307413 -0.0215014 -0.111917
0.062094 -0.130545 -0.250991
-0.0207782 -0.0671203 0.0831961
0.00474288 -0.0644315 -0.0625502
-0.164055 0.164501 -0.29257
0.113834 -0.130545 -0.049607
-0.0642765 -0.109798 0.298866
-0.0420616 -0.00506614 0.230427
-0.153514 0.0295698 -0.12848
-0.0516925 -0.0644315 0.236213
0.069064 -0.0215014 -0.0900771
-0.0348934 -0.130545 0.0640648
-0.0851111 -0.0545522 -0.329259
-0.107904 0.0477953 -0.29755
0.0849177 -0.0644315 0.405616
0.0314934 -0.130545 0.156474
0.110866 -0.109031 0.0653951
-0.091419 -0.172223 -0.378712
0.142277 -0.0644315 -0.370981
-0.0831792 -0.0553092 0.341812
-0.0185972 -0.109031 -0.227093
0.122272 -0.109951 0.390132
-0.0698274 -0.0107014 -0.0633377
-0.0647622 -0.109798 -0.306596
-0.142943 -0.0177572 0.118138
-0.117594 -0.0956523 0.106698
-0.130271 -0.0739048 -0.199802
0.108434 -0.0644315 0.302535
-0.0430796 -0.109816 -0.0704729
-0.137186 -0.0435353 -0.370989
0.00217689 -0.0644315 -0.0277789
0.149178 -0.0559827 0.00246741
0.0151107 -0.0215014 0.173769
0.063632 -0.0215014 0.0403008
0.00617451 -0.109856 0.135923
-0.0671295 0.00855638 0.0296891
-0.0951722 -0.0347025 0.0623218
0.182719 -0.0707481 -0.177316
-0.125214 0.0998016 -0.29097
0.139788 -0.0717214 0.239028
-0.109051 0.0708078 0.292739
-0.068184 -0.109031 -0.306049
-0.0580925 0.0355365 0.289222
-0.0596107 -0.076167 0.430598
0.120328 -0.0644315 0.166212
0.0505643 -0.0215014 -0.387466
-0.144871 -0.00912623 -0.0670342
-0.06967 -0.130545 -0.141886
0.182489 -0.0770187 0.184576
0.180589 -0.0466324 0.225194
0.0937644 -0.0644315 0.314405
0.123352 -0.0670503 -0.336376
-0.0847776 -0.0444119 -0.306935
0.0799685 -0.109031 -0.0535187
0.0363699 -0.109031 -0.0368361
0.108071 -0.0215014 -0.0942787
-0.0962683 0.022755 -0.0559494
0.124609 -0.130545 -0.102782
-0.0860394 -0.00487485 -0.233198
-0.134759 0.142541 0.268629
0.139788 -0.0607579 -0.112562
-0.0831699 -0.0541893 -0.152652
-0.0604011 -0.121443 0.416614
-0.0457701 -0.0141462 0.411647
-0.145583 -0.00593773 -0.0941268
-0.0252588 -0.106568 -0.00613221
-0.118504 -0.0947067 0.418453
-0.126813 0.106962 -0.282655
-0.0849287 -0.0490455 -0.414817
0.0160428 -0.0644315 -0.063857
-0.00536903 -0.130545 -0.0398019
0.131643 -0.0919497 0.00138146
-0.0280106 -0.0644315 0.40314
0.121195 -0.0215014 -0.289585
-0.00178886 -0.0671111 -0.0457373
0.125257 -0.0215014 -0.0721409
0.128796 -0.113704 0.269639
-0.175549 0.14592 0.00677369
0.0399591 -0.0644315 0.122172
0.0902998 -0.0215014 0.221898
-0.0546353 -0.0671367 -0.108976
0.0222308 -0.105037 -0.00456836
-0.147818 0.168128 -0.313542
-0.0939492 -0.108948 -0.0940994
-0.0408675 -0.06713 0.107078
-0.149692 0.0124575 -0.311088
-0.0147257 -0.0644315 0.35887
-0.101927 -0.111542 -0.332611
-0.0218189 -0.0644315 0.0436632
-0.0375899 -0.0644315 -0.219012
-0.178152 0.165344 -0.104738
0.158133 -0.107793 0.24794
-0.00139507 -0.130545 0.143847
-0.0800696 0.0517891 -0.338985
-0.0387125 -0.0644315 -0.301632
-0.157777 0.0486604 -0.115812
-0.0154128 -0.130545 0.391937
0.0299705 -0.0215014 -0.181119
0.0952741 -0.067064 0.408288
0.134887 -0.0215014 0.0299036
-0.101927 -0.114134 0.177046
0.145575 -0.0215014 0.141566
0.0706395 -0.109031 0.127639
0.136213 -0.0644315 0.15284
-0.0430963 -0.0671311 -0.278822
-0.00726902 -0.0643552 0.0164219
0.059881 -0.0215014 -0.138911
-0.10603 0.0390055 0.262414
-0.0467141 -0.109031 0.170443
0.151186 -0.0219909 -0.23291
0.0514691 -0.0215014 -0.332013
-0.0148414 -0.0644315 -0.0810132
-0.040628 -0.0644315 -0.192842
-0.0791311 -0.0215203 0.351918
0.118886 -0.0679374 0.422021
-0.0722567 -0.130545 0.00927182
0.139788 -0.0668166 0.251134
-0.038216 -0.0644315 -0.17518
-0.111956 -0.100533 -0.256855
0.0061967 -0.0304095 0.00292964
0.08329 -0.130545 -0.0493892
0.126157 -0.067049 0.238638
0.0500716 -0.0670859 -0.197872
0.0861762 -0.0215014 0.0448182
-0.121056 0.0811885 -0.0177202
-0.0846316 -0.0399177 0.217185
-0.0717186 -0.109031 0.0565841
-0.151991 0.0227503 0.248696
-0.0941718 0.0104469 -0.198541
-0.0624747 -0.0644315 0.16748
-0.168661 0.163473 -0.0842194
-0.0790966 -0.0457388 0.182659
-0.0963624 -0.109031 -0.331816
-0.143618 -0.014735 0.22226
0.0313068 -0.0215014 0.406109
0.0931932 -0.0215014 0.326965
-0.084058 -0.0281426 -0.0592413
-0.150659 0.167493 -0.0219515
-0.123302 0.0912426 -0.28284
0.128796 -0.121048 -0.0656219
-0.0913083 -0.143882 -0.368389
-0.163261 0.170447 0.346095
0.0426379 -0.0670895 -0.266464
0.142277 -0.0644315 0.202543
-0.168559 0.167554 0.37643
-0.121527 0.0832978 0.384015
-0.0567789 -0.015757 -0.144567
0.00497221 -0.0215014 -0.165303
-0.0312442 -0.0644315 -0.260907
-0.0637006 -0.0141332 0.200067
0.177753 -0.0915727 0.371752
-0.142067 -0.0216789 -0.220911
0.0933779 -0.109031 -0.194656
0.0411419 -0.045543 0.431674
-0.0994247 -0.0612811 0.430892
-0.0999674 -0.107106 -0.243964
-0.161306 0.165115 -0.0632864
0.0272356 -0.130545 -0.0389476
0.130185 -0.067047 -0.2006
0.115929 -0.0215014 0.237631
-0.111403 0.0642075 -0.0347136
0.144251 -0.0215014 -0.313502
0.179826 -0.0873935 0.105379
0.119177 -0.0215014 -0.156948
0.0923466 -0.0644315 0.0744969
-0.0814663 -0.00485086 -0.0860613
0.181102 -0.0481447 -0.0849438
-0.0624984 -0.109031 -0.0987881
-0.0790966 -0.0489362 0.203979
-0.101927 -0.111276 0.0941737
-0.0338748 -0.0215014 -0.0422343
-0.083026 -0.0325603 -0.316023
-0.15712 0.170189 -0.110061
-0.123366 0.0915282 -0.0984177
0.0596131 -0.1099 0.282712
0.128796 -0.11216 -0.314988
0.103035 -0.130545 0.357224
-0.0831845 -0.0561033 -0.18859
-0.173268 0.118019 0.283885
-0.122116 0.0848023 0.419619
-0.130668 0.124224 -0.184449
0.104759 -0.109937 -0.404256
0.0479061 -0.0215014 0.353091
0.112174 -0.0644315 -0.214398
0.178396 -0.0415538 0.0406218
0.122005 -0.0215014 -0.0865454
-0.0105195 -0.109842 -0.128034
0.13786 -0.109964 -0.403169
-0.154235 0.172775 0.232667
-0.0224401 -0.0215014 -0.0541518
-0.165694 0.0841074 0.311878
-0.122252 0.0865426 -0.118108
-0.0112791 -0.0671157 -0.135951
-0.090285 -0.0565844 0.126538
-0.0344254 -0.109031 -0.204596
0.0363114 -0.0918561 -0.431674
-0.153292 0.028579 0.413794
0.182716 -0.0735714 -0.192021
-0.125735 0.102136 0.255023
-0.0395674 -0.0103658 -0.06417
-0.0556905 -0.130545 0.345868
0.0546224 -0.0670837 -0.359053
-0.155825 0.0399189 0.3736
-0.133128 0.135238 -0.309532
-0.0795542 -0.110157 0.165509
-0.0539248 0.032054 0.185896
-0.13752 0.1549 -0.0383536
-0.143838 -0.0137533 -0.133514
-0.162299 0.0689034 -0.0643164
0.128796 -0.121889 -0.260828
0.00319435 -0.0671086 0.107856
-0.00778931 -0.130545 -0.113335
-0.15775 0.0485356 0.250265
0.014553 -0.0215014 0.305622
-0.139923 0.165662 -0.397852
-0.149489 0.173982 0.266667
0.0766082 -0.0644315 0.233033
-0.0322458 -0.109031 -0.107098
-0.124482 0.0239808 -0.00137938
0.0048071 -0.109031 0.120457
-0.0318769 -0.0671256 -0.384375
-0.0910576 -0.0698441 0.00509113
-0.181989 0.157063 0.292739
0.120081 -0.10995 -0.109184
-0.0545364 0.0257392 0.382385
-0.0575268 -0.0154672 -0.252089
-0.0948401 -0.0361895 -0.108847
-0.0908723 -0.0539546 0.175057
0.171306 -0.0997053 -0.120468
-0.100736 -0.00979254 -0.117651
-0.0289722 -0.109827 -0.38827
-0.0323393 -0.0644315 0.402726
-0.0230119 -0.0671214 -0.284006
-0.119032 -0.0942086 -0.194422
-0.0267438 -0.130545 0.195563
-0.119863 0.0758462 -0.10984
-0.0604418 -0.109031 -0.304647
-0.158168 0.165816 0.321984
-0.15769 0.141054 -0.00137938
-0.0896483 -0.0594347 -0.392904
-0.0500052 -0.0215014 -0.0940669
-0.0970107 0.021461 0.357562
-0.0226265 -0.109031 -0.247599
-0.127007 -0.0826186 -0.339914
0.0503097 -0.0670858 0.0238086
-0.0833986 -0.0473025 -0.00453001
0.181093 -0.0837606 0.329398
-0.0731396 -0.0636896 -0.420223
-0.108198 0.0236176 0.202329
-0.143172 0.148498 0.429482
-0.0490281 -0.0644315 0.408215
0.131933 -0.109959 0.345887
-0.123525 -0.0886225 0.190467
-0.0871385 -0.110085 -0.408753
0.0133316 -0.109862 0.322172
0.0763742 -0.0670731 0.317432
-0.0129706 -0.0215014 -0.167098
0.0835755 -0.10992 0.348044
-0.104381 -0.105178 0.156287
-0.0998726 -0.0136575 -0.318159
0.112083 -0.0644315 -0.220572
-0.0518327 -0.109031 -0.307931
-0.181376 0.154319 -0.25061
-0.0903857 -0.0561334 -0.375633
-0.122631 0.0882382 -0.195134
-0.0646639 0.0434326 -0.17609
0.125671 -0.0424935 0.431674
0.0338989 -0.130545 -0.0377243
-0.143345 0.172725 0.202194
-0.0432004 0.00545535 0.173267
-0.0975182 -0.0241987 -0.231666
-0.14592 -0.000478789 0.422806
0.0356664 -0.109031 0.340641
0.0898552 -0.109031 -0.389401
-0.0481693 -0.0190926 0.265949
-0.0845565 -0.037631 0.197646
0.000989188 -0.0215014 -0.21948
-0.145149 -0.00788401 0.142488
0.00212899 -0.0644315 0.138111
-0.0242309 -0.0644315 -0.0397951
-0.00489926 -0.0644315 -0.377706
-0.0140571 -0.130545 0.415107
-0.0892472 -0.130545 -0.0818918
-0.0572449 -0.067138 0.211841
0.0812668 -0.0215014 0.223258
0.0431764 -0.109031 -0.310771
0.0547262 -0.0644315 0.136654
0.170618 -0.0561186 -0.00148528
0.112644 -0.109943 0.23392
-0.0250185 -0.10983 -0.196188
0.0332577 -0.0215014 0.0826123
-0.0983954 -0.0202714 -0.166706
-0.0830221 -0.0320537 0.41318
0.0827398 -0.109031 0.0810194
0.129865 -0.0644315 -0.402921
-0.137706 -0.0408154 0.41941
0.145356 -0.0215014 0.346629
-0.0867459 0.00284989 0.327048
0.139788 -0.0709233 -0.0913385
-0.0917248 -0.0501376 -0.340186
-0.124574 0.0969374 0.209614
0.137175 -0.0644315 0.25917
0.121259 -0.0670514 -0.245618
0.0430772 -0.130545 0.245001
0.0692513 -0.0215014 -0.325038
0.130341 -0.0670469 -0.023214
-0.128672 0.115285 0.385076
-0.128874 0.116189 0.255744
0.0566075 -0.130545 -0.171053
-0.0271268 -0.0215014 0.245743
-0.12706 0.108067 0.397022
0.176811 -0.0388275 0.165475
-0.144004 0.036539 0.431367
-0.1364 0.149889 0.261223
-0.0602704 -0.0215014 0.134613
-0.140578 0.168595 -0.101563
0.0625795 -0.0215014 -0.180816
-0.067942 -0.109795 -0.335725
-0.0830354 -0.0340669 0.244498
0.0923253 -0.109927 -0.241691
-0.0942762 -0.0387144 0.313702
-0.000722356 -0.130545 0.117332
-0.103888 0.0043195 0.288537
-0.0800969 -0.0275637 -0.427522
-0.108061 0.0485307 -0.394891
0.0858952 -0.0670685 -0.213622
-0.0787928 -0.0644315 0.132895
-0.0421503 -0.00424624 0.188991
0.0726215 -0.0644315 -0.336714
-0.0832117 -0.110075 0.0148906
-0.102016 0.0248928 -0.325723
-0.0536358 -0.130545 -0.172976
0.0371562 -0.0215014 0.155464
0.0805703 -0.0670711 -0.128555
-0.151924 0.0224504 0.166246
-0.040606 -0.0185138 0.362704
-0.0924229 -0.0470123 -0.202887
-0.0922998 -0.0475634 -0.329802
-0.158724 0.0528995 0.170997
-0.0701658 -0.0644315 -0.208206
-0.0514749 0.0250947 0.0603901
-0.051726 -0.0215014 -0.317929
0.0687366 -0.130545 0.120314
-0.149468 0.17398 0.253397
0.139788 -0.0669787 -0.411567
0.00860854 -0.130545 0.298307
0.128796 -0.109677 0.212003
-0.0779245 -0.0644315 0.366843
-0.179608 0.146405 0.170068
-0.00925558 -0.0671147 -0.399522
-0.142702 -0.0188364 -0.179396
0.0806562 -0.067071 0.415578
-0.138692 0.0587145 0.00138146
-0.0196832 -0.0215014 0.37912
-0.101927 -0.116813 -0.071886
0.0970812 -0.109031 -0.242836
-0.181901 0.15667 0.104729
0.0905508 -0.109925 0.243621
0.137694 -0.109964 0.32248
-0.135498 0.145848 0.0306905
0.0701186 -0.0670762 0.0584994
0.181397 -0.0828642 -0.10257
0.173514 -0.0350405 -0.419448
-0.0813532 0.0304514 0.402436
0.109349 -0.109031 0.144072
-0.0349836 -0.0644315 0.247707
0.0883357 -0.0670673 0.357284
-0.167315 0.0913615 0.347731
0.0098004 -0.109031 -0.289426
0.108635 -0.0215014 -0.322387
0.127652 -0.0230861 -0.00862022
-0.0875814 0.0592145 0.253205
-0.0215937 -0.130545 0.0396066
-0.163064 0.0723288 -0.180673
0.0695944 -0.0215014 -0.130892
-0.133583 -0.0596662 -0.291059
-0.165599 0.0836801 0.330825
-0.0955592 -0.109031 0.300796
0.107498 -0.067058 0.15519
0.182719 -0.0699636 -0.0553165
0.128796 -0.130082 0.335963
-0.0857757 0.0549442 -0.397921
-0.0646297 0.0275625 0.389068
-0.0954092 -0.0336434 0.417105
-0.163734 0.0753288 -0.256283
-0.17168 0.168274 0.263826
-0.062998 -0.109031 -0.33553
-0.132567 0.132724 -0.117704
0.173208 -0.0976963 0.176546
-0.0526407 0.0293789 0.278702
0.05176 -0.0644315 0.195305
-0.0941671 -0.0392029 -0.238289
0.0757569 -0.109031 -0.165793
0.159005 -0.0241115 -0.170466
-0.101218 0.028759 -0.0769588
-0.0849072 -0.0483589 -0.272819
-0.0911285 -0.109465 0.28924
-0.0423306 -0.0671307 -0.185459
-0.101927 -0.113431 0.110357
-0.150724 0.123423 -0.431674
-0.037205 -0.130545 0.0784273
-0.175691 0.128866 -0.0437047
-0.0192784 -0.130545 0.338003
-0.10611 0.0692425 0.333524
-0.142112 0.171242 -0.100678
0.111584 -0.108551 0.0106162
0.00498025 -0.0671078 -0.352805
0.0941342 -0.130545 -0.304828
0.0497441 -0.0670861 -0.211633
-0.0613515 0.0388592 -0.376018
0.0757338 -0.109913 -0.369643
-0.147812 0.00404201 0.297101
-0.142699 -0.018852 -0.318974
0.107151 -0.0215014 -0.144647
-0.0755564 -0.109799 0.369927
0.10025 -0.0215014 -0.142396
-0.126769 -0.0831616 -0.222715
-0.101757 0.0669258 -0.217279
0.182719 -0.0613735 0.260958
-0.122837 0.0891618 -0.204222
-0.0142745 -0.0644315 0.234052
-0.0412965 -0.0426554 -0.00137938
0.0734363 -0.130545 -0.132787
-0.112573 0.0432044 -0.0454618
-0.135741 -0.0500069 0.05551
0.000227615 -0.130545 -0.310357
-0.0189065 -0.0215014 -0.30851
0.139788 -0.0693763 -0.281791
0.101078 -0.0644315 -0.34178
-0.0790966 -0.0542345 0.0375203
0.0216646 -0.0215014 0.360884
-0.0944725 0.0169211 -0.0898871
0.0373907 -0.109882 0.317232
-0.0664556 -0.109031 -0.0363318
0.00578613 -0.0644315 -0.0896056
0.169515 -0.101277 -0.390641
-0.0671418 -0.130545 0.325166
-0.0947233 -0.0718487 -0.00216737
-0.0863594 0.0093927 0.385201
0.0213333 -0.109868 0.1896
0.0917589 -0.0936386 0.00138146
0.0462789 -0.0644315 0.333761
-0.139865 0.0959572 0.431674
0.0617227 -0.0670802 -0.0449993
-0.0629492 -0.0215014 0.157588
-0.0857523 -0.109031 0.216945
-0.168571 0.0969871 0.235793
0.0521387 -0.130545 -0.34824
-0.0790966 -0.0433015 -0.244285
-0.075651 -0.130545 0.277966
-0.0846631 -0.0408806 -0.0705464
-0.0345851 -0.0215014 0.396001
0.161759 -0.106279 -0.0466475
-0.141663 -0.0234887 -0.37064
0.147475 -0.0216119 -0.343323
-0.14964 0.0122262 -0.20907
-0.0700006 -0.0671441 0.162292
0.0126291 -0.0215014 -0.0292787
-0.0612287 -0.109031 -0.368818
-0.0948041 0.0632247 0.3716
0.166345 -0.0530787 -0.431671
-0.102615 -0.00137822 0.0801438
-0.150307 0.0152103 0.278738
0.139788 -0.0713765 0.275491
0.179176 -0.0726198 -0.425916
-0.0850462 -0.11016 0.204114
-0.105736 0.0376284 0.232515
0.0394605 -0.0529039 -0.00172765
0.0364927 -0.0612351 -0.425111
0.0561231 -0.130545 -0.104816
-0.0361829 -0.109031 -0.215245
-0.0488008 -0.130545 -0.230134
0.0468728 -0.0644315 -0.0178263
-0.0450832 -0.0071266 0.403549
0.0815787 -0.109031 0.0382402
0.0217664 -0.0644315 -0.20641
0.100849 -0.0215014 0.392489
-0.0895939 -0.0596783 0.366868
0.0244019 -0.0670983 0.288435
-0.0908976 -0.0538411 -0.325522
0.128796 -0.109309 0.188631
-0.163777 0.168656 -0.277574
-0.148689 0.167933 -0.14781
-0.0398809 -0.00107968 -0.0931653
-0.105293 0.0106112 -0.307522
-0.14966 0.0123168 0.14551
0.182365 -0.0781956 -0.0714134
-0.125746 0.0413391 -0.431376
-0.0928441 -0.0451264 -0.361535
-0.109531 0.0554272 -0.316316
0.120408 -0.0670518 -0.0721751
0.0301569 -0.106979 -0.00655682
-0.0610738 -0.0831733 0.431674
0.106572 -0.109031 0.208136
-0.0983705 -0.020383 0.306795
0.11255 -0.0215014 -0.240112
-0.13701 0.149764 0.421246
-0.141369 -0.0248064 -0.064561
0.16839 -0.102264 -0.273919
-0.149234 0.0104067 -0.304572
0.178111 -0.0908704 0.196515
-0.173493 0.119025 0.296705
-0.0134805 -0.0215014 0.0695383
0.0982111 -0.0644315 -0.115377
-0.104713 0.00801499 -0.33419
0.124558 -0.0242212 -0.4248
-0.0571543 -0.0215014 0.104839
-0.0519422 -0.130545 0.0914382
-0.138267 0.158245 0.238003
-0.0850569 -0.0529163 0.169682
-0.0714362 -0.109792 -0.293763
-0.110807 0.0643021 -0.0303225
-0.122986 0.08983 -0.404809
-0.110718 0.0349003 0.384737
-0.0264449 -0.109031 -0.375651
-0.137676 -0.0413427 -0.390177
0.0944492 -0.0357304 0.431674
-0.129815 -0.0754736 0.390464
-0.0876192 0.00286247 -0.139936
-0.0234076 -0.109031 -0.0877049
-0.0859458 -0.0663183 -0.174286
-0.132398 -0.0649726 -0.163278
0.0973904 -0.0215014 -0.0770031
-0.0567874 -0.0215014 -0.299208
0.144619 -0.0701539 -0.424987
0.0569691 -0.0215014 -0.405821
-0.021422 -0.130545 0.387473
-0.101927 -0.124205 0.176114
0.108975 -0.10994 0.167012
-0.0867838 -0.00322176 -0.225471
0.0998582 -0.0215014 0.274727
-0.0272618 -0.0644315 0.409896
0.124018 -0.0215014 0.407859
-0.0984 0.0207128 0.302316
0.0265048 -0.109873 -0.292418
0.10376 -0.109936 -0.17139
0.156328 -0.0232034 -0.153495
0.160858 -0.0249312 0.0207851
-0.0974367 0.0158955 -0.264076
0.139455 -0.079448 -0.431204
-0.0767413 -0.0139695 -0.269255
-0.0930282 -0.0443018 -0.173175
-0.160504 0.060869 -0.111754
0.0369938 -0.0644315 -0.337524
-0.111436 0.0381174 -0.189794
-0.0428082 0.00181623 -0.288909
-0.0474053 -0.0671332 -0.344825
0.0800047 -0.109917 0.221481
0.105314 -0.0309608 0.431021
-0.0849452 -0.0564416 -0.414722
0.0761039 -0.0215014 -0.39514
0.120669 -0.130545 0.00428091
-0.0646715 -0.0215014 0.376809
-0.041965 -0.0215014 -0.41312
-0.0303709 -0.130545 -0.266545
0.00200341 -0.130545 -0.291253
0.0586535 -0.109899 -0.282142
-0.148477 0.173854 0.0890373
-0.0489396 0.0243542 0.337253
0.0131246 -0.130545 0.188414
-0.0808311 -0.109031 -0.144875
-0.0386094 -0.109031 0.34266
-0.00710779 -0.109031 0.0275298
0.0712351 -0.0670756 0.16337
-0.0847206 -0.0426544 0.249867
0.00709064 -0.109857 0.270042
0.0629369 -0.109903 -0.158122
-0.175672 0.161907 0.0109787
-0.164979 0.0809039 0.389524
0.0630853 -0.130545 0.134272
0.174202 -0.0965629 0.346346
-0.159481 0.056286 0.265199
0.0684595 -0.109907 0.139995
0.0628864 -0.0644315 0.262506
-0.115232 0.055112 -0.0233188
0.0540772 -0.109895 0.0749825
-0.0670449 -0.0644315 -0.291184
-0.111352 0.0639713 0.113785
-0.0481801 0.025352 -0.276814
-0.11625 0.0596677 -0.087278
-0.0673199 -0.0700437 -0.0072128
0.0589988 -0.109899 0.184572
-0.173464 0.118896 -0.309931
-0.0648564 -0.130545 -0.00916518
0.179913 -0.0872157 -0.176876
0.10226 -0.109935 -0.343049
-0.160062 0.0588891 0.0911218
-0.170752 0.167049 0.370226
-0.0449733 -0.020331 -0.242395
-0.15358 0.172944 -0.236712
-0.139152 -0.0347344 0.198815
-0.0927648 -0.0454811 0.360788
-0.143725 0.169042 -0.0968048
0.0581524 -0.109899 0.397041
0.0337911 -0.130545 -0.322578
0.0447666 -0.130545 0.249553
-0.0767998 -0.0644315 -0.0433065
-0.0846684 -0.0410443 0.109836
0.00727181 -0.0671066 0.0965114
-0.0788934 -0.0671485 -0.400196
0.0352888 -0.0215014 0.365784
-0.0972871 -0.0252337 0.328518
-0.142515 0.171727 0.347852
-0.124101 0.0157061 0.00138146
-0.131637 0.128562 -0.372629
0.0128681 -0.130545 -0.400745
-0.102346 -0.106067 0.409059
-0.162973 0.170521 0.317516
0.135717 -0.109962 -0.0763143
-0.101927 -0.117022 0.182267
-0.111268 0.0719877 0.239055
0.086873 -0.130545 0.152984
-0.0843244 -0.0305409 0.176155
-0.0692428 -0.0179015 0.066779
0.0113256 -0.0644315 0.417035
-0.0910737 0.0584334 0.0451298
-0.0967361 0.0642534 -0.208599
0.0627374 -0.109031 -0.145563
0.110529 -0.109942 0.410055
-0.0993783 -0.109031 -0.102511
0.0873744 -0.0670678 -0.248379
0.044678 -0.0215014 -0.271426
-0.133035 0.13482 -0.254592
0.103157 -0.109936 -0.361507
-0.0670371 -0.109796 -0.248229
0.0216335 -0.109869 -0.098964
0.0380995 -0.109031 -0.167765
-0.173175 0.166491 -0.339549
-0.171972 0.112215 -0.0357761
0.180374 -0.0459986 -0.201257
-0.111343 -0.0366306 -0.00137938
-0.0871564 -0.130545 -0.352082
-0.129702 -0.0758642 0.0873928
-0.141611 0.170638 -0.239641
0.115671 -0.0670541 0.226692
0.148451 -0.0955184 0.00146751
-0.139415 -0.0335552 -0.263694
0.165564 -0.104174 -0.4041
0.00691186 -0.109031 0.283585
-0.140422 0.00504941 0.00372258
-0.0847683 -0.0441133 -0.196858
0.0510594 -0.130545 -0.313165
0.0604422 -0.109031 -0.0666483
-0.0985507 -0.107593 -0.0390944
-0.101927 -0.127925 0.0147452
0.0250813 -0.0644315 -0.274788
0.012273 -0.113811 0.416614
0.0141922 -0.106186 -0.00566145
0.128796 -0.114948 0.0190707
-0.070281 -0.0215014 0.049504
-0.011378 -0.109031 -0.145988
-0.0914143 -0.109418 -0.341775
-0.153962 0.0315774 0.272251
-0.099875 -0.0136467 -0.186894
-0.0578951 -0.0298906 0.00318608
-0.157283 0.0464455 -0.372886
0.119156 -0.109031 0.40743
0.0549069 -0.109896 -0.0447945
-0.0706162 -0.109793 0.0967314
-0.034556 -0.067127 -0.3238
-0.149349 0.0109251 -0.0721195
0.122315 -0.130545 -0.184014
-0.133385 0.115619 0.427641
0.0227668 -0.10987 -0.151192
-0.0372961 -0.109031 0.103539
-0.136751 -0.0454845 -0.041656
-0.101927 -0.109044 0.39223
-0.0779562 -0.109031 0.251671
0.137474 -0.109964 0.212877
-0.175708 0.12894 0.12963
-0.0286474 -0.109031 0.345302
-0.133389 -0.0605341 0.331493
-0.113861 0.0489711 0.102718
-0.013568 -0.109031 -0.277572
0.0660566 -0.0215014 0.273244
-0.0152884 -0.109838 -0.0652576
0.169724 -0.101094 -0.183633
0.180539 -0.0464864 -0.140543
0.0495557 -0.0670861 -0.409952
-0.125472 0.100958 -0.138014
0.00631868 -0.130545 0.166458
0.0176105 -0.109865 0.0449229
-0.0866539 -0.130545 0.0966513
0.16141 -0.0262937 -0.00990208
-0.00547736 -0.130545 -0.0335427
-0.121385 0.0826618 -0.319184
-0.106503 0.0412274 0.0679854
-0.109173 0.0279836 0.155258
0.080472 -0.0670711 0.246324
-0.0371815 -0.0820223 -0.00137938
-0.148649 0.00778676 0.0927118
-0.134608 0.141866 -0.289861
-0.106023 0.0666688 -0.41685
0.0934282 -0.0215014 -0.0165288
0.105843 -0.126648 0.383222
-0.164522 0.170121 -0.184908
-0.179134 0.144279 0.0396446
-0.0293497 -0.0671244 0.194753
0.128451 -0.0644315 -0.368925
-0.0691833 -0.109794 0.102106
-0.129886 0.12072 0.0812672
-0.12548 -0.033557 -0.431542
0.182298 -0.0533835 -0.382215
-0.095377 -0.0337856 0.351604
0.0482593 -0.109031 -0.360745
0.0843944 -0.0883297 -0.431674
-0.0398821 -0.130545 -0.376363
-0.0402052 -0.130545 0.153531
0.0634118 -0.109903 -0.235969
-0.0491413 -0.100484 -0.430361
-0.146571 -0.00151654 -0.41191
-0.0368591 -0.0644315 -0.293917
-0.0616285 -0.0161888 0.154832
-0.110256 0.0714494 -0.283163
0.0729613 -0.109031 -0.140302
-0.0823427 -0.110257 0.318593
-0.168087 0.140941 -0.430627
0.0508626 -0.0215014 -0.257055
-0.00710713 -0.109845 0.206151
-0.135876 -0.0449772 -0.00994178
-0.14755 0.00286642 -0.0885605
-0.0798094 -0.0671489 -0.35805
0.0843409 -0.0215014 0.181272
0.0660959 -0.130545 -0.337224
0.103125 -0.0644315 0.331327
-0.126396 0.0259228 -0.00137938
-0.0832203 -0.0614263 -0.0827016
-0.173525 0.119167 0.0801063
-0.113482 -0.0993438 0.275373
-0.14212 0.171251 -0.123609
0.174717 -0.0959757 -0.358056
-0.0735014 -0.109031 -0.306277
0.111696 -0.14202 0.372109
-0.00863162 -0.0861229 -0.431674
0.0886912 -0.0670672 0.173751
-0.154422 0.172727 0.0762603
-0.0368274 -0.0644315 -0.078693
-0.0832037 -0.0672594 -0.104646
0.0089148 -0.0215014 -0.12849
-0.173191 0.118064 0.01569
-0.180056 0.165281 -0.177724
0.0329746 -0.109878 -0.0251257
-0.109976 0.0315784 -0.268476
-0.14478 0.173032 0.164562
-0.129545 0.119195 -0.302804
-0.0620597 0.0395963 -0.356165
-0.0434996 -0.0671313 -0.106369
0.13035 -0.0215014 0.343015
-0.118595 0.0393312 0.0044671
