ply
format ascii 1.0
comment Created by Open3D
element vertex 1686
property double x
property double y
property double z
end_header
-0.113107 0.251522 0.182748
-0.15699 -0.143408 0.162523
0.066332 0.35442 0.189115
0.188286 -0.106988 0.180175
-0.115352 0.376571 0.0376547
0.188286 -0.175304 0.172034
0.162472 0.35442 -0.150523
0.15006 0.0512231 -0.149358
-0.0029074 0.295675 0.182748
-0.160597 0.244994 -0.0501472
-0.000435654 0.237431 0.160597
-0.119005 0.245962 -0.182748
-0.102216 0.305995 0.160597
-0.008796 0.35442 0.103158
-0.15496 -0.0597615 0.15371
0.192912 0.35442 0.103109
-0.173506 0.0877064 -0.188286
0.0640159 0.366585 0.232588
0.162405 0.225974 -0.0853021
-0.182748 0.319386 -0.124261
0.0305609 0.35442 -0.100361
-0.14256 0.199361 0.17503
-0.000889495 0.376571 0.207956
-0.173215 -0.0462139 0.153179
0.00556484 0.35442 0.0807165
-0.177632 -0.201345 -0.188286
-0.172193 0.0826654 -0.188286
0.187295 0.00063014 -0.151342
-0.101645 0.376571 -0.0649658
0.167549 0.0511871 0.188286
0.186087 0.067557 0.188286
0.0941911 0.35442 0.171338
0.171023 0.376571 -0.184322
-0.00892279 0.35442 -0.0388251
-0.187913 0.312794 0.143983
-0.0622821 0.376571 0.119865
0.184264 0.376571 0.0455627
0.147146 0.107634 -0.174708
0.162405 0.319479 0.0977962
-0.0993192 0.376571 0.101027
0.162405 0.295426 0.0605729
-0.155426 0.127612 -0.146362
-0.188286 -0.103694 -0.182708
0.041023 0.376571 0.170266
-0.232588 0.367747 -0.0779332
-0.0908274 0.243125 0.182748
-0.000855701 0.243498 0.160597
-0.123542 0.35442 0.0630653
-0.10462 0.376571 -0.0802406
-0.106381 0.29212 0.160597
-0.222123 0.371526 -0.226714
-0.188286 0.187957 0.176292
0.172409 0.099228 0.147475
-0.0343628 0.376571 0.00618288
-0.182748 0.264665 0.0462843
-0.165813 0.375344 -0.226714
-0.182748 0.28295 -0.051976
0.182748 0.259176 0.0768134
0.141425 0.35442 -0.000323847
-0.160597 0.319053 0.106526
0.0222531 0.236632 -0.160597
-0.0650995 0.328638 -0.182748
-0.0767951 0.35442 0.148497
-0.148405 0.0755259 0.153568
0.105826 0.35442 -0.11026
0.232437 0.369649 -0.194704
0.00327657 0.36051 -0.226714
0.177839 0.0592243 -0.188286
0.0619594 0.376571 -0.220454
-0.173031 0.17837 -0.144372
-0.226714 0.359763 -0.182548
0.182748 0.245702 -0.00724754
-0.183314 -0.0371559 -0.188286
0.140475 0.35442 0.114002
0.188286 0.109769 0.181356
0.0108045 0.376571 -0.0894262
0.20871 0.376571 0.126057
-0.186661 0.034774 -0.150003
0.174618 0.051279 -0.188286
-0.160597 0.351615 -0.0507269
-0.182748 0.270208 0.121422
-0.160597 0.27852 -0.0900904
0.00115419 0.376571 -0.0710941
0.188286 0.169589 -0.166054
0.116166 0.35684 -0.230626
0.182748 0.30589 -0.00459858
-0.188286 -0.119548 0.184963
0.182748 0.235906 0.0373491
-0.0866682 0.35442 0.211848
-0.0471401 0.35442 0.0640977
-0.191078 0.376571 0.0942835
-0.120586 0.321923 -0.160597
0.0102327 0.340334 0.160597
0.112664 0.281243 -0.160597
0.231721 0.37222 0.0111476
0.182748 0.2427 0.114166
-0.188286 -0.291446 0.178464
0.143983 0.209792 0.162745
0.192398 0.35442 -0.170794
-0.165721 0.342079 0.188286
-0.0550709 0.376571 0.0162574
0.179094 -0.177862 0.188286
-0.0703426 0.35442 -0.0970721
0.188286 0.249988 0.155146
0.188286 0.0309524 0.171185
0.143983 0.316748 -0.185249
-0.0897066 0.35442 -0.0874561
0.162405 0.250139 -0.0828269
-0.0740053 0.356394 -0.23027
-0.13305 0.35442 -0.128323
0.111442 0.376571 -0.0421131
0.0818619 0.37428 -0.230521
-0.143415 0.376571 0.197954
-0.160597 0.280563 -0.0934602
-0.11934 0.376571 0.150535
0.179593 -0.137629 0.156764
0.12501 0.35442 0.15555
-0.206969 0.35442 0.225645
0.144281 0.274954 -0.188286
-0.0936575 0.35442 0.0412255
0.0125396 0.35442 0.18051
-0.00210438 0.258397 -0.182748
-0.174986 0.140771 0.188286
-0.201448 0.35442 -0.0294796
0.155056 0.273928 0.143983
0.188286 -0.313034 -0.171722
0.0976969 0.376571 0.19518
0.118283 0.299473 0.182748
0.107878 0.35442 0.0719666
-0.107016 0.35442 0.167731
0.168009 -0.066466 -0.188286
-0.0910684 0.331573 0.182748
0.182748 0.242899 0.0952566
-0.181077 0.199361 0.038207
0.0392721 0.302373 -0.182748
0.0306477 0.35442 0.175471
-0.143983 0.235706 0.151734
0.226715 0.361253 0.124349
-0.0625825 0.35442 -0.106531
-0.0182069 0.224441 -0.182748
0.158566 0.376571 -0.154934
0.0384069 0.206948 -0.182748
-0.188286 0.17276 0.147167
0.152533 0.376571 0.212888
-0.160597 0.212728 0.0746573
0.163694 -0.314349 -0.187319
-0.106358 0.35442 -0.0785777
-0.0925173 0.35442 -0.149226
0.201929 0.376571 0.118135
0.188286 -0.336096 -0.167464
-0.223977 0.376571 0.0187183
0.0970643 0.376571 0.201714
0.152765 0.114548 0.188286
0.0461234 0.35442 0.068323
0.165121 0.376571 -0.113561
-0.106073 0.376571 -0.147784
-0.157118 0.16368 -0.188286
-0.147531 0.0978167 -0.176288
-0.185379 0.23375 -0.188286
0.162514 -0.240554 0.188286
-0.0659369 0.295224 0.160597
0.178075 0.0666565 0.188286
0.191372 0.35442 0.0572185
-0.000381045 0.376571 -0.144086
-0.129784 0.217671 -0.182748
-0.153453 0.376571 -0.0498502
-0.0329461 0.306485 0.182748
0.161063 -0.247254 -0.172674
-0.182748 0.22597 0.0651173
0.0477717 0.376571 0.129988
-0.154178 0.133892 -0.146116
-0.218977 0.35442 0.158237
0.144963 0.251995 -0.188286
0.00499849 0.376571 0.00595664
0.155116 -0.095607 0.179109
-0.0611982 0.215176 -0.160597
0.0270189 0.237014 0.160597
-0.173151 0.199361 0.00921325
-0.226714 0.366433 -0.150928
0.188286 0.26571 -0.158854
-0.160597 0.299069 0.014253
-0.181469 -0.000617869 0.188286
0.162405 0.335145 0.0729469
0.169813 0.032372 0.150097
0.0858719 0.376571 0.180812
-0.152207 -0.0214161 -0.177137
-0.103917 0.35442 -0.185061
-0.151897 -0.0135273 0.160755
0.00350264 0.35442 0.0269369
0.0371737 0.376571 -0.134027
-0.160597 0.336347 0.0630761
0.216497 0.35442 0.164658
0.0892862 0.266351 -0.160597
0.16651 0.376571 0.105479
0.232027 0.3714 -0.226868
-0.160597 0.307925 -0.111345
0.188286 -0.150341 0.174275
0.138164 0.376571 0.102498
0.0444483 0.376571 0.0946582
0.182748 0.199682 -0.13336
-0.182748 0.209447 0.0314452
-2.94335e-05 0.242257 -0.182748
0.0499118 0.354767 -0.228074
-0.117004 0.35442 -0.0552513
-0.182748 0.322986 0.0923342
-0.145014 0.161992 0.163564
0.188286 0.093154 -0.164172
-0.0547073 0.35442 0.196406
-0.0243723 0.266363 -0.160597
-0.143983 0.336103 0.175393
-0.0219325 0.251612 0.182748
-0.188286 -0.166724 0.171672
0.188286 0.23456 0.178179
0.188286 0.285674 -0.171368
0.161338 -0.254275 0.171846
-0.090036 0.376571 -0.111326
0.177422 0.0208388 -0.150549
0.103632 0.376571 -0.125945
0.160992 0.11676 0.188286
-0.11247 0.376571 -0.0497334
-0.0620005 0.206481 -0.182748
-0.160597 0.236333 0.0571325
-0.0380122 0.35442 -0.00759178
-0.149582 0.376571 -0.117598
-0.165333 -0.327471 -0.164209
-0.0749685 0.35442 0.0199821
0.186625 -0.0472809 0.153221
-0.188286 -0.22245 0.175545
-0.0121567 0.35442 0.226391
-0.171444 -0.0139131 -0.188286
-0.182586 0.236028 0.143983
-0.164609 -0.0219618 0.152228
-0.143983 0.311537 0.188016
-0.0871291 0.352244 0.160597
0.15544 -0.103874 -0.18684
0.169001 0.0205347 -0.150561
-0.184595 0.376571 0.0106311
-0.0356128 0.219555 -0.160597
-0.0743506 0.376571 0.219805
-0.161286 0.324968 -0.143983
0.182748 0.330436 -0.117176
0.182748 0.206899 -0.0944
0.188286 0.307655 0.149039
-0.145785 0.35442 -0.0387552
4.76986e-05 0.35442 0.0276761
0.091693 0.35442 0.170398
0.145699 0.35442 0.112284
0.203151 0.35442 0.109018
-0.160597 0.338262 -0.116738
-0.128348 0.35442 -0.0106771
-0.205292 0.35442 0.161075
0.0789146 0.35442 -0.225573
-0.128118 0.245033 -0.182748
0.0328262 0.354682 -0.227836
0.162405 0.204608 0.0547614
-0.0316054 0.35442 0.222627
-0.145786 0.142308 -0.183676
-0.15233 0.0076023 -0.188286
-0.0735718 0.35442 0.07242
-0.160597 0.340327 -0.105469
-0.232022 0.359579 0.0715023
0.182748 0.239358 -0.0464319
0.182704 0.230082 0.143983
0.162405 0.351921 0.116239
0.206157 0.376571 -0.187119
0.0863376 0.35442 0.0778113
-0.181932 -0.203862 -0.188286
-0.0392822 0.376571 -0.0831012
-0.143983 0.217859 0.158592
0.182748 0.322225 -0.0955936
0.162405 0.241246 -0.131102
-0.226714 0.356471 -0.141975
0.158456 -0.180787 0.176633
-0.162403 0.0217755 -0.188286
0.153706 0.376571 -0.171146
-0.141587 0.35442 -0.21911
0.0144063 0.225388 -0.160597
-0.0647091 0.229275 -0.182748
0.00222445 0.35442 0.012894
-0.160597 0.261059 -0.143647
-0.197459 0.35442 0.156901
0.159628 0.0114869 -0.188286
0.182748 0.204441 0.0725507
-0.0910601 0.354482 -0.227068
-0.182748 0.322223 0.107132
-0.182748 0.267612 -0.0510128
-0.000251569 0.204435 0.182748
0.188286 -0.155661 -0.172659
-0.160597 0.227268 -0.0291867
-0.0411779 0.292071 0.160597
-0.0195119 0.297134 0.160597
-0.226714 0.362195 0.174969
0.107312 0.199361 -0.172389
-0.184543 0.35442 -0.00107604
0.0416052 0.369613 -0.226714
-0.143983 0.348843 0.168032
0.0191218 0.376571 -0.14253
-0.178358 0.0289373 -0.188286
-0.188286 -0.32946 -0.16914
-0.069338 0.199361 -0.163518
-0.156177 0.35442 -0.04798
0.0938796 0.275405 -0.182748
0.188286 0.141425 0.177803
0.2052 0.376571 -0.131892
0.182748 0.301714 0.00970267
-0.164145 0.35442 0.0234438
-0.107834 0.35442 0.105936
0.146496 0.35442 0.0614824
-0.188286 0.226616 0.145114
0.183202 0.35442 -0.148648
-0.182748 0.22658 0.0418415
0.199734 0.35442 0.218505
-0.147356 0.376571 -0.116292
-0.206721 0.35442 -0.199607
-0.160597 0.331117 0.121265
0.0160689 0.281165 0.160597
-0.160597 0.282023 -0.0827283
-0.117716 0.22866 -0.182748
0.0801189 0.35442 -0.14646
0.103739 0.35442 0.0855251
0.148982 0.227807 -0.188286
-0.158518 0.342229 0.143983
0.124073 0.376571 0.0662462
-0.0899145 0.359053 0.226715
-0.162114 -0.140032 -0.156858
0.221561 0.35442 0.0183554
0.166247 -0.00239487 -0.151461
0.222217 0.35442 0.0697482
0.107633 0.35442 0.071692
0.182748 0.265055 0.113204
0.163256 -0.303182 0.16817
0.177634 0.199361 -0.0624337
-0.188286 -0.352797 0.169699
0.1522 -0.0212447 0.182435
-0.0375571 0.35442 0.0850734
0.000532531 0.35442 -0.0308293
0.144414 0.177306 -0.149689
0.0183142 0.376571 0.190333
0.128572 0.35442 -0.14486
0.162405 0.266624 -0.0343031
0.182748 0.30284 0.0654315
0.192888 0.376571 -0.0145217
0.162405 0.245243 -0.0544981
0.182748 0.204837 -0.115853
0.00997943 0.231831 0.160597
0.176503 0.0358102 -0.188286
-0.0787735 0.376571 0.175808
0.135682 0.376571 0.123025
0.0199129 0.376571 -0.205713
0.146289 0.376571 -0.184695
-0.232386 0.361054 0.0690856
-0.146721 0.136428 -0.146017
0.083212 0.35442 -0.200478
0.229073 0.375671 -0.0516445
-0.101464 0.35442 -0.018974
0.182748 0.201287 0.00594135
-0.0222691 0.288254 0.160597
-0.0143181 0.376571 -0.0562018
-0.0762242 0.35442 0.220013
0.100484 0.376571 -0.171369
-0.178111 0.0688314 -0.148667
-0.182748 0.224593 -0.0191528
-0.182172 0.192166 0.143983
-0.0503184 0.266366 0.160597
0.113633 0.35442 -0.118072
0.12792 0.285307 0.182748
0.126547 0.35442 -0.185165
0.162405 0.255763 -0.00261865
0.151947 0.376571 0.17958
0.0506621 0.31903 -0.160597
-0.228167 0.367818 -0.228167
0.180028 0.345431 -0.188286
0.168118 0.376571 0.160585
0.0370127 0.369107 -0.232513
-0.05961 0.376571 0.22658
0.162405 0.248824 -0.111726
0.0247735 0.277704 0.160597
-0.107889 0.243315 0.160597
0.159851 0.184957 0.144114
-0.121602 0.301079 -0.160597
0.143983 0.333545 0.186633
0.188286 0.00693607 0.166388
-0.0554704 0.376571 0.176222
0.155059 0.0334622 0.150054
-0.222135 0.35442 -0.101645
-0.212724 0.376571 -0.127719
0.162405 0.323722 0.06045
0.114729 0.199361 0.172522
0.181258 -0.0036321 0.188286
0.061249 0.250173 0.160597
0.147227 0.362479 -0.226714
0.178583 0.199361 -0.047057
-0.160597 0.323148 0.00868336
0.103136 0.288294 0.160597
-0.182748 0.285003 -0.0596809
0.156589 0.320613 -0.143983
-0.0546994 0.203971 -0.160597
-0.157664 0.267662 -0.143983
0.162405 0.284922 -0.122777
-0.172393 0.376571 -0.0231079
-0.232347 0.37016 0.181879
-0.188286 0.311114 -0.175868
0.162405 0.322309 -0.0491108
-0.132478 0.35442 0.0706707
0.000707105 0.251363 0.160597
0.153898 0.0457734 -0.188286
0.00712659 0.354247 0.182748
0.0928047 0.35442 0.207099
0.162405 0.267284 0.0724162
-0.160597 0.225676 -0.104919
-0.157196 0.119799 0.146669
0.182876 -0.0464119 0.188286
-0.0384999 0.335286 0.182748
-0.00859884 0.376571 -0.165634
-0.094312 0.211663 0.160597
-0.163422 0.0311718 0.188286
0.188286 -0.303557 -0.18154
0.188286 -0.347057 -0.173712
0.143983 0.220028 0.180428
-0.214284 0.376571 0.211065
-0.182748 0.207418 0.128043
0.0731749 0.287227 -0.160597
-0.0290221 0.35442 0.0284522
0.188286 -0.103433 -0.158378
-0.160597 0.266222 0.0730165
0.0428964 0.35442 0.220644
0.0914221 0.376571 -0.134784
-0.0714874 0.310646 0.182748
-0.155403 0.211953 -0.188286
0.159248 0.376571 0.0770219
-0.188286 0.150134 -0.180927
0.0401868 0.376571 0.167071
0.182748 0.316335 0.121398
0.0431776 0.35442 0.060973
-0.182748 0.227358 -0.0904597
-0.162929 -0.294846 -0.178571
-0.182748 0.265305 -0.126829
-0.0957625 0.35442 0.0382056
0.155852 0.053356 0.188286
-0.182748 0.2794 -0.00330339
0.182748 0.267793 -0.0536974
0.188286 -0.295839 0.183045
0.179874 -0.0352554 -0.188286
0.187307 -0.376571 0.166497
0.148169 0.0815399 -0.183108
-0.131816 0.257809 -0.182748
0.117026 0.35442 0.187038
0.168233 0.348296 0.188286
-0.232588 0.36398 0.183901
0.109718 0.376571 -0.148503
-0.116919 0.376571 -0.109236
-0.179191 0.35442 -0.0171264
-0.188286 0.100567 0.156628
0.210948 0.35442 0.110672
-0.00547978 0.376571 0.0631164
-0.178601 -0.0617198 0.153787
0.00949742 0.376571 0.124425
0.181734 -0.343123 -0.164822
0.188286 0.149931 -0.179092
0.0340468 0.202347 -0.182748
0.162405 0.271111 -0.132359
-0.199236 0.372028 -0.226714
-0.182996 0.327757 -0.143983
-0.117328 0.376571 -0.0160453
0.145067 0.160652 -0.163854
-0.133537 0.333105 0.160597
0.188286 -0.0241784 0.175058
-0.1666 -0.00141717 0.151422
-0.118601 0.255665 -0.160597
0.231664 0.358631 0.210809
0.175929 -0.0821183 -0.154587
-0.175519 0.116451 -0.188286
0.101457 0.300188 0.182748
0.229602 0.375271 0.000794724
0.188286 -0.0582027 0.18814
-0.159576 -0.209339 0.160805
0.162405 0.24299 -0.120645
0.136581 0.376571 -0.0519529
0.12172 0.309764 -0.160597
0.162405 0.24206 -0.119665
-0.0469041 0.35442 -0.172867
0.231227 0.373237 -0.0227091
-0.182409 0.376571 -0.0784433
-0.192157 0.35442 -0.131289
-0.220106 0.35442 0.114522
0.0582786 0.345576 0.182748
-0.224031 0.372125 0.226715
-0.029628 0.376571 0.0642776
-0.158517 -0.182325 -0.188054
-0.210571 0.376571 0.142345
0.0966375 0.370412 0.226715
0.162405 0.340095 0.0609027
-0.232588 0.367935 -0.174607
0.0594588 0.214149 -0.182748
-0.179131 0.376503 -0.227095
0.0594803 0.348555 0.160597
-0.160597 0.22856 0.141495
-0.182748 0.210882 0.108243
-0.020365 0.35442 0.120274
0.10797 0.369142 0.226715
-0.185518 -0.203073 0.15933
0.0443289 0.35442 -0.0685601
0.212159 0.35442 -0.0344806
0.0472026 0.214569 -0.182748
-0.0687904 0.376571 -0.203003
0.128051 0.376571 0.0125204
-0.00465218 0.376571 0.133433
-0.188286 0.0267468 -0.16413
-0.165606 -0.363105 -0.166435
-0.096409 0.35442 0.0675669
-0.154809 -0.0877727 -0.179001
0.162405 0.264497 -0.123834
0.205509 0.35442 -0.0245967
-0.0545905 0.355424 0.226715
0.149123 0.0572052 -0.16008
-0.175441 0.131699 0.146202
0.0594127 0.285868 -0.160597
-0.19286 0.35442 -0.0750388
0.115476 0.301339 0.160597
0.157232 -0.149565 0.174254
-0.160597 0.228179 -0.0467003
0.038194 0.376571 0.116059
0.162405 0.207053 -0.0825967
0.162405 0.353866 -0.0186329
0.188286 0.0782868 -0.152031
-0.188286 0.348859 -0.173655
0.176102 -0.0149005 -0.151951
-0.188286 0.191498 -0.156283
0.18582 -0.0631325 0.188286
-0.152247 -0.0120264 -0.151838
0.163048 -0.297875 -0.170083
-0.184093 0.376571 -0.118081
0.2102 0.354628 0.227681
0.155093 -0.0950273 0.164482
0.170731 0.35442 0.110948
-0.0146538 0.376571 -0.0888444
0.226715 0.361923 -0.0291243
0.13573 0.330477 -0.182748
-0.158155 0.133873 0.188286
0.182748 0.214892 0.0268567
0.221434 0.35442 -0.00652675
-0.0150657 0.199361 -0.17138
0.00504433 0.32627 -0.182748
-0.110542 0.35442 -0.142506
0.182748 0.336816 -0.0525013
-0.156981 0.355493 0.229308
-0.100744 0.242662 0.160597
0.186927 0.35442 -0.0443332
-0.183616 -0.127618 -0.188286
0.162405 0.349035 -0.0365456
0.0582007 0.35442 0.161356
0.161338 0.375717 -0.226714
0.182748 0.217968 0.00553308
-0.104001 0.35442 -0.187323
-0.108109 0.201154 0.160597
-0.107423 0.258532 -0.182748
0.112159 0.376571 0.225099
-0.0805627 0.376571 -0.0989446
0.188286 0.210995 0.144009
-0.156315 -0.0323961 -0.152637
-0.192353 0.376571 0.157077
-0.160597 0.219617 0.046533
0.0643522 0.35442 0.171853
0.180661 0.376571 -0.0837775
-0.0485075 0.376571 -0.0721109
-0.0666577 0.376571 -0.179782
0.182748 0.235047 0.0128903
0.163806 0.199361 -0.0406089
0.226715 0.359683 0.160001
-0.160592 0.376571 -0.105061
-0.182748 0.242264 -0.0985296
0.188286 0.239404 0.163704
0.187953 -0.187205 0.158708
0.0467943 0.376571 -0.0921878
0.0929411 0.34155 0.182748
-0.168795 -0.312552 -0.188286
0.150796 0.0145634 -0.172399
-0.143983 0.255018 0.165659
0.231997 0.37148 0.0952062
0.188286 0.322763 -0.159802
0.130007 0.294914 0.160597
-0.0657914 0.35442 0.182678
0.155511 0.376571 -0.16746
-0.151131 0.312235 -0.143983
-0.175693 -0.236708 -0.160649
0.0511356 0.376571 0.142419
0.00963035 0.34023 0.160597
0.154223 -0.0728272 0.156308
0.201519 0.376571 -0.0309058
-0.0753948 0.367097 -0.226714
0.160232 0.0719532 -0.148545
-0.182265 0.06297 0.148897
-0.18004 -0.255021 0.188286
-0.125596 0.321389 0.182748
0.188286 0.319976 -0.150001
-0.188286 -0.36598 -0.168003
0.0840232 0.253977 -0.182748
-0.0536969 0.35442 -0.123586
0.164676 0.263423 0.143983
-0.117174 0.327093 -0.182748
0.162405 0.199896 0.102259
-0.200817 0.376571 -0.159184
0.155994 0.35442 0.184171
-0.188286 -0.345748 0.174628
0.0873619 0.214779 0.182748
0.232297 0.360577 0.0660602
-0.160597 0.290876 0.113942
-0.190432 0.376571 -0.219678
0.170769 -0.0184885 0.188286
0.199305 0.35442 0.0705164
0.188286 0.287952 -0.156636
0.171237 0.35442 -0.00431406
0.20625 0.35442 -0.0752561
-0.196573 0.376571 0.0104742
0.197985 0.376571 -0.0297792
0.152313 -0.0241311 -0.172546
0.153269 0.376571 -0.0320449
-0.161915 0.35442 -0.0931061
-0.182748 0.246104 -0.0615179
-0.1891 0.376571 0.139992
-0.183154 0.0539918 0.188286
0.00939269 0.376571 -0.0460038
0.0476768 0.35442 0.22384
-0.143983 0.315201 -0.154789
-0.21719 0.376571 0.158868
0.206878 0.35442 0.130492
0.153362 0.17596 0.144466
0.166133 0.350756 -0.188286
0.0234116 0.376571 0.138212
0.144403 0.17757 -0.149101
-0.143983 0.191715 -0.186345
-0.187481 0.12264 0.188286
-0.0767249 0.210475 0.182748
-0.0528498 0.376571 -0.0112939
-0.182748 0.217699 0.136454
-0.154577 -0.0818522 0.180858
0.0625501 0.215727 0.160597
-0.180657 0.376571 0.180942
0.0107997 0.312457 0.160597
0.112244 0.35442 -0.0854122
-0.0433404 0.292795 -0.160597
0.175915 0.376571 -0.162002
0.0995416 0.226147 0.160597
0.136001 0.376571 0.132368
0.108369 0.35442 -0.0387636
0.147084 0.109208 0.183703
-0.188286 -0.0149863 -0.188169
-0.181588 0.35442 0.17379
-0.190462 0.35442 0.149372
0.0684431 0.35442 -0.20303
0.162405 0.287596 0.140149
0.216118 0.371421 0.226715
-0.182748 0.329105 0.140087
-0.143895 0.376571 -0.0300457
0.169159 0.35442 0.185874
0.148343 0.0771078 -0.161065
0.220027 0.365228 -0.226714
-0.169604 -0.294188 -0.162903
-0.221481 0.376571 0.0992188
-0.0431729 0.376571 -0.074459
-0.0370249 0.320384 -0.182748
-0.090088 0.291332 -0.160597
-0.0981527 0.259387 -0.182748
0.159021 0.35442 -0.00758643
0.195909 0.35442 0.0222369
0.163916 -0.0888924 0.154853
-0.0455443 0.35442 0.180018
0.075707 0.35442 0.0547827
-0.143983 0.233902 -0.186562
-0.101458 0.35442 -0.140473
-0.147702 0.0934584 0.162927
-0.175492 -0.348579 -0.165036
0.155337 0.354539 0.227395
-0.160597 0.325702 -0.119365
0.154816 -0.0879513 -0.176955
-0.223783 0.376571 -0.0582674
0.162405 0.29115 0.00274415
-0.182748 0.231425 0.105873
0.101242 0.376571 0.0243675
0.182748 0.258953 0.104012
0.00705062 0.305111 -0.182748
0.23168 0.358665 0.106905
0.162405 0.230949 -0.132882
-0.152886 0.376571 0.0427752
0.0855129 0.204499 0.160597
0.188286 0.187505 -0.18315
0.172897 0.199361 -0.0944302
-0.168533 0.35442 0.0657302
-0.0495757 0.35442 -0.0331627
0.184362 -0.249799 -0.188286
0.0380913 0.376571 -0.0422209
0.182748 0.264195 -0.139071
-0.203099 0.376571 -0.0252735
-0.150374 0.376571 0.174289
0.0129477 0.36504 0.232588
0.143983 0.243937 -0.163178
-0.165207 -0.352938 -0.182701
-0.182748 0.331231 -0.0124087
-0.215922 0.35442 -0.0747079
0.182748 0.261809 -0.0183017
0.188286 0.249443 0.172553
0.144748 0.16879 0.151941
0.0239591 0.35442 -0.01708
-0.22229 0.376571 -0.145357
0.226715 0.372103 0.0588632
-0.0515206 0.265232 -0.160597
0.0956759 0.376571 0.114788
-0.134864 0.376571 -0.0407058
-0.143983 0.22881 0.145804
0.0493479 0.250261 -0.182748
-0.146193 0.131919 0.181025
-0.117227 0.316791 -0.160597
-0.167635 -0.125679 -0.188286
0.18675 0.10145 0.147388
0.182748 0.250999 -0.0917287
-0.065473 0.35442 0.202615
0.0428142 0.259334 0.160597
0.144817 0.304291 -0.143983
-0.0830422 0.376571 -0.11644
0.0552757 0.347014 -0.160597
-0.226714 0.36391 0.213307
-0.179062 0.00389894 -0.151214
-0.142858 0.316326 -0.160597
-0.187823 0.367276 0.226715
-0.188286 0.292112 -0.151663
0.188286 0.0214003 -0.167341
-0.182748 0.199372 -0.11535
0.135525 0.35442 0.07676
0.148801 0.118192 0.188286
0.165071 -0.34946 -0.187293
0.182748 0.271846 0.109234
-0.115696 0.247754 -0.160597
-0.0247405 0.376571 0.0993538
0.108101 0.376571 0.135571
-0.160597 0.211438 -0.136899
0.0384699 0.376571 -0.0888432
-0.232508 0.369168 0.144982
-0.23252 0.369031 -0.187792
-0.182748 0.224486 0.141052
0.221133 0.35442 -0.190677
-0.183666 -0.0145536 0.188286
0.171724 0.35442 0.113552
-0.173348 0.316992 -0.143983
0.146159 0.132792 0.186014
-0.188286 -0.0790295 -0.170471
-0.112065 0.352131 0.160597
0.188286 -0.245433 0.184442
0.188286 0.336757 -0.166524
-0.155244 0.0299436 -0.188286
0.095576 0.267827 -0.182748
-0.199673 0.376291 0.227883
0.079753 0.376571 -0.0383105
-0.187265 0.376571 -0.123916
-0.160597 0.2702 -0.130947
0.226715 0.373904 0.0636679
0.188286 -0.341277 0.165812
0.182748 0.311291 0.0892713
0.0665618 0.35442 -0.18666
-0.174046 0.261947 0.143983
-0.188286 0.0104535 -0.155521
0.182748 0.331349 -0.0651535
0.0478829 0.320406 -0.182748
0.148351 0.0768928 -0.186175
0.188286 -0.274295 0.178918
0.09925 0.35442 -0.17112
0.162405 0.328064 0.0528449
0.180637 0.32376 -0.188286
-0.0390336 0.376571 -0.139815
-0.171905 0.0192411 0.188286
0.199014 0.35442 0.0233176
-0.226714 0.355211 -0.213871
-0.0920591 0.376571 0.17574
-0.175391 -0.285092 -0.162547
-0.0213908 0.324544 -0.182748
0.182748 0.201843 -0.112381
0.188286 0.203358 0.162151
0.168293 -0.0249843 0.188286
0.17891 0.0415097 0.188286
0.188286 0.00297874 -0.15741
0.21909 0.376571 -0.14072
-0.129517 0.350873 -0.182748
-0.0446104 0.229345 -0.160597
0.162405 0.336536 -0.102749
0.102806 0.35442 -0.0300543
0.169415 0.103818 0.188286
0.107744 0.376571 0.147327
0.188286 -0.202086 0.173782
-0.182748 0.313833 -0.0780468
-0.160597 0.344933 0.00120883
0.145857 0.140499 -0.168022
0.165237 -0.334862 0.164498
0.182748 0.22782 0.0092932
-0.188286 -0.228744 -0.170268
0.0486815 0.35442 -0.168398
-0.188286 0.313653 -0.159973
0.1792 0.35442 -0.116793
-0.160597 0.319034 -0.0149203
-0.201138 0.35442 -0.115753
0.11655 0.329532 0.160597
0.162405 0.281508 -0.108461
0.0126341 0.35442 0.219099
-0.182748 0.305076 -0.0582554
-0.187939 0.0159955 -0.188286
0.162405 0.310935 -0.01099
0.163661 0.335252 -0.143983
-0.185644 0.376571 -0.133253
-0.188286 0.193172 -0.167993
0.0982261 0.35442 0.081549
0.162405 0.261866 0.0437512
0.155158 -0.0966895 -0.157051
-0.188286 0.0358459 -0.174054
-0.066195 0.200598 -0.160597
0.119743 0.354064 -0.160597
-0.0544099 0.35442 0.121637
0.162405 0.26351 -0.0129879
0.229622 0.375251 0.0262268
0.182748 0.311724 -0.129369
0.209749 0.376571 -0.0172761
-0.162921 0.376571 -0.193261
0.188286 -0.191272 0.174313
0.20971 0.35442 -0.187589
-0.203701 0.372282 0.231698
-0.0840831 0.374782 -0.230101
0.177367 -0.079455 -0.154483
-0.169808 -0.221373 -0.160048
-0.0179398 0.364915 0.226715
0.0867066 0.35442 0.11718
-0.219179 0.35442 0.103162
-0.182748 0.277816 -0.0864634
-0.167495 0.101593 -0.188286
-0.160597 0.264402 0.0575134
-0.160597 0.289294 -0.0589899
0.182748 0.251351 0.00801183
-0.188286 -0.283474 -0.174145
0.166104 0.364936 -0.232588
0.118704 0.268314 0.182748
0.113877 0.35442 -0.148559
-0.116978 0.2056 -0.182748
-0.182748 0.20885 -0.11778
-0.188307 0.376571 -0.0921533
0.182748 0.229657 -0.0641376
0.0205391 0.376571 -0.200515
-0.102574 0.311203 0.182748
-0.196661 0.376571 -0.0361843
0.164561 -0.336453 -0.17298
0.0395606 0.31218 0.182748
-0.188286 0.250803 -0.177379
-0.195445 0.35442 -0.178242
0.0719095 0.231286 0.182748
0.182748 0.275935 0.0728148
0.188286 0.129698 0.168729
0.0765371 0.35442 0.157274
0.0536624 0.352154 -0.160597
0.184282 0.107229 -0.188286
0.158303 0.269744 0.143983
0.162405 0.227274 -0.11375
-0.173524 0.330062 -0.188286
-0.143983 0.270393 -0.145589
0.150374 0.0253247 -0.185048
-0.197546 0.35442 0.0840047
-0.144992 0.162547 -0.149841
-0.157859 -0.165566 0.159699
-0.137549 0.35442 -0.112765
-0.168641 0.35442 -0.115552
-0.0445436 0.376571 0.158337
0.0528676 0.305106 -0.182748
0.121175 0.35442 0.0976219
-0.0316 0.376571 -0.14726
0.221409 0.376571 0.115664
0.0319617 0.35442 0.0859296
0.0327491 0.274888 -0.160597
0.0807969 0.35442 -0.024821
0.226715 0.358027 -0.0390028
-0.159781 0.376571 0.208672
0.188286 -0.0180774 -0.161687
-0.182748 0.249955 -0.128605
-0.178168 0.199361 -0.122707
0.143983 0.292887 0.183421
0.182748 0.321481 -0.00669732
-0.164076 -0.324097 -0.165189
-0.108288 0.369839 0.232403
-0.160597 0.302576 0.117599
-0.0463358 0.376571 -0.124062
0.162405 0.265322 0.135416
0.188286 -0.16568 -0.170122
-0.10028 0.35442 -0.13909
0.182748 0.262613 0.101595
0.162405 0.344876 -0.030783
0.0789713 0.35442 -0.0823908
0.152262 0.19257 -0.143983
0.162405 0.202404 0.130331
-0.0724014 0.35442 0.128865
-0.179774 0.35442 0.174091
-0.13351 0.376571 -0.00807135
0.163769 -0.0110233 -0.151799
0.0878757 0.211288 -0.160597
-0.134218 0.376571 0.0857827
-0.226714 0.358782 -0.0574084
-0.182748 0.244311 -0.00092873
0.150187 0.0300856 0.180916
-0.154028 0.182832 0.188286
-0.179919 -0.114484 0.188286
0.0472426 0.257973 0.182748
0.164541 0.182745 -0.1442
0.14494 0.163875 0.147528
-0.160597 0.320427 -0.14242
0.162405 0.340075 0.0432416
0.0704921 0.35442 -0.0392502
0.162405 0.31884 0.0670436
-0.144578 0.35442 -0.0185121
0.00604487 0.35442 -0.00358403
0.188286 0.12581 -0.162486
0.175243 0.376571 0.081121
0.0408053 0.217941 0.160597
0.145536 0.367902 0.232588
0.175628 0.199361 -0.0874996
0.162405 0.225002 -0.0846368
0.135808 0.35442 -0.146687
-0.182748 0.257858 -0.0334939
-0.152104 -0.01881 -0.182102
0.0511226 0.347484 -0.160597
0.106724 0.27602 -0.160597
0.000257084 0.35442 0.199603
0.188286 0.237909 -0.163161
0.182748 0.263342 0.0418226
0.221574 0.35442 0.0935298
0.182748 0.339735 -0.132433
-0.0319304 0.376571 0.101753
0.186769 0.376571 -0.152889
0.184447 -0.217943 -0.188286
0.00280172 0.376571 -0.170566
-0.165183 0.376571 0.0729712
-0.00743513 0.308174 -0.160597
0.147584 0.376571 0.120261
0.144848 0.20713 0.188286
-0.170368 0.128561 -0.146325
-0.188286 0.275658 0.147573
0.016571 0.35442 -0.0393142
0.188286 -0.206984 -0.167068
0.162405 0.218724 0.115596
0.226715 0.370463 -0.0619048
0.188286 0.0826006 0.149731
0.163121 0.376571 0.165759
-0.144026 0.187176 -0.159794
0.0768176 0.35442 -0.190371
-0.210459 0.35442 0.112472
0.0942825 0.199361 -0.176349
0.15093 0.35442 -0.117328
-0.048795 0.270525 0.160597
0.00614847 0.35442 -0.148198
-0.158144 -0.172828 -0.186897
-0.182369 0.35442 -0.148649
0.188286 -0.0177694 -0.162674
0.188286 -0.258238 0.162926
0.157055 -0.145054 0.161892
0.0509137 0.304729 -0.160597
-0.156328 -0.12652 0.159783
0.103267 0.35442 -0.178715
-0.232528 0.362045 0.0302173
0.213788 0.376571 0.0710782
-0.109896 0.35442 -0.160305
0.00363591 0.376571 -0.212804
0.0908364 0.244845 0.160597
-0.144671 0.170733 0.186679
0.162405 0.334624 -0.0745828
0.0589802 0.279457 0.182748
-0.000511236 0.316525 -0.160597
0.185853 -0.00573272 0.188286
-0.165789 -0.0370199 0.152818
-0.0134719 0.376571 0.130615
-0.0299699 0.35442 0.0957316
0.0488812 0.376571 0.19989
-0.11855 0.35442 -0.112799
-0.00670458 0.21765 -0.182748
-0.095537 0.35442 0.0561636
-0.182748 0.293002 -0.0490309
0.0664479 0.221277 0.160597
-0.215634 0.35442 0.116272
0.146495 0.124224 -0.157619
-0.160801 -0.240586 0.177769
0.0157261 0.376571 0.206111
0.0788561 0.202545 -0.160597
0.150949 0.2318 0.188286
-0.182748 0.313231 -0.0483405
0.162405 0.201028 -0.0370233
-0.0886419 0.376571 -0.0118049
0.107029 0.35442 -0.0436309
0.0709879 0.35442 0.0867354
-0.102553 0.217133 0.182748
0.0797012 0.334719 0.160597
-0.0337624 0.35442 0.224504
0.0748019 0.35442 0.182936
-0.182748 0.213257 -0.034342
0.0329594 0.227379 0.160597
-0.160597 0.29212 0.119772
-0.182748 0.320024 -0.106023
-0.178451 0.376571 0.000986375
-0.182748 0.241164 0.00926865
-0.0200519 0.376571 0.182326
-0.166768 0.35442 0.0419651
-0.148354 0.0768285 0.177263
-0.212288 0.35442 -0.109868
0.16592 -0.0496943 -0.153315
0.182748 0.216549 0.120969
0.130318 0.239909 0.160597
-0.14644 0.35442 0.0204114
-0.061227 0.376571 0.171953
-0.109198 0.34266 0.182748
0.182748 0.258341 -0.104365
-0.128899 0.35442 -0.0294486
-0.177498 -0.165982 -0.188286
0.162405 0.278435 -0.0374425
0.152032 0.303686 0.188286
0.150621 0.0190137 -0.183872
0.134343 0.206378 -0.182748
0.180034 -0.331358 -0.164361
0.163181 0.199361 -0.0641873
-0.160597 0.336183 0.108922
-0.195928 0.35442 -0.040202
-0.174109 -0.376571 -0.175226
0.00165034 0.35442 -0.18614
-0.00631271 0.351694 -0.160597
-0.182748 0.23545 0.0087833
-0.159184 -0.199346 0.171566
0.162405 0.271184 -0.125848
0.176904 -0.191069 0.158859
-0.174738 0.3318 0.188286
-0.00100021 0.370197 0.23234
0.182748 0.227473 -0.0350955
-0.196485 0.358457 -0.231578
-0.00162515 0.35442 -0.0430435
-0.122226 0.199361 -0.174434
0.182748 0.296046 0.0239912
-0.130269 0.35442 -0.224981
0.157343 -0.15241 0.178349
0.168801 0.296886 0.143983
-0.182748 0.30567 0.0627261
-0.232548 0.368711 -0.169368
-0.122552 0.271958 -0.182748
-0.188286 -0.0457836 0.170377
-0.160597 0.202239 0.136607
0.162405 0.286282 0.107822
0.117367 0.255501 -0.160597
-0.089842 0.325475 0.182748
-0.171022 0.199361 -0.0875963
0.193044 0.376571 0.0656716
-0.159793 -0.214871 -0.178801
0.197827 0.376571 -0.0671612
0.10943 0.306104 0.182748
0.143983 0.242132 0.179205
-0.108143 0.376571 -0.051659
-0.0818525 0.376571 -0.144944
-0.146601 0.121529 0.148911
-0.0253905 0.347496 0.182748
-0.232413 0.361208 -0.112419
0.209583 0.376571 -0.129404
-0.0345627 0.35442 0.155143
0.119251 0.203712 -0.160597
0.13545 0.35442 -0.0737699
0.18342 -0.0735743 -0.188286
-0.122851 0.376571 -0.216638
0.0598757 0.35442 0.176526
-0.177596 0.347731 -0.188286
-0.106459 0.376571 0.168764
-0.0114478 0.35442 0.0260964
-0.0422318 0.199361 -0.173566
0.182748 0.305618 0.0747582
-0.226714 0.367652 0.140781
0.109666 0.302581 0.182748
-0.133938 0.376571 0.142286
0.0212547 0.20077 -0.160597
0.182197 -0.0440813 0.188286
-0.182948 -0.242572 -0.188286
0.186874 -0.14561 0.188286
0.0443824 0.35442 -0.0689126
-0.182748 0.337697 -0.0130267
-0.160597 0.2347 0.0727379
0.175518 -0.19074 -0.188286
-0.226714 0.365884 -0.0482638
-0.153917 0.254489 0.188286
-0.202297 0.35442 -0.00522282
-0.161224 -0.108834 0.188286
0.0113124 0.376571 -0.20305
0.0963685 0.35442 0.0523553
0.0255998 0.235074 0.160597
-0.188286 0.305676 0.14875
0.188286 0.246881 -0.151232
-0.183567 -0.370005 0.188286
0.106525 0.35442 0.157239
0.143208 0.35442 -0.066828
0.0917298 0.230754 0.160597
0.181837 -0.270197 0.188286
0.159821 -0.215588 0.16305
0.179054 -0.198617 0.159155
-0.180225 0.199361 -0.078001
-0.1514 -0.000846108 -0.176598
-0.163152 -0.207423 -0.159501
0.126655 0.376571 -0.0365341
0.198397 0.376571 0.134309
0.160107 0.35442 -0.0927031
0.0453793 0.199594 -0.182748
0.164007 -0.0988525 0.188286
0.0297194 0.35442 -0.129466
0.157319 0.0938233 0.188286
0.152173 0.35442 -0.137497
-0.0621798 0.35442 -0.132268
0.231907 0.371723 -0.0296753
-0.182748 0.316832 0.135311
0.143983 0.30509 -0.170384
-0.19685 0.366677 -0.226714
-0.0958767 0.200003 0.160597
0.072039 0.35442 0.15125
0.136468 0.35442 -0.120519
-0.0422962 0.376571 0.0108758
0.177233 0.006207 -0.188286
-0.156594 -0.1333 -0.180753
-0.0931552 0.263303 -0.182748
-0.160597 0.327137 -0.0208769
-0.108174 0.35442 -0.0126564
0.0620331 0.200162 0.160597
-0.0631445 0.244013 0.160597
0.0510135 0.35442 0.0524988
0.162405 0.268995 0.0718391
-0.147303 0.103621 -0.154173
0.145349 0.153441 -0.166095
-0.131554 0.376571 0.154501
0.157794 -0.163888 -0.162709
-0.160597 0.31763 0.00087237
-0.112741 0.35442 -0.220594
-0.160597 0.268493 -0.130644
-0.226714 0.360599 0.034286
-0.160597 0.214364 0.0199761
-0.20169 0.376571 0.112755
0.143983 0.352056 -0.16921
-0.00508473 0.346548 0.160597
0.188286 -0.0968494 0.162131
0.162405 0.235786 0.14391
-0.167632 0.0634538 -0.188286
-0.0109786 0.246672 -0.182748
0.0543486 0.35442 -0.0631693
0.0984518 0.376571 -0.144079
0.187004 -0.346861 -0.164969
-0.188286 0.0690231 -0.175914
-0.156798 0.35442 0.00656608
0.0863325 0.199361 0.170238
0.0295651 0.346691 0.182748
-0.156192 -0.0859986 -0.188286
-0.147817 0.193545 -0.188286
0.0564952 0.376571 0.0904327
-0.0541814 0.349825 -0.182748
-0.05174 0.35442 0.0881624
0.0429349 0.376571 0.0573992
0.148318 0.35442 -0.190791
0.162405 0.25305 0.0184337
0.181352 -0.271616 -0.188286
-0.160597 0.325194 -0.053669
0.00309362 0.35442 0.205022
-0.00661348 0.376571 -0.217687
0.0267269 0.255663 -0.182748
-0.00585274 0.199361 0.164686
0.0656113 0.274867 0.182748
0.188286 -0.351095 0.167218
-0.134741 0.35442 -0.00503711
-0.0366635 0.29803 0.182748
0.192465 0.376571 0.192994
0.0442788 0.35442 0.173675
-0.188286 0.108923 -0.180025
-0.11293 0.217787 -0.160597
0.127867 0.36722 -0.226714
-0.0785771 0.35442 -0.0546158
0.162405 0.232275 0.061307
0.0980184 0.235672 0.182748
-0.182748 0.32384 0.10528
0.188286 -0.0280567 -0.165069
0.230662 0.362986 -0.230662
0.182796 -0.32768 0.188286
0.0176465 0.35442 -0.139357
-0.165627 0.35442 0.0638886
-0.182748 0.277 0.0850488
0.0893036 0.376571 -0.114178
0.113458 0.199361 0.169778
-0.220539 0.376571 -0.225156
-0.0516225 0.320176 -0.160597
-0.191316 0.372166 0.226715
-0.165952 -0.366213 -0.188286
-0.160597 0.249554 0.0184408
-0.186912 0.363638 0.232588
0.188286 -0.268229 -0.179597
-0.0340031 0.208294 -0.160597
-0.106657 0.35442 0.195703
-0.167838 0.35442 -0.155748
-0.10617 0.300488 -0.182748
0.177633 -0.261518 0.161622
0.0870157 0.35442 0.165762
0.160747 -0.0717732 -0.188286
-0.179676 0.268295 0.143983
-0.00279981 0.35442 0.0484215
0.0375049 0.35442 -0.0664768
0.139768 0.199361 -0.177387
-0.0408792 0.206298 -0.182748
0.138218 0.35442 0.0327826
-0.224594 0.35442 0.0697875
0.14318 0.305838 -0.182748
-0.207519 0.376571 0.0358108
0.109122 0.35442 0.139267
0.125332 0.360467 0.232268
0.0149439 0.275629 0.182748
0.176646 -0.0557822 0.188286
-0.18433 -0.0581376 0.153647
0.00817591 0.364276 0.232588
0.162405 0.285931 0.129494
0.188286 -0.266363 -0.176802
0.170391 0.35442 0.000890732
-0.151654 -0.0073236 0.164983
-0.182475 0.374645 0.23023
-0.182748 0.204293 0.128257
0.182748 0.304966 0.108648
0.162405 0.310721 -0.00808649
-0.0930911 0.28822 0.160597
0.175338 0.35442 -0.153233
0.0711217 0.35442 -0.20961
-0.170644 0.376571 0.00768134
0.188286 0.350458 -0.161699
-0.166704 0.136421 0.146017
0.188979 0.376571 0.0402411
0.163885 -0.319229 0.172435
0.140752 0.297635 0.182748
0.162405 0.247788 0.0521919
-0.0721012 0.376571 -0.13844
-0.151296 0.115977 0.188286
-0.0748725 0.259645 0.182748
-0.208958 0.376571 0.0512279
-0.188286 0.148845 -0.148609
-0.06592 0.376571 0.074046
-0.226714 0.362622 0.111572
-0.161248 0.344094 0.188286
0.179309 0.0117265 -0.188286
0.162405 0.272651 -0.00624956
0.0537524 0.35442 0.0196607
0.232588 0.367964 0.00760258
0.224819 0.36696 0.232588
0.147664 0.194609 0.188286
-0.138542 0.376571 0.209828
0.0194531 0.27612 0.160597
0.188286 -0.166674 0.165924
0.110034 0.376571 0.12044
-0.188286 0.0121521 -0.158489
0.0337642 0.267336 0.160597
0.162495 0.376571 -0.221913
0.162405 0.345659 -0.135256
-0.16615 0.376571 0.187584
0.0328094 0.35442 -0.219354
0.00469679 0.303071 -0.182748
0.162405 0.350261 0.0391873
-0.00555482 0.376297 0.227865
-0.186943 -0.0202296 -0.188286
-0.168914 0.199361 -0.0246864
-0.160597 0.320129 0.137341
0.187933 0.35442 -0.0442458
-0.170516 0.36757 -0.226714
-0.0514399 0.35442 -0.0709064
-0.127261 0.284119 -0.160597
0.208375 0.376571 0.14633
-0.232288 0.370447 -0.217779
0.188286 -0.325559 -0.186162
0.0115269 0.376571 0.175724
0.191574 0.35442 0.067816
-0.228406 0.354923 -0.182292
0.154202 0.0930003 0.14772
0.182748 0.230837 0.135634
-0.165952 0.146997 -0.145602
-0.131278 0.35442 -0.217754
0.226715 0.362989 0.0259476
-0.160597 0.260336 0.000983492
0.138442 0.273653 0.182748
-0.182748 0.274885 0.0533636
0.159131 0.31911 0.188286
-0.182748 0.329835 0.095174
-0.229317 0.37549 0.0515951
0.0696015 0.293632 0.160597
0.118628 0.376571 0.070851
-0.0513132 0.35442 0.007504
-0.221615 0.376571 0.10109
0.157868 -0.165792 0.167727
0.162375 0.0252537 -0.150376
-0.0181265 0.358004 0.231357
-0.0132566 0.376571 0.20048
-0.160597 0.283558 -0.0139003
0.173402 0.35442 -0.139087
0.0191868 0.376571 0.0627588
-0.171008 -0.127279 -0.188286
-0.0930636 0.35442 -0.0601575
0.162405 0.278264 0.0649421
0.143983 0.323154 -0.184938
-0.182748 0.271385 -0.0176617
-0.153374 -0.0511807 -0.158871
-0.174009 0.152339 0.188286
-0.0485926 0.35442 -0.174266
-0.177271 -0.150923 0.188286
-0.171434 0.376571 -0.225323
0.182748 0.226565 -0.105586
0.177911 0.354477 -0.226714
0.182748 0.335682 0.0197305
0.0813665 0.35442 0.191924
0.188286 -0.287154 0.177599
0.166425 -0.00174934 -0.151435
0.112582 0.262886 -0.160597
-0.196522 0.376571 0.201963
-0.188286 0.343273 0.145228
0.148678 0.0685616 0.164092
-0.0689874 0.293919 -0.182748
0.0583924 0.376571 -0.201986
0.0875127 0.310567 0.160597
0.159256 0.114922 -0.14686
0.143983 0.311999 -0.152997
-0.188286 0.165915 0.163173
-0.0828301 0.376571 0.0200859
0.153523 0.262338 -0.188286
0.0841436 0.267066 -0.160597
0.226715 0.364853 0.193974
-0.182748 0.307527 -0.0632005
0.0284601 0.376571 -0.0847422
0.149681 0.0950474 0.147639
0.230499 0.35668 -0.0531971
-0.153933 0.154542 -0.188286
-0.188286 0.326406 0.158614
0.182748 0.28628 -0.119994
-0.160597 0.342399 -0.0146836
0.07229 0.312289 0.160597
0.0554809 0.248424 -0.160597
-0.111462 0.368963 -0.226714
0.175005 -0.256763 0.161436
-0.170626 0.167041 0.188286
0.167891 -0.0117057 0.151826
0.143983 0.301814 0.150902
0.226715 0.367727 -0.201215
0.0805524 0.35442 0.160962
0.23241 0.361192 -0.215575
0.0397276 0.376571 0.0508568
-0.0523779 0.35442 -0.0516565
-0.144593 0.172741 -0.162395
-0.188286 -0.160034 0.184027
-0.160043 -0.221253 -0.169219
-0.0511231 0.376571 0.112442
0.148711 0.067722 -0.177401
-0.157239 -0.149754 0.175364
0.18234 0.0300121 -0.15019
-0.187965 -0.330965 0.188286
0.164062 -0.0336221 -0.152685
0.112984 0.207893 0.160597
0.143983 0.24016 -0.154717
-0.188286 -0.226329 -0.165103
0.0894519 0.371511 -0.226714
0.0272702 0.376571 -0.145568
0.0738202 0.254649 -0.182748
0.0169836 0.35442 0.0691774
0.188286 0.158032 -0.173173
-0.0872381 0.263368 -0.182748
0.00759495 0.35442 -0.0634304
0.115924 0.35442 0.178937
-0.212587 0.375102 0.226715
-0.188286 0.0622929 0.172664
0.120188 0.35442 -0.150477
-0.0191512 0.35442 0.0353832
-0.15965 -0.184381 -0.158597
-0.184219 0.35442 0.0264013
0.0717277 0.287859 0.160597
-0.153149 -0.0454592 -0.154445
-0.188286 -0.126187 0.168073
0.147395 0.101277 0.160022
-0.1496 0.0450491 0.177295
-0.165567 0.32651 0.188286
0.183604 0.376571 -0.1923
0.169615 0.376571 -0.00568046
0.118527 0.311188 -0.182748
0.162405 0.345923 -0.121352
-0.118018 0.376571 -0.0585603
0.162405 0.35228 -0.0377391
0.153168 -0.00220624 -0.188286
-0.188286 0.132195 -0.150549
0.162405 0.301521 -0.124804
0.0313311 0.376571 -0.0125345
-0.188286 0.0411167 -0.173433
0.124384 0.376571 -0.0804368
-0.160597 0.283416 0.0489302
0.0832623 0.376571 0.0811862
-0.142746 0.343601 0.160597
0.188286 -0.31039 -0.16947
0.148792 0.0656527 -0.160925
0.135053 0.199361 -0.16123
0.162405 0.336381 -0.0878388
-0.182748 0.215752 -0.0276875
-0.0191797 0.35442 -0.178213
0.14194 0.341936 0.182748
0.162533 -0.14919 -0.157217
0.048337 0.376571 -0.101915
-0.191654 0.35442 -0.0709124
0.23247 0.369458 -0.225014
-0.151209 0.0365143 0.188286
-0.0608353 0.35442 0.0403391
-0.0540172 0.35442 0.0839732
-0.160597 0.30063 0.0775447
0.188286 0.184727 -0.157117
-0.210567 0.35442 -0.0109599
0.16002 0.133737 0.188286
0.231984 0.371516 0.205854
-0.160597 0.343064 0.0823644
-0.122094 0.286737 0.160597
0.16887 -0.222509 0.188286
0.175706 -0.25718 -0.188286
-0.226714 0.375291 -0.0812411
0.0808455 0.279456 -0.182748
0.188286 0.28689 0.158843
-0.106512 0.230995 -0.160597
0.188286 0.218737 -0.153138
0.212063 0.376571 -0.144164
0.17225 0.254144 0.188286
-0.199757 0.35442 0.0747784
-0.159915 -0.0862471 -0.154749
0.182748 0.274043 0.0587493
0.108052 0.376571 0.21385
-0.12802 0.311561 0.160597
0.188286 -0.018601 0.168916
-0.182748 0.322541 -0.0839106
0.182748 0.200184 0.125721
0.179178 0.014454 -0.188286
-0.0226897 0.35442 -0.156914
0.138845 0.376571 -0.0658403
0.177772 0.199361 -0.0581056
0.139133 0.376571 -0.115492
-0.188286 -0.110759 0.160108
-0.157884 0.218588 0.143983
0.0482441 0.244004 -0.182748
-0.0799742 0.35442 0.211373
-0.182748 0.316008 0.0214702
-0.160597 0.271097 0.132735
-0.160597 0.282125 -0.0214107
-0.0404803 0.376571 -0.0250398
0.067141 0.199361 0.178007
0.162405 0.308034 0.0798205
-0.169848 -0.182119 0.188286
0.15354 0.376571 0.158159
0.0403492 0.376571 -0.104934
-0.208335 0.35442 0.112981
0.188284 0.326641 0.143983
-0.0999197 0.372235 0.226715
-0.182748 0.236368 0.0646113
0.0206793 0.35442 -0.175223
0.15895 0.151009 -0.145445
0.0481963 0.376571 -0.153859
-0.116812 0.35442 0.165666
-0.0910248 0.217481 0.182748
-0.231764 0.372104 0.0798478
0.0852054 0.35442 0.174434
0.182748 0.265017 -0.0522919
0.182748 0.239754 0.0078545
-0.199761 0.35442 0.0177631
-0.0213354 0.349992 0.182748
0.188286 0.00259186 0.183971
0.143983 0.280475 0.169985
-0.171264 -0.204249 -0.159376
-0.084478 0.35442 -0.175494
-0.182748 0.353925 0.0554452
-0.105272 0.35442 0.0085292
0.0638235 0.36932 -0.232494
-0.0150585 0.267779 0.160597
-0.121472 0.372626 -0.226714
-0.182748 0.322796 0.0573689
-0.183987 0.289094 0.188286
0.180923 -0.30246 0.163228
0.0818337 0.376571 -0.036348
-0.0263594 0.333544 -0.182748
-0.169619 0.285137 0.188286
-0.153037 0.0155388 0.150757
0.0837318 0.263548 -0.160597
-0.0839334 0.35442 -0.155976
0.11506 0.199361 0.168881
-0.0365102 0.376571 -0.204408
0.0594956 0.35442 0.208647
-0.188286 0.0353192 0.161273
-0.0112713 0.37111 -0.226714
0.130083 0.376571 0.204925
-0.182748 0.32547 -0.137527
-0.229574 0.355692 0.139534
-0.157989 0.254595 0.143983
0.081055 0.376571 0.0725064
0.11028 0.35442 0.0211438
0.188286 0.00412959 -0.180075
-0.183697 0.00453113 -0.188286
0.188286 0.0582174 -0.179268
0.128929 0.35442 -0.0787094
-0.182748 0.263024 0.0519621
0.183178 0.0191727 0.150615
-0.156259 0.0138022 0.150825
0.162405 0.328272 -0.0442737
-0.107229 0.35442 0.129737
0.149986 0.0916692 -0.188286
0.129588 0.35442 0.212604
0.167323 0.376571 -0.104194
-0.220031 0.376571 0.175578
-0.210746 0.376571 -0.131512
-0.15183 -0.0118185 -0.173644
0.16111 -0.239436 0.160756
-0.232588 0.365261 0.0784719
-0.16291 -0.0152923 0.188286
0.179888 0.261462 -0.143983
-0.150041 0.0338129 0.187272
-0.168494 -0.0110789 0.151801
-0.0358673 0.297948 0.182748
0.0136076 0.315677 -0.160597
-0.191162 0.374219 -0.226714
-0.220927 0.376571 0.161978
0.180705 -0.119405 -0.156049
0.05828 0.354752 0.228034
-0.100143 0.376571 0.0143815
0.0607184 0.26612 -0.182748
-0.0539594 0.35442 0.190571
-0.148856 0.0640204 0.173139
0.188286 0.212258 0.169923
0.065904 0.35442 0.137097
0.162405 0.248833 0.0478316
0.185938 0.35442 0.194453
-0.0813051 0.267611 0.182748
-0.149235 0.0543484 -0.181614
0.185868 -0.376571 -0.182657
0.122541 0.355268 -0.226714
0.230165 0.356269 -0.151498
0.1479 0.213872 -0.143983
0.118578 0.35442 -0.200122
-0.188286 0.18335 0.151348
-0.163456 -0.290942 0.162776
-0.147791 0.0911881 0.180553
0.157107 -0.081019 0.154544
-0.151095 0.35442 -0.190071
0.148027 0.376571 0.215781
-0.147875 0.133309 0.188286
-0.115826 0.35442 -0.0233418
-0.186322 0.35442 0.160309
0.195823 0.35442 -0.0193024
0.173998 0.310507 -0.188286
0.0781179 0.376571 -0.060336
-0.160597 0.34501 -0.14012
-0.186936 0.120572 -0.146638
0.162405 0.290353 -0.0136286
0.10097 0.376571 -0.114481
0.0750421 0.376571 0.132335
0.188704 0.35442 0.221127
0.162405 0.272449 0.000456985
0.182748 0.256676 -0.0349602
-0.151258 0.376571 -0.19643
0.00944609 0.35442 0.103803
0.162405 0.299689 -0.0934965
-0.125873 0.28831 -0.160597
0.182748 0.331238 0.0452828
0.182748 0.218386 -0.111124
0.158487 -0.181565 -0.180592
0.130925 0.35442 -0.215486
-0.111524 0.376571 -0.168368
-0.144034 0.186992 0.17651
-0.162726 0.240934 -0.188286
0.182748 0.322394 -0.0534748
-0.22814 0.3762 0.122177
0.0410438 0.285967 0.182748
0.158413 0.218242 0.188286
-0.183618 0.127638 -0.146361
0.176508 -0.344715 0.188286
0.162142 -0.0466728 -0.153197
0.14727 0.376571 0.213898
-0.108923 0.350138 -0.182748
0.0187491 0.376571 0.114137
-0.20989 0.35442 -0.175598
-0.00380458 0.209755 0.160597
0.0128233 0.376571 0.0683689
0.176381 -0.376571 0.179882
-0.188286 0.306893 -0.155491
0.0136777 0.376571 -0.167776
0.141804 0.356407 0.230281
0.145501 0.149586 0.180609
-0.1821 0.190245 -0.188286
0.154808 0.134888 0.188286
0.188286 0.0118514 0.175076
0.168864 -0.145172 -0.188286
0.150831 0.0136622 0.160342
0.188286 -0.296063 -0.185756
0.207481 0.376571 -0.203551
0.182748 0.240658 -0.128461
-0.160597 0.270721 -0.0692504
-0.188286 0.215159 0.175501
-0.180499 -0.121953 -0.156149
0.195827 0.35442 -0.211648
0.0735084 0.348884 -0.160597
-0.188286 0.329266 -0.161825
0.164896 -0.335341 -0.164517
0.159523 0.35442 0.200335
0.230945 0.373685 0.148916
-0.160597 0.341316 0.0554419
-0.15419 -0.0719865 0.180873
-0.0223539 0.344973 -0.160597
0.226715 0.368353 0.150717
0.182748 0.233663 -0.0272912
0.206309 0.35442 0.0614436
0.0320226 0.376571 0.0931881
-0.160597 0.30602 0.0275415
-0.182504 -0.00820968 0.188286
0.0668084 0.35442 -0.156513
0.148999 0.376571 -0.0808537
0.107586 0.35442 0.0641555
-0.188286 -0.0103376 -0.175513
-0.160597 0.310222 -0.0709634
0.176641 0.111837 -0.188286
-0.106349 0.35442 0.050612
-0.101753 0.252729 0.160597
-0.0241253 0.306931 -0.160597
-0.182748 0.306141 -0.0810075
-0.176207 0.253292 -0.188286
-0.0239612 0.365671 0.226715
0.162405 0.273218 -0.0753232
-0.0709334 0.35442 0.193418
-0.0624958 0.34532 -0.160597
0.202702 0.35442 0.155742
0.160893 -0.162605 -0.188286
0.188286 0.29592 0.158735
0.188286 -0.128076 0.174981
0.17508 -0.0112202 0.188286
-0.0735957 0.376571 -0.172608
0.0245111 0.376571 0.202328
0.167518 -0.300979 0.16317
-0.222382 0.35442 -0.204853
-0.141979 0.35442 0.189425
0.182748 0.309186 -0.129536
-0.114723 0.205462 0.160597
-0.049414 0.35442 0.0770862
-0.144339 0.179218 -0.163102
-0.188286 0.224554 0.166566
-0.182748 0.305506 0.112376
-0.0381687 0.328266 -0.160597
-0.160597 0.204667 -0.126027
0.0097716 0.199361 0.168046
-0.160597 0.279467 0.130894
-0.182741 0.35442 -0.0382844
0.162831 -0.188218 -0.158748
0.162405 0.311819 -0.120683
-0.104518 0.256984 0.160597
0.168492 -0.0554419 0.153541
0.182748 0.327625 -0.0391
0.0464472 0.376571 0.122458
0.188286 0.154911 -0.17051
0.154629 0.0706301 0.188286
-0.211407 0.376571 -0.121836
-0.0182137 0.35442 -0.173002
-0.143983 0.32 -0.164114
0.166219 0.376571 -0.120997
0.0441219 0.376571 -0.222971
0.182748 0.276677 0.087258
-0.136905 0.351711 0.182748
-0.226714 0.372293 -0.0312963
0.170894 0.0173235 -0.188286
-0.0845453 0.294773 0.182748
0.182748 0.268921 0.0528959
0.202334 0.35442 0.0131534
0.188286 -0.0991489 0.181563
-0.165653 0.35442 -0.0665606
0.150886 0.0122659 0.158584
-0.158038 0.0963088 -0.188286
-0.108477 0.35442 0.123713
-0.133373 0.376571 -0.00686311
-0.160597 0.202471 -0.00098861
-0.1279 0.376571 -0.0273467
0.164874 -0.344444 0.177345
-0.187769 0.35442 0.0282083
-0.143004 0.376571 -0.0026668
0.081531 0.259973 0.182748
0.178889 -0.1119 -0.188286
0.188286 0.313816 -0.177934
-0.160597 0.222127 -0.038757
-0.129729 0.376571 0.0867624
-0.0842389 0.35442 -0.0737574
0.169386 0.0467752 0.188286
0.162696 -0.0435971 -0.153076
-0.159143 -0.198295 -0.180345
0.221651 0.376571 0.151542
0.0739476 0.35442 0.19527
0.219234 0.376571 -0.0750674
-0.148689 0.0682781 -0.149235
0.0328274 0.375741 -0.228978
0.127079 0.35442 0.136866
