ply
format ascii 1.0
comment Created by Open3D
element vertex 1612
property double x
property double y
property double z
end_header
-0.00692656 0.00227432 -0.392378
0.0565419 0.0515505 -0.115734
-0.179073 0.0515505 -0.074375
0.279608 0.0628039 -0.1159
0.0153265 0.0515505 -0.349511
0.0013225 -0.0536668 0.366134
0.0835638 0.0515505 -0.0642021
0.0934802 0.0515505 -0.0391014
-0.0978909 0.0515505 0.117519
0.276779 0.0515505 -0.300138
-0.265013 0.0628039 -0.163174
-0.0869107 0.0628039 -0.234254
-0.140764 0.0628039 -0.37621
-0.234875 0.0515505 -0.208444
-0.107932 0.0515505 -0.250562
-0.193708 0.0515505 0.13126
-0.143646 -0.0628039 -0.0059873
0.100402 0.0515505 0.310454
0.106968 0.0628039 -0.166231
-0.236823 0.0515505 -0.0556509
-0.125936 0.0628039 0.111828
0.14487 0.0628039 0.117215
-0.151776 0.0515505 0.339532
0.0696986 0.0628039 -0.112244
-0.236882 0.0628039 0.257361
-0.227167 0.0628039 -0.15913
0.0780452 0.0515505 0.171892
0.168161 0.0515505 -0.211541
-0.192737 0.0628039 0.0364894
-0.179738 0.0628039 0.192006
0.187973 0.0628039 0.280918
-0.0658673 0.0628039 0.029323
0.125812 0.0628039 0.116085
-0.00585297 0.0515505 0.241747
-0.0081574 -0.0604193 0.406592
-0.0400242 0.0628039 0.360119
0.284145 0.0587554 -0.0304544
0.274226 0.0628039 -0.254312
0.0992355 -0.0536668 -0.0061127
-0.231276 0.0628039 0.0208565
-0.262091 0.0515505 -0.27149
-0.114349 0.0628039 -0.347264
0.284145 0.0519185 -0.16708
0.152307 0.0628039 -0.149353
-0.197466 0.0515505 0.351695
-0.190844 0.0628039 0.261612
-0.260825 0.0628039 0.0735987
0.279361 0.0628039 -0.165247
-0.0233742 0.0515505 -0.0301263
0.194979 0.0515505 0.0858173
0.0116727 0.0628039 -0.133513
-0.176184 0.0588065 0.406592
0.106325 0.0515505 -0.191022
-0.0296269 0.0515505 -0.283022
0.177194 0.0515505 -0.118194
-0.200681 0.0628039 0.277151
0.229623 0.0628039 -0.188092
0.273261 0.0628039 -0.0028238
-0.160296 0.0628039 -0.359229
0.172581 0.0515505 -0.365375
-0.238847 0.0628039 0.211698
-0.135271 0.0628039 0.306145
-0.176399 0.0628039 -0.172604
0.0845502 0.0515505 -0.26887
0.0672502 0.0515505 -0.00983904
0.174234 0.0515505 -0.19494
0.198059 0.0628039 0.178912
-0.243288 0.0515505 -0.3993
-0.279482 0.0515505 0.210373
0.203705 0.0628039 0.00403051
-0.0698389 0.0515505 0.231222
-0.0678925 0.0628039 0.0873849
0.0222299 0.0515505 -0.260919
-0.087066 0.0515505 0.0867374
0.0532607 0.0515505 0.159206
-0.0191339 0.0515505 -0.294828
-0.148994 0.0628039 0.00519302
0.0535666 0.0628039 -0.338881
-0.211012 0.0515505 -0.00345585
0.146751 0.0628039 0.147094
-0.00827249 -0.0536668 -0.38872
-0.0922528 0.0628039 0.360126
0.214223 0.0515505 0.0952989
0.274168 0.0628039 0.370856
-0.0135545 -0.0481925 -0.392378
-0.190334 0.0628039 -0.144411
-0.233206 0.0515505 -0.301252
0.222048 0.0515505 -0.161067
0.284145 0.0560477 -0.397219
0.106837 -0.0536668 0.0053451
-0.0924311 0.0628039 -0.206311
0.0142148 -0.0627906 0.0717841
-0.0325996 0.0515505 0.390115
-0.00867102 -0.0536668 -0.000457523
0.0290643 0.0515505 -0.22257
0.207835 0.0515505 -0.405197
-0.0142148 -0.056416 0.240619
-0.0778421 0.0628039 0.136113
-0.109997 0.0628039 0.2815
0.159791 0.0628039 0.308133
-0.23545 0.0628039 -0.189332
-0.232225 0.0515505 0.226714
0.0716206 0.0537921 0.406592
0.0849453 0.0515505 -0.026788
0.176072 0.0628039 -0.357049
0.242054 0.0628039 0.184658
-0.14866 0.0628039 -0.0840731
-0.0463538 0.0515505 0.232145
-0.262628 0.0515505 0.388588
-0.0505531 0.0515505 -0.256067
0.168441 0.0628039 0.119394
-0.0342234 0.0628039 0.0269293
-0.082825 0.0559776 -0.406592
-0.109904 0.0628039 -0.403448
0.0598011 0.0628039 -0.38295
-0.210426 0.0515505 0.380397
-0.00406418 0.0628039 0.117502
-0.276487 0.0515505 -0.2352
-0.248227 0.0628039 0.104178
-0.154398 0.0628039 -0.306317
-0.226966 0.0628039 0.18203
0.20618 0.0515505 -0.336996
-0.177041 0.0515505 0.00932205
-0.104424 0.0515505 0.189872
-0.0728275 0.0515505 0.108504
0.0947891 0.0515505 0.268922
0.014323 0.0628039 -0.259968
-0.258201 0.0515505 -0.0868921
-0.00586238 -0.0536668 0.0452167
0.17869 0.0515505 0.264526
-0.0168257 -0.0626658 0.0142148
0.276865 0.0515505 0.263526
-0.0134239 -0.0536668 0.124422
-0.0101106 -0.0536668 0.145742
-0.177482 0.0515505 0.322506
-0.00929466 0.0515505 -0.0431742
0.187793 0.0628039 -0.346174
-0.269931 -0.00824448 0.0061183
-0.0142148 -0.057415 0.202485
0.103233 0.0515505 -0.0550282
0.210231 0.0628039 -0.121551
0.258306 0.0628039 -0.128347
-0.0156912 0.0515505 -0.126086
-0.257051 0.0515505 -0.237114
0.148671 0.0628039 0.33452
0.22404 0.0628039 -0.314925
-0.180331 0.0515505 -0.19663
-0.157981 0.0628039 -0.170633
0.284145 0.0587289 0.104916
0.0814372 0.0628039 0.236518
-0.0244241 0.0515505 -0.234519
-0.241963 0.0628039 0.327295
0.183371 0.0628039 0.112396
-0.00211656 0.0515505 -0.214405
-0.146118 0.0515505 0.0466028
-0.274659 0.0515505 -0.245026
0.255125 0.0515505 -0.104926
0.0581261 -0.0536668 0.00463575
-0.222057 0.0515505 0.104571
0.00760584 -0.0628039 -0.283664
-0.154591 0.0515505 -0.0184477
-0.0908494 0.0515505 -0.391854
0.0690579 0.0515505 -0.0834316
-0.0936614 0.0515505 0.0290616
-0.187495 -0.0562136 -0.0142148
0.269126 0.0515505 0.131136
-0.246535 0.0628039 0.074168
-0.0664658 0.0515505 -0.220857
0.187115 0.0628039 -0.133577
-0.0132381 0.0628039 -0.135169
-0.13588 0.0515505 0.0592203
0.0878348 0.0515505 0.129018
-0.0270605 0.0515505 0.0906561
0.125699 0.0515505 -0.364442
0.00370715 0.0223587 0.406592
-0.160309 0.0515505 -0.223413
0.00741267 -0.0536668 0.162817
-0.176714 0.0515505 0.0660016
0.0247257 0.0515505 -0.382882
-0.201486 0.0628039 0.0294929
-0.0142148 0.0334064 0.396702
-0.195505 0.0628039 -0.0882676
-0.111514 0.0628039 0.402625
0.0425412 0.0515505 0.210647
0.0194759 0.0515505 -0.0607194
-0.0582448 0.0628039 -0.125871
0.0235571 0.0628039 0.168427
0.088731 0.0628039 0.405701
-0.146175 0.0515505 -0.100904
0.162811 0.0515505 0.331463
0.272914 0.0515505 -0.198965
0.167076 -0.0628039 -0.00403741
-0.0652384 0.0515505 -0.257128
0.00570016 0.0515505 -0.241449
-0.0104357 -0.0536668 -0.239443
0.0629517 0.0628039 0.27808
-0.11742 0.0628039 -0.165144
0.284145 0.0376076 -0.00752262
0.276637 0.0515505 -0.151513
-0.220529 0.0515505 -0.241068
-0.0487167 0.0628039 0.404379
0.237604 0.0515505 0.0143148
0.13067 0.0515505 -0.337178
-0.262746 0.0628039 -4.42564e-05
-0.0727023 0.0628039 0.289277
-0.136277 0.0515505 -0.0267543
-0.209089 0.0628039 -0.272327
0.283106 0.0515505 -0.067322
0.0774917 0.0628039 -0.383661
0.201537 0.0515505 0.320996
0.0429829 0.0515505 0.19995
0.0142148 -0.0579268 -0.0897154
0.153032 -0.0626255 -0.0142148
-0.0458635 0.0628039 -0.25649
0.0904045 0.0515505 0.00700362
-0.0685519 0.0515505 0.0833696
-0.203136 0.0628039 -0.148804
0.0936992 0.0628039 -0.264264
-0.193531 0.0628039 0.0231089
0.116555 0.0515505 0.21787
-0.139602 0.0628039 0.32375
-0.0612756 0.0628039 -0.131735
-0.0575454 0.0515505 -0.160645
0.0704056 0.0628039 -0.0228425
0.0861107 0.0515505 0.0558367
0.0140492 -0.0540616 -0.406592
-0.00649873 0.0628039 -0.320615
0.217956 0.0628039 -0.232897
0.0187956 0.0628039 0.262021
-0.202007 0.0515505 -0.254336
0.0740768 0.0515505 -0.275998
-0.0507375 0.0628039 -0.236265
-0.112054 0.0628039 -0.233494
0.211261 0.0628039 0.192535
-0.0786847 0.0515505 -0.390945
0.174406 0.0628039 0.264788
-0.0434092 0.0515505 0.153319
-0.156795 0.0628039 -0.392401
-0.00497999 -0.0536668 0.151251
0.282937 0.0628039 -0.205188
-0.0979958 -0.0615332 0.0142148
0.265389 0.0628039 -0.384127
-0.0273479 0.0515505 0.239197
0.0885491 0.0515505 -0.267958
0.262799 0.0628039 0.19089
0.24329 0.0628039 -0.305756
-0.132093 0.0628039 -0.398519
-0.237387 0.0515505 -0.202028
0.187616 0.0515505 -0.357334
-0.0647722 0.0628039 -0.298893
0.204546 0.0628039 0.249481
0.12134 0.0515505 0.056327
-0.0463769 0.0515505 0.141584
0.062131 0.0628039 -0.291921
-0.130711 0.0515505 -0.361705
-0.196966 0.0515505 0.374178
-0.0997474 0.0515505 -0.113986
0.169337 0.0515505 -0.0167676
-0.217056 0.0628039 0.13703
-0.0731786 0.0515505 0.266495
-0.118157 0.0515505 -0.303754
-0.266689 0.0515505 0.132446
-0.190185 0.0628039 0.338254
0.0113963 0.0628039 0.0505218
-0.135614 0.0515505 0.190996
0.00767796 -0.0628039 -0.22463
0.080467 0.0628039 -0.260255
-0.183073 0.0515505 0.376375
-0.154169 0.0515505 0.077859
0.141194 0.0628039 0.0628994
-0.106033 0.0515505 0.36166
0.0989608 0.0515505 -0.239123
-0.0539878 0.0515505 0.190588
0.248534 0.0628039 0.206921
-0.0953931 0.0628039 0.406207
-0.147796 0.0628039 0.372462
-0.256032 0.0515505 0.217215
-0.237287 0.0515505 -0.237658
0.107784 0.0628039 -0.221527
0.0163102 0.0515505 0.348126
0.23643 0.0515505 0.0138487
-0.0888779 0.0515505 0.0505577
-0.169021 0.0628039 0.285902
0.0919582 0.0628039 -0.125473
-0.158515 -0.0628039 0.0113381
0.0755761 0.0628039 -0.0241889
-0.255473 0.0628039 0.0308311
0.0728378 0.0515505 -0.201502
-0.193254 0.0628039 -0.134271
-0.0601506 0.0628039 0.0769431
0.154116 0.0515505 0.231117
-0.160111 0.0628039 0.0955258
-0.253362 0.0515505 -0.263342
0.284145 -0.03084 0.00241709
0.139209 0.0515505 0.0153778
-0.242158 0.0515505 0.213365
-0.280394 0.0515505 0.276933
0.0466622 0.0628039 0.318214
0.157706 0.0628039 -0.253054
0.230342 0.0515505 -0.362123
0.263526 0.0628039 0.324529
0.130532 0.0515505 -0.239896
-0.138497 0.0628039 0.154147
-0.13615 0.0515505 -0.383383
0.0869941 0.0628039 0.0620767
0.22554 0.0628039 0.255628
0.115958 0.0515505 0.260128
-0.179786 0.0628039 0.341081
0.27149 0.0628039 0.167864
0.253077 0.0628039 -0.292479
0.211889 0.0628039 -0.141382
0.0693076 0.0628039 -0.249307
-0.134999 0.0515505 -0.169609
0.00789068 -0.0628039 0.0357253
-0.21587 0.0628039 -0.346648
-0.235186 0.0628039 -0.171356
0.149991 0.0628039 -0.330197
-0.0799606 0.0628039 -0.328712
-0.232161 0.0515505 0.256489
0.00776388 0.0515505 0.184331
-0.0142148 -0.0615397 0.384496
0.158586 0.0628039 0.0438214
-0.278231 0.0628039 -0.321385
0.280185 0.0515505 -0.378926
-0.2635 0.0628039 0.0505315
0.249416 0.0515505 0.342758
-0.111637 0.0628039 -0.0885249
0.00298385 -0.0628039 -0.0772003
0.164974 0.0515505 -0.0827717
0.134688 0.0628039 0.343858
0.283109 0.0628039 0.122077
-0.147669 0.0515505 -0.253103
0.130056 0.0515505 -0.396241
0.261516 0.0515505 -0.404388
-0.083643 0.0628039 -0.251265
-0.139845 0.0515505 -0.303531
0.0502618 0.0515505 -0.260915
-0.178481 0.0628039 -0.00476509
0.0111714 -0.0628039 0.0812026
-0.108216 0.0515505 0.402994
0.22579 0.0515505 -0.136985
0.270139 0.0515505 -0.378216
0.0430937 0.0628039 0.254674
-0.0545911 0.0628039 0.372058
-0.176159 0.0628039 -0.202721
-0.00620934 -0.0097383 -0.392378
-0.193313 0.0628039 0.250804
-0.148866 0.0515505 0.322666
0.271171 0.0628039 -0.184016
-0.148148 0.0515505 -0.137034
-0.0379237 0.0628039 -0.153464
-0.0244754 0.0628039 0.129603
-0.249927 0.0628039 0.0331673
-0.0459971 0.0515505 -0.159179
0.280817 0.0628039 -0.251289
-0.284145 0.0557805 0.241219
0.0388912 0.0515505 0.2646
0.205978 0.0628039 -0.240072
-0.0142148 -0.00728142 -0.397502
-0.126481 0.0515505 0.302598
0.00991461 0.0515505 0.0145239
-0.0303465 0.0628039 0.129027
0.211181 0.0515505 -0.0305211
0.0116488 -0.0536668 0.323758
-0.0801906 0.0515505 -0.257664
-0.0391322 0.0515505 -0.384182
-0.188742 0.0515505 -0.169079
0.167575 0.0628039 0.0770531
-0.108779 0.0628039 -0.256869
-0.15684 0.0628039 0.254083
-0.0402477 0.0515505 -0.0154716
-0.140515 0.0515505 -0.0502211
0.0142148 -0.06118 -0.2034
-0.0647173 0.0628039 0.267976
0.174608 0.0628039 -0.00656462
-0.0717528 0.0515505 -0.199886
0.177563 0.0628039 -0.208162
-0.14123 0.0628039 -0.359267
-0.284145 0.058578 0.361321
0.0511563 0.0515505 -0.158017
0.0327317 0.0515505 0.0700541
-0.19915 0.0515505 0.0979778
-0.0164872 0.0515505 0.389779
0.125105 0.0515505 -0.254976
0.0744268 0.0515505 0.0718909
0.197562 0.0515505 -0.102495
-0.0613247 0.0628039 -0.0156755
-0.162861 0.0628039 -0.0871154
-0.0133664 0.0515505 -0.0802212
-0.0545731 0.0515505 0.201859
-0.00566859 -0.0628039 0.257893
0.0999947 0.0628039 -0.208446
0.0867168 0.0515505 0.216856
-0.284145 0.0542697 0.255817
-0.173743 0.0628039 -0.0389547
0.202843 0.0515505 -0.0582414
0.0948958 0.0542399 -0.406592
-0.272501 0.0515505 -0.305058
0.00836891 -0.0628039 0.352292
0.143483 0.0628039 -0.188914
-0.0226058 0.0515505 0.0344665
0.223209 0.0515505 0.128885
0.118546 0.0628039 0.342738
0.0923818 0.0628039 0.0806445
-0.273465 0.0515505 0.368212
0.0394488 0.0628039 -0.254943
0.161921 0.0515505 -0.338485
-0.0425866 0.0628039 0.317911
0.266469 0.0628039 0.0413555
-0.200635 0.0628039 0.374445
0.0199985 0.0628039 -0.400112
0.131266 0.0515505 0.00484423
-0.0296617 0.0628039 0.0703106
-0.151464 0.0515505 0.272576
0.129044 0.0628039 -0.248774
0.0901963 0.0628039 0.173988
-0.17508 0.0628039 -0.104366
-0.0055669 -0.0628039 -0.302002
0.167111 0.0515505 -0.136129
-0.173994 0.0515505 -0.108025
-0.0775966 0.0628039 0.0934092
-0.221651 0.0628039 -0.135141
-0.20717 0.0515505 0.0845247
0.22528 0.0628039 0.142197
0.0223078 0.0515505 -0.234032
-0.190394 0.0515505 0.20164
0.164767 0.0515505 -0.241237
-0.1966 0.0628039 0.237577
-0.271999 -0.0451463 0.0142148
0.211058 0.0628039 0.306357
0.115397 0.0628039 -0.0782687
-0.0273226 0.0515505 -0.191023
-0.284145 0.0614102 -0.192796
0.187853 0.0628039 0.0412119
0.197254 0.0515505 -0.378197
0.233718 0.0628039 -0.0885927
-0.0133657 0.0628039 -0.352407
-0.151261 0.0515505 0.385808
-0.236236 0.0628039 0.291274
-0.23682 0.0628039 0.215261
-0.0957919 0.0515505 0.307049
-0.00376615 -0.0628039 0.302497
-0.143773 0.0515505 -0.124161
0.173838 0.0628039 -0.330934
0.00398548 -0.0628039 -0.289868
-0.147565 0.0515505 -0.150327
-0.206511 0.0515505 0.26313
-0.190064 0.0628039 0.395374
0.216753 0.0515505 0.241309
0.13591 0.0628039 0.303397
-0.0304936 0.0628039 -0.0487602
-0.0210893 0.0515505 0.117038
0.00661992 -0.0536668 -0.118516
-0.000540316 0.0628039 -0.33907
-0.0142148 0.0473586 0.393938
-0.205102 0.0515505 0.122137
0.21528 0.0515505 -0.0692364
0.0491737 0.0628039 -0.181883
-0.214274 0.0515505 -0.120394
-0.0302879 0.0515505 -0.239638
0.199931 0.0628039 -0.232422
0.109818 0.0628039 0.103042
-0.216361 0.0628039 0.17736
0.0056923 0.0515505 0.130011
-0.0230453 0.0515505 0.160686
-0.225397 0.0628039 0.304308
-0.170215 0.0628039 0.15269
0.198392 0.0628039 0.272514
-0.145343 0.0628039 -0.378985
0.0260984 0.0628039 0.315588
0.18622 0.0515505 0.137675
-0.038103 0.0628039 -0.330194
0.178109 0.0515505 0.339563
-0.129697 0.0515505 -0.136206
0.155714 0.0515505 -0.360588
0.0802504 0.0515505 -0.299547
0.0452959 0.0515505 -0.128171
0.0910703 0.0628039 0.0451802
0.0176671 0.0628039 0.267086
0.0335531 0.0515505 0.394216
-0.165616 0.0628039 -0.341789
0.100431 0.0628039 -0.214818
-0.241852 0.0628039 0.167935
0.230536 0.0628039 -0.205092
-0.0599272 0.0515505 0.110105
-0.166819 0.0628039 -0.278193
0.00874756 0.0418521 -0.392378
0.00792057 0.0628039 -0.0452826
0.270147 0.0628039 -0.290608
-0.260833 0.0515505 0.123502
-0.215816 0.0515505 -0.120821
0.093549 0.0628039 -0.276114
0.200568 0.0628039 -0.268171
-0.0638627 0.0515505 -0.0297776
-0.0609614 0.0515505 0.299774
0.135499 0.0628039 0.278497
0.153187 0.0515505 -0.332724
-0.0960326 0.0628039 -0.178382
0.182728 0.0628039 0.192932
0.0865072 0.0628039 -0.172696
-0.246616 0.0515505 -0.024257
-0.110041 0.0628039 0.292894
0.195185 0.0628039 -0.343219
-0.0275817 0.0515505 0.0596152
0.248012 0.0515505 0.189122
0.0124765 0.0515505 0.00481381
-0.0550502 0.0628039 0.310637
-0.0808931 -0.061042 -0.0142148
-0.00729347 -0.0628039 -0.147464
-0.281867 0.0628039 0.17391
0.278351 0.0628039 -0.283945
0.235822 0.0628039 -0.221609
-0.173936 0.0628039 0.319754
-0.0223905 0.0628039 -0.384675
0.104062 0.0515505 0.361529
-0.0596596 0.0515505 -0.0413694
-0.167952 0.0515505 -0.365872
-0.205357 0.0628039 0.0906447
-0.135303 0.0515505 0.380716
-0.173 0.0515505 -0.20096
-0.259986 0.0515505 -0.311168
-0.263867 -0.0536668 0.00135587
-0.17915 0.0628039 -0.119116
0.149854 0.0515505 -0.37689
0.237926 0.0515505 -0.0576414
0.242116 0.0515505 0.374202
-0.108841 0.0628039 0.00510242
-0.264694 0.0515505 0.278363
0.234047 0.0628039 -0.382666
-0.170901 0.0628039 0.25017
0.116702 0.0515505 0.200247
-0.0637522 0.0628039 0.212282
-0.0288334 0.0628039 0.378164
-0.152573 0.0515505 -0.227258
0.016421 0.0628039 -0.197067
-0.111562 0.0515505 -0.242872
0.122659 0.0515505 0.198875
-0.217661 0.0515505 0.302274
-0.0169695 0.0628039 0.397249
0.122624 0.0628039 0.0795505
-0.173925 0.0515505 -0.02877
0.00167551 0.0628039 -0.214973
-0.0254427 0.0515505 -0.254977
0.252087 0.0628039 -0.370081
-0.173149 0.0515505 -0.0227244
-0.0696026 0.0515505 0.132162
0.0558976 0.0515505 0.0694013
-0.270769 0.0515505 0.356944
-0.0383314 0.0515505 0.0277785
0.0126303 0.0216003 -0.392378
0.199302 0.0628039 -0.31176
0.0426442 0.0515505 -0.230649
-0.0305516 -0.0628039 -0.0134625
-0.162672 0.0515505 -0.260638
-0.00767484 -0.0628039 0.0502913
0.0966233 -0.0628039 -0.0026897
-0.181687 0.0628039 0.0334863
-0.202281 0.0515505 -0.219758
0.00503551 -0.0536668 0.350286
-0.168999 0.0515505 0.363011
0.119228 0.0628039 -0.0540359
-0.274544 0.0515505 -0.183202
-0.134812 0.0515505 -0.183802
-0.167256 0.0515505 -0.220326
0.284145 -0.0529837 0.00295987
-0.0707667 0.0515505 -0.125367
-0.141408 0.0515505 -0.192592
0.0172628 0.0628039 -0.117702
-0.0881369 0.0628039 -0.371751
-0.236668 0.0628039 0.156256
-0.144457 0.0628039 0.2716
0.101004 0.0602806 0.406592
-0.203582 0.0628039 0.139221
0.240889 0.0628039 0.257601
0.204739 0.0628039 -0.32425
-0.188683 0.0515505 -0.199263
-0.0514938 0.0628039 -0.0129926
-0.278368 0.0628039 0.105425
-6.28799e-05 -0.0536668 0.366177
-0.276407 0.0515505 -0.199657
0.115623 -0.0628039 0.00475217
-0.0242374 0.0628039 0.221331
-0.0142148 -0.0628011 -0.0698253
-0.252315 0.0628039 0.0311935
-0.277706 0.0628039 -0.222767
-0.0911836 0.0628039 0.344109
-0.284145 0.062347 -0.368827
0.160267 0.0515505 -0.340309
-0.0466604 0.0515505 -0.375204
-0.0141377 0.0197406 0.406592
-0.0284714 0.0515505 0.406118
0.28399 0.0515505 -0.151283
0.0846936 0.0515505 0.0185139
-0.0828238 0.0628039 -0.022179
-0.023873 0.0628039 -0.224594
0.112112 0.0515505 -0.144748
-0.0749241 0.0628039 0.151362
-0.151472 0.0628039 -0.152679
0.185847 0.0515505 -0.3671
-0.149326 0.0515505 0.0115431
-0.00268875 0.0515505 0.30543
-0.00200646 -0.0628039 0.209791
0.272803 0.0628039 -0.0969202
-0.116082 0.0628039 -0.301523
-0.275346 0.0515505 0.356916
-0.0594179 0.0628039 0.328513
0.132054 0.0628039 -0.245291
-0.245085 0.0628039 0.226009
-0.00128707 -0.0628039 0.345334
0.0344618 0.0515505 -0.257795
0.276388 0.0628039 -0.0725618
-0.210308 0.0628039 0.268801
0.239087 0.0515505 0.0508424
-0.279368 0.0628039 -0.0496018
-0.0168045 -0.0543039 -0.0142148
0.082682 0.0628039 0.229995
-0.00616869 -0.0505214 0.392378
0.27292 0.0628039 0.339941
0.175282 0.0515505 0.126946
0.184714 0.0515505 0.121786
0.133875 0.0515505 -0.150141
0.182347 0.0515505 -0.354232
-0.0142148 -0.0612267 -0.294923
0.284145 0.0601165 -0.0720641
0.126529 0.0515505 -0.224549
0.11046 -0.0536668 -0.00495089
0.107066 0.0515505 0.323295
0.0417453 0.0628039 0.0825465
-0.272375 0.0628039 0.350492
0.284145 0.0610617 0.307164
-0.263939 0.0515505 -0.0658858
-0.19257 0.0515505 0.368386
-0.0366339 0.0515505 -0.0336448
-0.0873544 0.0628039 0.162351
-0.110116 0.0628039 -0.241865
-0.0915955 0.0515505 -0.159309
0.0495789 0.0628039 -0.2656
-0.119317 0.0628039 -0.0464258
0.250022 0.0515505 0.3519
-0.160432 0.0628039 0.308176
0.087755 0.0515505 0.130282
-0.0584572 0.0628039 0.319819
-0.0898982 0.0515505 -0.201947
-0.114491 0.0515505 0.184157
-0.0986089 0.0515505 0.0720358
0.204063 -0.0628039 -0.00647472
-0.245137 0.0628039 -0.404696
-0.0102419 -0.0352725 0.406592
0.187926 0.0628039 0.113816
0.244411 0.0628039 -0.195151
-0.11904 0.0515505 -0.356553
-0.269857 0.0515505 0.390576
0.00442055 0.0515505 0.174721
0.255597 0.0628039 0.268244
0.133157 0.0628039 0.401934
0.269931 -0.0409508 0.0097004
0.0790686 0.0628039 0.179638
0.23238 0.0628039 0.372588
-0.086167 0.0515505 -0.187265
0.114118 0.0628039 0.349717
0.191371 0.0628039 -0.147972
-0.16508 0.0628039 0.133126
0.153781 0.0628039 0.394866
-0.0731012 0.0628039 0.307497
-0.00474384 0.0515505 0.251583
-0.0858891 0.0628039 -0.164402
0.205431 0.0515505 -0.307406
-0.0477608 0.0515505 0.305616
-0.238804 0.0515505 0.262121
0.0724629 0.0628039 -0.263736
-0.0125367 0.0515505 0.384302
0.0794979 0.0628039 -0.129458
-0.0923139 0.0515505 0.212342
0.00663994 -0.0628039 0.224904
-0.132343 0.0628039 -0.0761126
0.265709 0.0515505 -0.303068
0.161806 0.0515505 0.160959
-0.217993 0.0515505 -0.33357
0.0109921 0.0515505 -0.0174453
-0.148796 0.0628039 0.0261712
-0.269806 0.0628039 -0.348598
-0.0115027 0.0628039 0.0178054
-0.260261 0.0628039 0.0559061
0.12605 0.0628039 -0.103665
-0.21654 0.0515505 0.363912
0.155822 0.0628039 -0.146725
-0.253693 0.0515505 0.192169
-0.184777 0.0515505 -0.25413
0.15879 0.0628039 -0.291385
-0.0508878 0.0628039 -0.225391
0.233326 0.0515505 0.0538981
-0.197221 0.0515505 -0.265741
0.0424479 0.0515505 -0.0721999
0.00538703 0.0515505 0.395241
-0.27297 0.0515505 -0.320957
0.0394663 0.0628039 0.0846242
0.0814901 0.0515505 0.0568833
-0.271549 0.032974 0.0142148
0.019912 0.0628039 0.342321
-0.225841 0.0515505 -0.171203
-0.175793 0.0628039 -0.063793
-0.0118264 0.013146 -0.406592
-0.167853 0.0515505 -0.20952
0.0205644 0.0515505 -0.00417516
-0.0458022 0.0609786 0.406592
-0.180324 0.0628039 0.112119
0.15033 0.0628039 0.244021
-0.0684474 0.0515505 -0.161626
0.147583 0.0529311 0.406592
0.129214 0.0515505 -0.242552
-0.129488 0.0515505 0.0391285
-0.13721 0.0628039 -0.347332
-0.263886 0.0628039 0.0139742
0.00624193 0.0628039 0.23235
-0.275624 0.0515505 -0.292882
0.00333177 0.0628039 0.188122
0.000916232 -0.0628039 -0.349116
0.217753 0.0628039 0.208781
0.282366 0.0515505 -0.108217
0.0842713 0.0628039 -0.0644816
0.145576 0.0517311 0.406592
0.186984 0.0515505 0.398305
0.0152089 0.0515505 0.357981
-0.066159 0.0515505 0.1077
-0.0856237 0.0628039 -0.05887
0.0605546 0.0628039 -0.347518
0.0263392 0.0599337 0.406592
0.106644 0.0628039 -0.216458
-0.220328 0.0628039 0.165404
0.120649 0.0515505 0.267302
0.0930312 0.0628039 0.138601
-0.0074356 0.0628039 0.244865
0.235453 0.0515505 0.0961036
-0.0313932 0.0628039 0.195404
-0.0134104 0.0628039 0.278289
-0.121706 0.0515505 0.0944175
-0.0141984 0.0515505 -0.0577122
0.139214 0.0515505 -0.198388
-0.123263 0.0628039 0.158431
0.21436 0.0515505 0.0366095
-0.0272336 0.0515505 -0.367557
0.163732 0.0515505 0.293888
0.246104 0.0515505 -0.0374801
0.278246 0.0628039 -0.0982175
0.0999498 0.0628039 -0.241269
-0.174417 0.0515505 0.357628
-0.193349 0.0628039 0.145932
0.151058 0.0515505 -0.241683
0.0142148 -0.0237203 0.403074
0.0142148 -0.0585528 -0.0179703
-0.142663 -0.0628039 -0.00375411
-0.0506895 0.0515505 0.0938503
0.146298 0.0628039 -0.263147
0.216238 0.0628039 -0.396882
-0.0275149 0.0628039 -0.145765
-0.0890143 0.0515505 -0.342024
-0.185446 0.0515505 -0.0796602
-0.0238397 0.0628039 0.115954
0.141594 0.0628039 0.195265
-0.243153 0.0628039 -0.191648
-0.161216 0.0628039 0.335148
-0.27196 0.0515505 0.0885814
-0.0869004 0.0515505 -0.147755
-0.167899 0.0628039 -0.0988602
0.0833863 0.0515505 0.385927
-0.279471 0.0628039 0.256574
-0.0550931 -0.0562346 -0.0142148
-0.0462382 0.0515505 -0.0840345
0.168026 0.0515505 0.202227
0.0165218 0.0515505 -0.0930502
-0.230153 0.0628039 -0.140137
0.22766 0.0515505 0.00765646
0.15755 0.0628039 0.310689
-0.113237 0.0628039 0.319746
0.0944859 0.0515505 -0.00861731
-0.131896 0.0515505 0.344407
0.100835 0.0515505 0.036535
-0.0679293 0.0515505 -0.14546
0.282709 0.0628039 0.220615
-0.0698292 0.0628039 -0.22406
-0.165412 0.0628039 -0.135935
-0.0141443 -0.0536668 -0.0023774
-0.0750817 0.0628039 0.309103
-0.227881 0.0515505 0.150314
-0.0843804 0.0628039 -0.152532
-0.236402 0.0628039 -0.254853
-0.093573 0.0515505 -0.381474
-0.129461 0.0515505 0.160807
-0.143925 0.0515505 -0.335745
-0.278135 0.0515505 -0.219037
0.14448 0.0628039 0.36311
0.203154 0.0515505 0.0106571
-0.121745 0.0628039 -0.344537
0.00580907 0.0515505 0.242711
-0.118621 0.0515505 -0.0119012
-0.208297 0.0628039 -0.00504234
-0.0596355 0.0515505 0.26247
0.196474 -0.0591011 -0.0142148
-0.242773 0.0515505 -0.0240675
0.0395223 0.0628039 0.190025
-0.240179 0.0628039 0.101205
-0.124514 0.0628039 0.23054
0.0537109 0.0628039 -0.0429105
-0.247678 0.0628039 -0.00572146
-0.090189 0.0515505 -0.187791
0.260026 0.0628039 -0.405995
-0.00860341 -0.0628039 0.39756
-0.188706 0.0628039 -0.391028
-0.0836293 0.0628039 0.373561
-0.128335 0.0628039 0.00759648
0.248978 -0.0536668 -0.0129116
0.221932 0.0515505 0.242033
-0.2728 0.0515505 0.0866149
-0.112959 0.0628039 0.347666
0.177646 0.0628039 0.153983
-0.246914 0.0628039 -0.159049
-0.227466 0.0628039 -0.0955146
-0.228069 -0.0628039 0.00034393
0.237071 0.0628039 -0.0617626
-0.159604 0.0628039 -0.0877087
-0.00674355 -0.0536668 0.223451
0.0125706 -0.0536668 -0.124115
0.0803981 0.0628039 -0.0252197
0.164452 0.0628039 0.00546751
-0.146085 0.0628039 0.227781
0.162598 0.0515505 -0.148566
-0.284145 0.0547652 0.173977
0.230877 0.0515505 -0.142887
0.195497 0.0515505 0.261427
0.112438 0.0628039 0.124069
-0.199591 0.0515505 -0.059561
0.0867186 0.0515505 -0.395755
-0.124663 0.0628039 0.327812
-0.0142148 -0.0562875 -0.181732
0.0761536 0.0628039 -0.192789
0.267036 0.0515505 -0.112372
-0.110135 0.0628039 -0.380644
0.102982 0.0515505 0.348055
0.159384 0.0515505 -0.107429
0.0709341 0.0515505 -0.108113
-0.106523 0.0628039 0.0451068
0.202155 0.0628039 -0.17815
0.0493537 0.0628039 -0.101009
-0.0142148 -0.0626946 0.325683
0.0526029 0.0515505 -0.157113
0.00275621 -0.0628039 -0.277626
-0.280614 0.0515505 -0.226442
0.00674916 -0.0628039 0.25432
-0.0302288 0.0628039 0.129466
0.0074113 -0.0628039 -0.188049
-0.0130922 0.0628039 -0.247161
0.118852 0.0628039 -0.0261545
0.210204 0.0515505 0.0952602
-0.164675 0.0628039 0.176198
-0.0573456 0.0628039 -0.0641727
0.164879 0.0628039 -0.163365
-0.283091 0.0515505 0.00134909
0.0134489 0.0515505 -0.118085
0.0433744 0.0515505 0.376128
-0.220509 -0.0536668 0.0130228
-0.0205498 0.0515505 0.259741
0.00017091 0.0515505 -0.203993
0.257115 0.0515505 -0.177756
-0.0235276 0.0628039 -0.36735
0.0801155 0.0628039 0.296969
0.024897 0.0515505 0.146844
-0.0105764 0.0427962 0.392378
-0.131907 0.0515505 0.214159
-0.133442 0.0515505 -0.251137
-0.178113 0.0515505 -0.0861019
-0.200797 0.0628039 -0.268362
0.108264 0.0515505 -0.374877
-0.0459911 0.0515505 -0.370409
0.0211573 0.0628039 -0.146326
-0.177955 0.0628039 0.378206
-0.284145 -0.032309 0.00769568
0.13103 0.0515505 0.2318
0.164721 0.0515505 0.310714
0.127561 0.0515505 0.126465
-0.0373768 0.0628039 -0.345794
0.117693 0.0628039 -0.235944
0.194647 0.0515505 0.16846
0.284145 -0.0454351 0.0121845
-0.133184 -0.0628039 -0.0107414
-0.0468499 0.0515505 0.235888
0.143306 0.0515505 -0.0948557
0.205481 -0.0536668 0.0104637
-0.233585 0.0515505 0.00628936
0.244067 0.0515505 -0.281598
0.238454 0.0515505 0.0342139
0.0867487 0.0628039 0.276441
-0.108338 0.0628039 -0.202295
0.0340474 0.0515505 0.275481
0.247251 0.0515505 0.337992
0.0418673 0.0515505 -0.338338
-0.251953 0.0628039 -0.291488
-0.284145 0.056347 0.08964
-0.120039 0.0628039 -0.160985
-0.107049 0.0628039 0.314852
0.106227 0.0628039 0.297574
-0.209444 0.0628039 -0.093084
0.012091 -0.00837965 -0.392378
-0.042312 0.0515505 -0.406269
0.0856009 0.0515505 -0.0856002
0.00979655 -0.0628039 0.0347863
-0.1279 0.0628039 0.277959
0.243044 0.0628039 0.000806451
-0.24865 0.0628039 -0.110047
-0.0259248 0.0515505 -0.379335
-0.121129 0.0628039 0.329015
-0.118698 0.0515505 0.322229
0.138815 0.0628039 0.26251
0.232928 0.0628039 0.239453
-0.18086 0.0628039 -0.26342
-0.194321 0.0628039 -0.267644
0.203494 0.0628039 -0.126752
0.055124 0.0515505 0.395364
0.0753788 0.0628039 -0.347299
-0.145049 0.0515505 -0.377499
-0.264743 0.0515505 -0.100013
0.152177 0.0628039 -0.0272133
-0.00428934 0.0515505 0.248827
0.183877 0.0515505 -0.395499
-0.167177 0.0515505 0.173701
-0.13114 0.0628039 -0.380489
0.0129932 0.0628039 -0.0594027
-0.109666 0.0515505 0.316661
-0.177441 0.0515505 -0.281399
0.245113 0.0628039 -0.228645
-0.0419081 0.0628039 0.0806103
0.155088 0.0628039 0.209014
0.0603414 0.0628039 -0.163897
0.0252645 0.0515505 0.38637
-0.0829474 0.0515505 -0.377385
-0.0396464 0.0515505 -0.257368
-0.103738 0.0515505 -0.0786256
-0.107538 0.0515505 -0.320045
-0.195578 0.0628039 -0.0161493
-0.147926 0.0628039 -0.204183
-0.146975 0.0515505 0.241292
0.284145 0.0566606 0.0868569
-0.231146 0.0628039 -0.298537
-0.109042 0.0628039 -0.164129
-0.255695 0.0515505 -0.128471
-0.164036 0.0515505 -0.0254701
0.029836 0.0628039 0.37908
0.168886 0.0628039 -0.148194
0.267745 0.0515505 0.371384
-0.0296972 0.0515505 -0.314628
0.254398 0.0515505 0.280323
-0.272244 0.0181198 0.0142148
0.19573 0.0628039 -0.361897
0.0259112 0.0515505 -0.0668493
0.213794 0.0515505 -0.00138129
0.0769067 0.0628039 -0.231168
0.238145 0.0628039 -0.13655
0.126044 -0.0536668 0.00581656
-0.269931 -0.0052379 0.00339122
-0.251612 0.0515505 0.248844
-0.280156 0.0628039 -0.0116726
0.164987 0.0515505 -0.256604
-0.16049 0.0515505 0.251174
0.228071 0.0628039 0.224989
-0.280461 0.0515505 0.349018
-0.232859 0.0628039 0.296922
0.0313128 0.0628039 0.066186
0.181536 0.0628039 -0.265482
-0.282619 0.0515505 -0.0732957
-0.0245396 0.0628039 -0.162215
0.000295701 0.0183888 0.406592
-0.183352 0.0515505 0.352162
0.185368 0.0628039 -0.159512
-0.153863 -0.0536668 -0.00524998
-0.176678 0.0515505 -0.29016
-0.215554 0.054833 0.406592
0.274811 0.0331957 0.0142148
0.0253998 0.0515505 -0.207054
-0.164992 0.0515505 0.404386
-0.274129 0.0515505 0.219582
-0.0407177 0.0515505 -0.0118583
-0.247855 0.0515505 0.258401
-0.0535217 -0.0536668 0.00289355
-0.154479 0.0628039 0.233549
-0.271136 0.0515505 0.0773872
0.0664276 0.0515505 0.185297
-0.247427 0.0628039 0.185573
0.199499 0.0628039 -0.296795
-0.0414814 0.0628039 -0.169418
-0.114898 0.0515505 0.140257
-0.191295 0.0628039 0.296225
-0.261742 0.0628039 -0.196889
0.274585 0.0515505 -0.225027
0.230406 0.0515505 -0.138603
0.278713 0.0628039 0.270391
0.180976 0.0515505 -0.22484
-0.261421 0.0628039 0.175755
0.159944 0.0628039 -0.110741
0.028511 0.0515505 -0.360053
-0.0444071 0.0515505 0.349462
-0.0837445 0.0515505 0.32218
-0.0142148 -0.0433322 -0.401183
-0.115643 0.0628039 0.0954646
-0.155394 0.0628039 -0.0724826
0.00462176 -0.0628039 -0.306168
-0.284145 0.0616257 -0.315082
0.132019 0.0628039 0.347596
0.0782114 0.0628039 -0.247609
0.230204 0.0515505 0.284139
0.181061 0.0628039 0.0302225
-0.0204065 0.0628039 0.311151
-0.222677 0.0515505 -0.142275
0.083255 0.0628039 0.270014
-0.230551 0.0628039 0.190549
0.115712 0.0515505 -0.32061
-0.106712 0.0515505 -0.32949
0.113091 0.0628039 -0.388672
0.235788 0.0515505 0.229873
-0.276986 0.0628039 0.048334
0.00361465 -0.0536668 0.0989694
-0.236623 0.0515505 -0.0149226
-0.00277529 0.0515505 -0.311622
-0.0602258 0.0628039 0.163193
0.0134236 -0.0536668 -0.36581
0.158409 0.0515505 0.0567261
0.155156 0.0515505 -0.244758
-0.0739279 0.0628039 0.0817116
0.253537 0.0515505 0.216708
0.238115 0.0515505 -0.316453
0.0534268 0.0515505 -0.353445
-0.168195 0.0628039 0.144693
-0.0226756 0.0628039 -0.226864
-0.00994966 -0.0536668 -0.181962
0.0870082 0.0515505 0.100571
0.0945371 0.0515505 0.0768874
0.0142148 -0.0446738 -0.40107
-0.239597 0.0628039 -0.078283
-0.135355 0.0628039 -0.359905
0.174293 0.0515505 0.0847575
-0.0451069 0.0515505 -0.180882
-0.0320169 0.0628039 -0.0646447
-0.0142148 -4.17642e-05 -0.40251
-0.137583 0.0628039 -0.2999
-0.19659 -0.0536668 -0.00302837
0.0609344 0.0628039 0.183803
-0.0514111 0.0515505 -0.368026
0.108044 -0.0584204 0.0142148
-0.209928 0.0628039 -0.292534
0.223612 0.0515505 0.213916
0.214561 0.0628039 -0.206496
-0.0979021 0.0628039 -0.142036
0.153005 0.0628039 -0.153024
-0.144084 0.0515505 0.357555
-0.206732 0.0515505 -0.384829
-0.0299066 0.0628039 0.0758798
0.170431 0.0515505 -0.162367
0.135493 0.0628039 -0.0879132
-0.0811991 0.0515505 0.0936432
-0.0852719 0.0628039 -0.10312
0.284145 0.0598896 0.267817
0.208116 0.0628039 -0.201637
-0.0609978 0.0628039 -0.334851
-0.255357 0.0628039 0.148231
-0.213087 0.0628039 -0.117962
0.0149548 0.0515505 0.125733
-0.26116 0.0515505 0.328314
-0.11268 0.0628039 -0.364742
-0.100682 0.0628039 0.162033
-0.0983781 0.0628039 0.295813
0.0818194 0.0515505 0.190512
0.132975 0.0628039 -0.0471394
-0.0459736 0.0515505 0.000991517
0.195289 0.0515505 0.317143
0.0135723 0.0628039 0.104627
0.0856608 0.0628039 -0.362318
0.0992256 0.0628039 0.197069
0.0833881 0.0628039 -0.345192
0.166206 0.0515505 0.0572518
-0.00629143 0.0628039 0.170498
-0.284145 0.0627662 0.382326
-0.194523 0.0515505 0.20465
-0.273704 -0.0628039 0.00925426
0.0439962 0.0628039 -0.180405
-0.180334 0.0628039 -0.225879
0.167176 -0.054754 -0.0142148
0.267068 0.0515505 -0.179023
-0.126572 0.0515505 0.0893527
0.0102668 -0.0536668 -0.262237
-0.116661 0.0515505 -0.0876773
-0.215131 0.0515505 0.160311
0.0142148 -0.0334503 0.394795
0.241867 0.0515505 -0.351152
-0.121768 0.0515505 0.0701176
0.15462 0.0515505 0.206187
0.100883 0.0628039 0.143216
-0.122101 0.0628039 0.245857
0.146933 0.0515505 0.196597
0.258114 0.0628039 0.219642
0.276161 0.0515505 -0.0191007
0.160074 0.0515505 0.370356
0.233712 0.0628039 -0.0950851
0.244558 0.0628039 0.209542
0.218309 0.0628039 -0.199426
-0.0719404 0.0515505 0.0592105
-0.240571 0.0628039 -0.0542936
-0.171485 0.0515505 -0.315397
-0.145054 0.0628039 -0.385345
0.00904521 -0.0628039 -0.240788
0.284145 -0.0596334 0.01263
0.0819931 -0.0536668 -0.00329767
0.153523 0.0515505 -0.0484462
0.00281121 0.0359931 0.406592
-0.0344125 0.0628039 -0.18388
-0.129727 0.0515505 -0.156668
-0.281458 0.0628039 -0.186297
0.182082 0.0628039 0.0458344
-0.159233 0.0628039 -0.242273
0.232349 0.0628039 -0.307934
0.249777 0.0515505 0.117505
-0.155036 0.0515505 0.0949832
-0.109518 0.0628039 0.190549
-0.253909 0.0515505 0.201542
0.168274 0.0628039 0.0621541
0.225579 0.0515505 -0.315131
-0.058729 0.0628039 0.0064351
-0.0417487 0.0628039 0.187191
0.284145 -0.00843438 -0.00497938
-0.199756 0.0515505 -0.0648742
-0.0762394 0.0628039 0.114815
0.246759 0.0628039 0.269322
0.251669 0.0628039 0.30341
0.0240126 0.0515505 -0.264327
-0.171639 0.0515505 0.34588
-0.0550276 0.0515505 0.17496
0.230107 0.0515505 -0.165429
-0.0227176 0.0628039 0.359171
0.0956819 0.0628039 -0.0338121
0.126515 0.0515505 -0.173726
0.0136207 -0.0628039 -0.191093
0.00662554 0.0516241 0.406592
0.00484385 0.0515505 -0.0464459
-0.147882 0.0515505 -0.279726
0.0142148 -0.0537524 0.14033
-0.127888 0.0515505 0.388472
-0.0449307 0.0628039 -0.217396
-0.0996188 0.0628039 0.127293
-0.240021 0.0515505 0.344822
-0.0515948 0.0628039 0.0908166
-0.152407 0.0628039 0.0470566
0.215813 0.0628039 -0.364932
0.186616 0.0628039 -0.169192
0.13406 0.0515505 -0.374897
0.180392 0.0515505 0.206646
0.170149 0.0515505 0.226898
0.14829 0.0628039 0.188398
-0.0142148 -0.0548724 0.398902
-0.00572803 -0.0628039 -0.301952
-0.172577 0.0628039 0.11062
0.254394 0.0515505 -0.140382
0.184947 0.0628039 0.303432
0.122944 0.0515505 -0.224661
-0.186067 0.0628039 0.0985096
0.221358 0.0515505 0.320238
0.232836 0.059928 0.406592
0.0046528 -0.0121879 -0.406592
-0.269931 -0.0512531 -0.0125499
-0.107534 0.0515505 -0.104561
-0.152334 0.0515505 0.188645
-0.243995 0.0515505 -0.290441
0.220333 0.0628039 -0.286364
-0.0735474 0.0628039 0.308683
0.208905 0.0515505 -0.0514088
-0.147292 0.0628039 -0.194402
-0.236262 0.0628039 0.136548
0.0756312 0.0515505 -0.318998
-0.00589644 0.0515505 0.207678
-0.112577 0.0515505 -0.127651
-0.13334 0.0628039 -0.0572595
-0.18288 0.0515505 0.355501
0.107608 0.0515505 -0.111265
0.0039098 0.0515505 -0.0396596
-0.255511 0.0628039 0.164822
-0.0142148 -0.0591623 -0.0405384
-0.0358114 0.0628039 -0.176396
0.042444 0.0515505 -0.0623295
0.0758894 0.0515505 0.143236
0.119036 0.0628039 -0.1736
0.261458 0.0515505 -0.0997117
-0.284145 0.0563734 -0.153952
0.152224 0.0515505 -0.302183
-0.0444805 0.0628039 -0.31743
-0.11427 0.0515505 -0.204045
0.056429 -0.0628039 -0.0112587
-0.281599 0.0515505 0.0614735
-0.057675 0.0628039 -0.248172
-0.0320636 -0.0628039 0.00394693
0.222625 0.0628039 0.349852
-0.284145 0.0213924 -0.0141931
-0.256756 0.0628039 -0.184713
-0.151613 0.0628039 -0.0119368
-0.00421271 0.0628039 0.175792
0.0793977 0.0628039 -0.0317992
-0.155164 0.0515505 -0.124943
-0.201182 0.0628039 -0.175284
0.214688 0.0628039 -0.315262
-0.18598 0.0515505 0.163349
0.145408 0.0515505 0.0317568
0.0142148 -0.0372162 0.400638
-0.00382851 -0.0536668 0.370425
0.0548851 0.0515505 0.253165
-0.000865735 -0.0443042 -0.392378
0.220514 0.0628039 0.222055
0.123492 0.0515505 0.31993
-0.107052 0.0628039 -0.399273
-0.163832 0.0515505 0.387514
0.284145 -0.00257067 -0.00375432
0.00649174 -0.0628039 0.010057
0.00595585 -0.0628039 0.184418
0.242211 0.0515505 0.0260482
-0.255087 0.0515505 -0.200894
0.0716432 0.0515505 0.232248
-0.130494 0.0628039 -0.292351
0.204693 0.0628039 -0.251946
-0.0628711 0.0515505 0.172192
-0.165934 0.0515505 0.196718
-0.14631 0.0515505 -0.114641
-0.229915 0.0628039 0.323205
-0.117473 0.0515505 -0.0320251
0.00439785 0.0515505 -0.310539
-0.176013 0.0515505 -0.187448
0.121688 0.0515505 0.0776428
0.0142148 -0.0541765 0.142598
0.260135 0.0515505 -0.00298397
-0.284145 -0.0435238 -0.00174985
-0.0729526 0.0628039 -0.00879286
0.0794848 0.0515505 0.341212
0.189002 0.0515505 -0.269358
0.17878 0.0515505 -0.180228
0.284145 0.0196984 0.0121647
-0.122693 0.0628039 -0.336114
0.0486655 0.0628039 0.254875
0.115593 0.0628039 0.253266
-0.0952237 0.0628039 -0.185717
0.251807 0.0515505 -0.0216305
0.129128 0.0515505 0.233092
0.0463147 0.0628039 0.038667
-0.161066 0.0628039 0.355415
-0.124412 0.0515505 -0.103909
0.134507 0.0515505 0.0555741
0.0854808 0.0628039 0.182928
-0.178449 0.0515505 0.0487447
0.155172 0.0515505 -0.0833998
-0.0163637 0.0628039 -0.353153
-0.158015 0.0515505 -0.293634
-0.21754 0.0515505 -0.211132
-0.218671 0.0628039 -0.21726
-0.220665 0.0628039 0.137651
0.224945 0.0515505 -0.0797309
0.242513 0.0628039 0.246098
-0.183972 0.0628039 0.224441
0.0776824 0.0628039 -0.101612
-0.0769712 0.0515505 -0.18235
0.208348 0.0515505 -0.0539133
0.19549 0.0515505 -0.378268
-0.234012 0.0515505 0.204523
-0.148631 0.0515505 -0.0662117
0.14809 0.0515505 0.161396
0.0365265 0.0628039 -0.213833
-0.000393571 -0.0628039 -0.060744
-0.235367 0.0515505 0.363125
0.0109001 0.0628039 -0.202078
0.0710534 0.0628039 0.0775987
0.0903253 0.0515505 0.208975
0.224774 0.0515505 0.397939
-0.0273032 0.0515505 0.386649
0.252951 0.0515505 -0.293821
0.0144741 0.0515505 -0.402192
0.0863565 0.0515505 -0.113118
-0.274275 0.0515505 -0.160879
-0.189589 0.0628039 0.00684592
-0.197389 0.0515505 -0.352147
-0.00537733 0.0515505 0.158678
0.28222 -0.00326415 -0.0142148
-0.21955 0.0515505 -0.381209
0.227016 0.0515505 0.227448
-0.00812442 0.0515505 0.23377
-0.206535 0.0515505 0.186836
-0.237681 0.0515505 0.253035
0.239582 0.0515505 0.0767728
0.110483 0.0515505 0.1512
0.211065 0.0628039 -0.095366
-0.172011 0.0515505 0.340695
-0.234768 0.0515505 0.239769
0.118469 0.0628039 -0.0838695
-0.112452 0.0515505 0.243392
0.0774018 0.0515505 -0.0916042
0.261745 0.0515505 0.231318
-0.0452244 0.0628039 0.305563
-0.0857698 0.0515505 0.319329
0.281641 0.0628039 0.0913813
-0.000902366 0.0628039 -0.24486
0.0104925 -0.0536668 -0.128038
-0.0524975 0.0628039 -0.0631087
-0.000531187 -0.0628039 0.398743
-0.152127 0.0515505 -0.157155
0.191389 0.0515505 -0.274933
0.167384 0.0628039 0.0640058
-0.239968 0.0515505 -0.0622993
-0.144218 0.0628039 0.209739
-0.146731 0.0515505 -0.387607
-0.0708865 0.0515505 -0.303931
-0.163616 0.0515505 0.0508318
-0.131428 0.0515505 -0.106334
0.0954864 0.0628039 -0.400323
0.0376152 0.0515505 -0.179592
0.00211882 -0.0628039 -0.0104154
-0.00526832 0.0628039 -0.271916
0.0264891 0.0628039 0.103303
-0.121365 0.0515505 -0.21744
-0.0891679 0.0628039 -0.325739
-0.225225 0.0515505 -0.00357967
0.269931 -0.0103752 0.00690434
-0.182635 0.0515505 0.155582
-0.226347 0.0515505 0.335765
0.0100509 -0.0628039 -0.0124493
0.240662 0.0515505 0.0579296
0.161209 0.0628039 -0.164917
-0.242708 0.0515505 -0.11667
0.0998504 0.0515505 0.124739
0.118299 0.0515505 0.216812
0.235571 0.0628039 -0.0117725
0.0655905 0.0515505 -0.206051
0.218778 0.0515505 -0.186933
-0.247137 0.0628039 0.0221943
-0.0372656 0.0515505 -0.342162
-0.00715982 -0.0536668 0.0484066
-0.140915 0.0515505 0.016805
-0.0443936 0.0515505 0.309069
0.0476303 0.0515505 0.0589682
-0.221291 0.0515505 -0.158164
-0.0858494 -0.0598858 0.0142148
0.220385 0.0515505 0.338107
-0.117243 0.0515505 -0.404163
0.0200182 0.0628039 0.0237145
0.126139 0.0515505 -0.254811
-0.0298175 0.0515505 0.316335
0.221909 0.0515505 -0.118129
0.0521562 0.0515505 -0.152937
0.166851 0.0628039 -0.131371
0.119718 0.0515505 0.385691
-0.189675 0.0515505 -0.0622089
-0.220694 0.0628039 -0.348653
0.269132 0.0515505 -0.235828
-0.180609 0.0628039 0.0137032
-0.0753939 0.0628039 0.136248
0.0444733 0.0628039 -0.246499
-0.177739 0.0628039 0.382708
0.00276857 -0.00786977 0.392378
-0.24524 0.0515505 0.2662
-0.201245 0.0515505 -0.153447
0.15113 0.0515505 0.0542128
-0.117728 0.0628039 0.1773
-0.26258 0.0628039 0.380505
0.185022 0.0628039 -0.109651
-0.0266574 0.0515505 0.297106
-0.0976334 0.0628039 0.191203
0.138842 0.0628039 -0.0941021
0.109399 0.0628039 0.162353
0.129168 0.0628039 -0.390158
-0.0829798 0.0515505 -0.402433
0.15795 0.0628039 -0.00792976
0.0382358 0.0628039 0.0634817
-0.0332465 0.0628039 0.39793
-0.0535987 0.0628039 0.168723
-0.000173077 -0.0628039 -0.343677
0.170261 0.0628039 -0.337576
0.0566939 0.0628039 0.291765
0.0104888 0.0628039 0.105265
-0.133455 0.0628039 -0.312276
-0.124635 0.0628039 0.33379
-0.284145 0.0532971 -0.161612
0.252291 0.0628039 -0.354515
0.141816 0.0628039 0.166189
0.0604316 0.0628039 -0.30648
0.0553812 0.0515505 -0.0877033
-0.0729215 0.0628039 0.222856
0.254712 0.0515505 -0.246497
-0.0105949 0.0628039 0.325141
-0.163765 0.0515505 -0.171693
-0.25909 0.0628039 -0.39241
-0.0730446 0.0628039 0.400275
-0.0648189 0.0515505 -0.192756
-0.202623 0.0515505 -0.274278
-0.235678 0.0628039 0.0932392
-0.156222 0.0515505 -0.189156
-0.161313 0.0628039 -0.167543
0.162769 0.0628039 0.197385
-0.276145 0.0628039 0.1524
-0.217011 0.0628039 0.31158
0.284145 0.0570494 0.144281
0.0142148 -0.0588747 0.307654
-0.152016 0.0628039 -0.305772
0.0601507 0.0628039 -0.380898
-0.188754 0.0628039 -0.192639
-0.139492 0.0628039 -0.225396
0.165024 0.0628039 0.350298
-0.134584 0.0515505 -0.0963088
-0.13897 0.0628039 0.0687264
0.181931 0.0628039 -0.103556
0.0989625 0.0628039 -0.0740388
0.150603 0.0628039 -0.0761524
-0.141768 0.0515505 -0.135713
0.0488737 0.0628039 -0.124526
-0.0278599 0.0628039 0.323509
0.252051 0.0628039 -0.400194
-0.210626 0.0515505 0.0631339
0.104292 -0.0601213 -0.0142148
-0.028206 0.0515505 -0.225905
0.232635 0.0628039 -0.252262
0.0458245 0.0628039 0.078232
-0.195466 0.0628039 0.307924
-0.0790206 0.0515505 0.0978619
-0.117412 0.0515505 0.0242942
0.0213576 0.0628039 -0.107753
-0.174555 0.0515505 0.0999488
-0.183379 0.0515505 -0.0670075
-0.201104 0.0515505 0.0386748
-0.269373 0.0628039 -0.0549435
-0.262581 0.0628039 -0.391824
0.176062 0.0515505 0.265186
-0.060376 0.0515505 0.129089
-0.156288 0.0515505 0.12541
0.0905456 0.0515505 0.364186
-0.204415 0.0628039 -0.124238
0.145727 0.0628039 0.0409381
0.0321036 0.0515505 0.0688749
0.281059 0.0515505 -0.0655309
0.269429 0.0628039 -0.0922656
0.227484 0.0628039 0.307491
0.0292738 0.0628039 -0.244917
-0.00239721 -0.0206589 -0.406592
0.0850161 0.0515505 0.204245
0.203568 0.0515505 -0.175601
0.0221859 0.0628039 0.284747
0.014146 -0.0628039 -0.26771
0.0226925 0.0628039 -0.276122
0.109848 0.0628039 0.165251
-0.0275657 0.0515505 -0.207062
-0.010356 0.0337922 -0.392378
-0.00416431 -0.0628039 -0.0917792
0.0261445 0.0628039 -0.286489
0.188019 0.0515505 0.346228
-0.127455 0.0628039 0.152213
0.0960295 0.0515505 -0.287343
-0.217876 0.0515505 0.379693
-0.103833 0.0515505 0.303911
0.067714 0.0628039 -0.405122
0.252914 0.0628039 0.079728
-0.225248 0.0628039 0.011199
-0.0142148 0.0276377 0.396456
-0.114384 0.0515505 -0.302024
-0.175851 0.0515505 -0.28287
0.259238 0.0515505 0.0781984
0.0641099 0.0515505 0.0715731
-0.15489 0.0628039 0.0391252
-0.149287 0.0515505 0.335321
-0.0697118 0.0628039 -0.244051
-0.0417395 0.0628039 -0.376571
-0.230262 -0.0628039 0.00276893
-0.248762 0.0515505 0.0387849
-0.208085 0.0628039 -0.186769
-0.235513 0.0515505 -0.406565
0.00742157 -0.050713 -0.406592
0.233215 0.0515505 0.36836
0.177061 0.0628039 0.214227
0.0109953 0.0628039 0.150418
-0.275437 0.0515505 -0.263683
-0.224639 0.0628039 -0.0608711
-0.0730123 0.0628039 -0.239174
0.106085 0.0515505 0.362068
-0.247529 0.0628039 0.391827
-0.238594 0.0628039 0.215024
-0.275111 0.00905519 0.0142148
0.0626825 0.0515505 -0.136982
-0.221766 0.0515505 0.325356
-0.255588 0.0628039 0.189609
-0.193001 0.0515505 -0.389052
0.145265 0.0515505 0.182805
-0.0624169 0.0628039 -0.0195912
0.0368117 0.0515505 0.369577
0.162377 0.0628039 0.228494
0.050756 0.0515505 0.15414
-0.264906 0.0628039 -0.243769
-0.0100508 0.0628039 -0.367866
-0.14587 0.0628039 0.0531271
-0.137067 0.0628039 -0.327234
0.0348695 0.0628039 -0.114625
0.0142148 -0.0602096 0.280326
-0.138626 0.0628039 0.179568
0.0142148 0.0102479 0.402169
-0.135512 0.0628039 0.00425641
0.114869 0.0515505 -0.0147482
0.00913247 -0.0628039 -0.242716
-0.0854432 0.0515505 0.135649
0.096075 0.0628039 0.172024
-0.0142148 -0.0617553 0.0924637
0.1652 0.0628039 0.168586
-0.144608 0.0515505 0.345137
-0.122091 0.0628039 0.177409
-0.0532316 0.0628039 0.104048
0.0239445 0.0623857 -0.406592
-0.0182449 0.0628039 -0.0762466
0.162289 0.0628039 0.184025
0.0212726 0.0628039 0.342616
-0.273358 0.0515505 0.217209
0.0101811 -0.0628039 0.180996
0.251292 0.0515505 0.157944
0.222261 0.0515505 -0.116354
-0.0533551 0.0628039 0.397259
0.281511 0.0515505 0.178422
0.0118867 0.0628039 -0.098406
0.257203 0.0515505 -0.11053
-0.243633 0.0515505 -0.0638423
-0.250066 0.0628039 -0.0962994
-0.104299 0.0628039 0.374138
0.154254 0.0628039 -0.259036
0.207274 0.0515505 0.127449
0.0238625 0.0628039 -0.0262534
-0.0855281 0.0515505 -0.357982
0.0805474 0.0515505 -0.176643
0.0300111 0.0515505 -0.367325
-0.275182 0.0628039 -0.228766
0.104752 0.0515505 0.109255
-0.160188 0.0515505 0.0288479
0.265508 0.0628039 -0.349309
0.0957495 0.0628039 0.220283
-0.159983 0.0628039 0.357609
0.198693 0.0515505 0.282652
0.269931 -0.0531377 -0.00860125
-0.138693 0.0515505 -0.170932
-0.0454666 0.0515505 -0.252006
0.216468 0.0515505 0.347846
-0.115383 0.0628039 -0.0224036
-0.0889712 -0.0628039 0.000447793
0.196057 0.0515505 0.0766949
0.26243 0.0515505 0.159714
-0.269931 -0.0145935 -0.0135771
0.0862774 0.0628039 -0.0388004
0.068813 0.0628039 -0.237544
-0.0283976 0.0515505 0.142344
0.254158 0.0628039 -0.153213
-0.0965878 0.0628039 0.229614
0.284145 -0.0500712 -0.0134302
0.239407 0.0515505 0.14936
0.25697 0.0515505 0.353515
0.242152 0.0515505 -0.368628
-0.000733704 -0.0628039 -0.222098
0.284145 0.0528142 -0.166019
0.216208 0.0628039 0.403699
0.0761534 0.0628039 0.0827092
0.169538 0.0628039 -0.261535
-0.238601 0.0515505 -0.116345
0.139416 0.0628039 -0.276427
0.0534135 0.0515505 0.164621
0.00498304 -0.0628039 0.116854
-0.00663033 0.0515505 -0.230048
0.0321134 0.0628039 -0.0316853
0.0549581 0.0515505 -0.368637
0.024257 0.0515505 0.0643171
-0.0626623 -0.0622732 0.0142148
0.0403322 0.0515505 -0.156833
-0.0634576 0.0628039 0.145306
-0.187659 0.0628039 0.199646
0.16851 0.0515505 -0.262429
0.181256 0.0628039 0.145855
0.124729 0.0628039 -0.0766721
0.20715 0.0628039 -0.348267
0.0805747 0.0628039 0.0386073
0.00448932 -0.0628039 0.00869929
0.16367 0.0628039 -0.225447
-0.195424 0.0628039 0.348016
-0.0684205 0.0628039 0.279046
0.19877 0.0628039 0.175049
-0.044399 0.0628039 0.334756
0.011824 -0.0628039 -0.0583299
-0.103345 0.0628039 0.312533
0.0982738 0.0628039 0.385972
0.154292 0.0628039 -0.209807
0.0491026 0.0515505 0.079191
-0.27336 0.0628039 -0.308889
-0.048894 0.0515505 0.0907947
0.281456 0.0628039 0.0146536
-0.284145 0.0622257 -0.131742
-0.284145 0.0581546 0.087969
0.0163459 0.0628039 -0.260163
0.0173921 0.0515505 -0.301291
-0.0076167 0.0628039 0.126352
0.0470521 0.0515505 -0.108362
0.24218 0.0628039 0.0387846
-0.230523 0.0628039 0.32855
0.107856 0.0515505 -0.232864
0.211899 0.0515505 0.224421
0.104534 0.0515505 0.362938
-0.231837 0.0515505 0.159869
0.237795 0.0628039 -0.345797
-0.135157 0.0515505 -0.342757
-0.0124087 -0.0628039 0.254694
0.146772 0.0515505 0.312595
-0.00313729 -0.0374907 -0.392378
-0.18162 0.0515505 0.328862
0.0911601 0.0628039 0.181932
0.198466 0.0628039 -0.31738
-0.0151859 0.0628039 0.111672
