ply
format ascii 1.0
comment Created by Open3D
element vertex 1610
property double x
property double y
property double z
end_header
-0.205308 -0.401317 0.140971
-0.21361 -0.401109 0.141036
-0.22142 -0.297449 -0.167615
0.202268 -0.306231 -0.166653
0.202634 -0.310064 -0.155123
-0.194247 -0.402754 0.157064
-0.196829 -0.29492 -0.167873
-0.202976 -0.294747 -0.167889
0.202654 -0.310294 -0.144427
0.199764 -0.403606 0.140186
-0.19485 -0.400753 0.164005
0.228542 -0.300189 -0.167463
0.22189 -0.300006 -0.16748
0.211929 -0.299732 -0.167505
0.226357 -0.400318 0.141162
0.21319 -0.399998 0.141261
0.19852 -0.403593 0.153545
-0.197272 -0.389892 0.143949
-0.205602 -0.389685 0.143998
-0.213924 -0.389478 0.144047
-0.196658 -0.296683 -0.143228
0.20188 -0.296112 -0.167857
0.204687 -0.395818 0.142412
-0.196712 -0.28525 -0.168841
-0.202852 -0.285082 -0.168857
-0.21511 -0.284748 -0.168887
0.201222 -0.295497 -0.159551
0.201585 -0.299233 -0.147818
0.226907 -0.392349 0.143277
0.213712 -0.392028 0.143354
0.200335 -0.397369 0.161273
-0.197412 -0.381949 0.145497
-0.205752 -0.381742 0.145532
-0.214082 -0.381535 0.145567
-0.224235 -0.281286 -0.169238
0.228192 -0.290133 -0.168455
0.221549 -0.289956 -0.168472
0.211598 -0.28969 -0.168496
0.202243 -0.38967 0.150583
-0.195339 -0.283581 -0.154418
0.201557 -0.286084 -0.168859
0.200858 -0.291885 -0.150125
-0.196592 -0.275593 -0.169832
-0.202725 -0.275431 -0.169847
-0.214969 -0.275108 -0.169877
0.227534 -0.380098 0.145686
0.218714 -0.379886 0.145723
0.209903 -0.379674 0.145759
-0.197554 -0.369768 0.147072
-0.210075 -0.369461 0.147104
-0.21841 -0.369257 0.147126
-0.194437 -0.274919 -0.162063
-0.224083 -0.271658 -0.170238
0.227833 -0.280089 -0.169477
0.221197 -0.279918 -0.169493
0.211258 -0.279662 -0.169517
0.204195 -0.379142 0.158769
0.201226 -0.27607 -0.169885
0.199746 -0.280904 -0.153653
0.200108 -0.284494 -0.14172
0.227818 -0.371744 0.146776
0.218986 -0.371533 0.146798
0.210164 -0.371321 0.146821
-0.197604 -0.361478 0.147614
-0.210127 -0.361172 0.147627
-0.193527 -0.266342 -0.169781
-0.202594 -0.265792 -0.170866
-0.214825 -0.265481 -0.170896
0.205154 -0.371592 0.16279
-0.223927 -0.262044 -0.171263
0.227464 -0.270059 -0.170523
0.214216 -0.26973 -0.170554
0.199347 -0.277105 -0.144163
-0.193786 -0.26863 -0.140689
0.207487 -0.266232 -0.170924
0.198606 -0.269974 -0.157268
0.228027 -0.358938 0.147579
0.219185 -0.358729 0.147586
0.210354 -0.358521 0.147595
-0.197602 -0.348789 0.147596
-0.210123 -0.348488 0.147588
-0.193279 -0.256393 -0.171885
-0.205517 -0.256092 -0.171915
-0.214677 -0.255868 -0.171938
-0.218432 -0.343995 0.147334
-0.192836 -0.259846 -0.148982
-0.22377 -0.252449 -0.172297
0.230401 -0.260125 -0.171585
0.220467 -0.259887 -0.171609
0.197481 -0.259443 -0.171285
0.228017 -0.350225 0.147539
0.219172 -0.350018 0.147535
0.210338 -0.349811 0.147529
-0.197552 -0.340178 0.147039
-0.210066 -0.33988 0.147016
0.210431 -0.25632 -0.171996
0.197441 -0.259099 -0.160964
0.197797 -0.262407 -0.149138
-0.218356 -0.335358 0.146624
-0.191915 -0.251246 -0.157029
-0.193167 -0.246806 -0.17284
-0.205392 -0.246518 -0.172865
-0.214543 -0.246302 -0.172883
0.197762 -0.262089 -0.138306
0.227885 -0.341382 0.147035
0.219042 -0.341177 0.147019
0.210209 -0.340972 0.147003
-0.197483 -0.331518 0.146279
-0.205823 -0.331325 0.146264
0.230028 -0.250137 -0.172632
0.220108 -0.24991 -0.172652
0.200321 -0.249456 -0.172689
0.19667 -0.251898 -0.16341
0.20536 -0.341049 0.163657
-0.214113 -0.326809 0.145864
-0.19114 -0.243101 -0.163799
-0.223601 -0.239761 -0.173406
0.210101 -0.246374 -0.172985
0.196629 -0.251472 -0.152889
0.227682 -0.33247 0.146254
0.218844 -0.332271 0.146239
0.210017 -0.332071 0.146223
-0.19308 -0.237297 -0.173574
-0.205297 -0.237023 -0.173588
-0.214441 -0.236818 -0.173599
0.196585 -0.251034 -0.142129
0.204506 -0.33128 0.160074
-0.197377 -0.31854 0.145105
-0.205709 -0.318354 0.14509
0.233029 -0.240296 -0.173488
0.226418 -0.240151 -0.173496
0.200051 -0.239575 -0.173526
0.195712 -0.241331 -0.166452
-0.213989 -0.31385 0.144673
-0.190976 -0.240594 -0.137408
-0.223519 -0.23034 -0.173947
0.216443 -0.236658 -0.17372
0.195672 -0.240797 -0.15596
0.227368 -0.319115 0.145048
0.214129 -0.318827 0.145026
0.205316 -0.318636 0.14501
0.203628 -0.321536 0.156392
-0.197303 -0.309894 0.144295
-0.20563 -0.309714 0.14428
-0.211332 -0.227481 -0.17405
0.195632 -0.240252 -0.145226
-0.213904 -0.305218 0.143855
-0.190195 -0.225337 -0.172055
-0.199121 -0.224616 -0.174152
0.232824 -0.230472 -0.17406
0.226218 -0.230334 -0.174063
0.206449 -0.229923 -0.174072
0.19659 -0.229718 -0.174076
0.227152 -0.310218 0.144217
0.213921 -0.309939 0.144194
0.205114 -0.309753 0.144179
0.202717 -0.311808 0.152568
-0.197228 -0.301256 0.143467
-0.205549 -0.30108 0.143452
-0.190347 -0.229498 -0.143073
-0.220436 -0.221057 -0.174232
0.216286 -0.226881 -0.17418
0.195071 -0.230479 -0.157892
-0.213816 -0.296593 0.143016
0.195047 -0.229834 -0.147128
0.195141 -0.232618 -0.135721
0.22693 -0.301328 0.143366
0.213709 -0.301057 0.143342
0.204908 -0.300876 0.143327
-0.205467 -0.292452 0.142603
-0.190063 -0.215733 -0.173212
-0.199107 -0.215294 -0.174265
-0.208256 -0.215111 -0.174264
0.232719 -0.22073 -0.17435
0.226117 -0.220599 -0.174349
0.206358 -0.220208 -0.174346
0.196505 -0.220014 -0.174344
0.201799 -0.302299 0.167511
-0.197113 -0.28831 0.142186
-0.190083 -0.219302 -0.145449
-0.22043 -0.211773 -0.17427
0.216224 -0.217182 -0.174362
0.194779 -0.220444 -0.158828
0.194903 -0.225734 -0.136505
0.226703 -0.292446 0.142492
0.213491 -0.292182 0.142469
0.204697 -0.292007 0.142453
-0.213682 -0.283667 0.141722
0.194773 -0.219701 -0.148016
0.200838 -0.292499 0.163417
-0.197033 -0.279689 0.141308
-0.205339 -0.279525 0.141293
-0.19018 -0.206659 -0.172181
-0.199124 -0.206032 -0.17413
-0.208275 -0.205858 -0.174124
0.232713 -0.211058 -0.174367
0.226113 -0.210935 -0.174363
0.206358 -0.210564 -0.174348
0.196506 -0.210379 -0.174341
-0.195235 -0.281751 0.168426
-0.213589 -0.27506 0.140835
-0.190109 -0.20975 -0.145219
-0.223505 -0.202494 -0.174035
0.212962 -0.207489 -0.174272
0.19477 -0.21064 -0.158856
0.194751 -0.215586 -0.137003
0.226352 -0.279136 0.141143
0.213155 -0.278885 0.141121
0.20437 -0.278718 0.141106
-0.194619 -0.275857 0.161342
-0.196952 -0.271075 0.140411
-0.205252 -0.270917 0.140396
0.19479 -0.209802 -0.147961
0.199353 -0.277867 0.157091
-0.213495 -0.266461 0.139927
-0.193058 -0.196931 -0.17376
-0.205277 -0.19671 -0.173745
-0.214422 -0.196545 -0.173733
0.232803 -0.201448 -0.174119
0.226201 -0.20133 -0.174111
0.206444 -0.200979 -0.174086
0.196591 -0.200803 -0.174074
0.226111 -0.270274 0.140218
0.217318 -0.270112 0.140204
0.204147 -0.269869 0.140182
-0.196869 -0.262471 0.139495
-0.205163 -0.262318 0.139481
-0.190367 -0.200649 -0.142892
0.19503 -0.201027 -0.158022
0.19489 -0.205659 -0.136548
0.198331 -0.268158 0.15274
-0.190828 -0.19233 -0.166524
-0.223609 -0.190273 -0.173353
0.216434 -0.194794 -0.173747
0.195079 -0.200095 -0.147023
0.230263 -0.261499 0.139282
0.221471 -0.261342 0.139268
0.208303 -0.261107 0.139246
0.199537 -0.26095 0.139231
0.198294 -0.267826 0.171715
-0.213349 -0.253578 0.138531
-0.208411 -0.187495 -0.173119
0.232993 -0.191892 -0.17359
0.226387 -0.19178 -0.173582
0.206618 -0.191445 -0.173559
0.19676 -0.191278 -0.173546
0.197294 -0.258497 0.148323
-0.192601 -0.249664 0.138148
-0.205031 -0.249447 0.138131
-0.190852 -0.191922 -0.138525
-0.193161 -0.184707 -0.172885
0.19573 -0.189514 -0.166393
0.195556 -0.191577 -0.156332
0.216838 -0.252427 0.138306
0.203688 -0.252201 0.138288
0.197239 -0.258018 0.167153
-0.213264 -0.245029 0.137713
-0.217634 -0.181251 -0.172584
0.216675 -0.185282 -0.173038
0.195632 -0.190545 -0.145225
0.2299 -0.248248 0.137906
0.196306 -0.248942 0.144115
-0.192535 -0.241121 0.137392
-0.204959 -0.240912 0.137382
-0.191734 -0.181403 -0.158607
0.229972 -0.182326 -0.172789
0.206884 -0.181956 -0.172752
0.197018 -0.181798 -0.172737
0.196244 -0.248326 0.162845
-0.191297 -0.24385 0.172203
-0.2132 -0.236532 0.1371
-0.193273 -0.17558 -0.171939
-0.205518 -0.175385 -0.171914
0.196541 -0.18031 -0.163819
0.196349 -0.182261 -0.153786
0.229708 -0.239468 0.137177
0.220933 -0.239326 0.13717
0.212168 -0.239184 0.137163
0.199041 -0.238971 0.137153
-0.200769 -0.232494 0.13684
-0.214733 -0.172205 -0.171543
-0.223887 -0.172062 -0.171524
0.220306 -0.175856 -0.172077
0.196445 -0.181121 -0.142584
0.195474 -0.238887 0.159516
-0.190609 -0.233652 0.163961
-0.192475 -0.228408 0.136695
-0.192651 -0.173456 -0.1506
0.203942 -0.172451 -0.171678
0.197458 -0.172411 -0.171356
0.229574 -0.230741 0.136669
0.220804 -0.230605 0.136666
0.212044 -0.230469 0.136664
0.198924 -0.230266 0.13666
-0.209011 -0.223933 0.136544
-0.221397 -0.223741 0.13654
-0.19355 -0.166694 -0.169587
-0.202611 -0.166339 -0.170731
0.230491 -0.169694 -0.171333
0.197597 -0.171197 -0.160469
0.194966 -0.229708 0.157318
-0.190245 -0.22428 0.159602
-0.192455 -0.219985 0.136473
-0.200734 -0.21986 0.136474
0.220729 -0.166404 -0.170849
0.197763 -0.169966 -0.149247
0.197525 -0.171801 -0.139075
0.233883 -0.222126 0.136374
0.225111 -0.221996 0.136375
0.216349 -0.221866 0.136377
0.203226 -0.221671 0.136379
0.19471 -0.221713 0.137315
-0.209002 -0.215546 0.136456
-0.221388 -0.215362 0.136458
-0.193724 -0.165585 -0.141231
-0.21498 -0.160105 -0.169803
-0.224153 -0.159973 -0.169777
0.194695 -0.220745 0.156147
-0.190147 -0.21553 0.158429
-0.192453 -0.2116 0.136444
-0.200732 -0.21148 0.136449
-0.194719 -0.159088 -0.15967
-0.196654 -0.157349 -0.169319
-0.202795 -0.157263 -0.169302
0.227672 -0.1602 -0.169934
0.211134 -0.159971 -0.169888
0.201234 -0.159834 -0.169861
0.198906 -0.162154 -0.156319
-0.209012 -0.207193 0.13656
-0.2214 -0.207017 0.136567
0.221243 -0.156972 -0.169359
0.199099 -0.160814 -0.144959
0.233889 -0.209191 0.136397
0.225118 -0.209069 0.136403
0.216357 -0.208947 0.136408
0.203235 -0.208764 0.136415
0.194743 -0.208823 0.137458
0.194659 -0.211976 0.15599
0.194663 -0.215295 0.175491
-0.190251 -0.207205 0.159674
-0.195613 -0.154065 -0.152088
-0.215208 -0.151048 -0.168198
-0.192487 -0.199095 0.136837
-0.200769 -0.198982 0.136846
0.22826 -0.150772 -0.168262
0.21169 -0.150556 -0.16822
0.201771 -0.150427 -0.168195
0.200741 -0.151577 -0.161059
0.229569 -0.200548 0.13665
0.220801 -0.200431 0.136658
0.212045 -0.200315 0.136667
0.198929 -0.200141 0.13668
-0.209065 -0.194721 0.137084
-0.221459 -0.194556 0.137097
-0.196933 -0.145258 -0.167018
-0.20309 -0.145178 -0.167
0.201003 -0.15014 -0.149664
0.195052 -0.199141 0.157691
-0.190744 -0.195325 0.165581
-0.192528 -0.190787 0.137313
-0.215472 -0.141999 -0.166334
0.222073 -0.144412 -0.166949
0.229693 -0.191998 0.137123
0.220923 -0.191886 0.137131
0.212162 -0.191775 0.137139
0.199041 -0.191608 0.137152
-0.204988 -0.186492 0.137684
-0.213262 -0.186387 0.137694
-0.225656 -0.18623 0.137711
0.228946 -0.141351 -0.166314
0.212342 -0.141149 -0.166267
0.195539 -0.190715 0.159797
-0.196736 -0.182457 0.138026
-0.19409 -0.136228 -0.165012
-0.203348 -0.136116 -0.164983
0.203194 -0.139716 -0.153365
0.202876 -0.14115 -0.143723
0.196135 -0.18389 0.143385
0.21948 -0.134957 -0.164814
0.22999 -0.179221 0.138248
0.221213 -0.179118 0.138263
0.212446 -0.179015 0.138277
0.196254 -0.182406 0.162892
-0.0131486 -0.13015 -0.178652
-0.0225721 -0.130037 -0.17865
-0.0351112 -0.129887 -0.178647
-0.0444967 -0.129775 -0.178644
-0.0538658 -0.129662 -0.178642
-0.0632189 -0.129551 -0.17864
-0.0725558 -0.129439 -0.178637
-0.08498 -0.12929 -0.178634
-0.0942794 -0.129179 -0.178632
-0.103563 -0.129068 -0.178629
-0.11283 -0.128957 -0.178627
-0.125162 -0.12881 -0.178624
-0.134393 -0.128699 -0.178621
-0.143607 -0.128589 -0.178619
-0.152806 -0.128479 -0.178617
-0.165047 -0.128332 -0.178614
-0.174209 -0.128223 -0.178611
-0.183356 -0.128113 -0.178609
-0.195527 -0.127968 -0.178606
-0.204637 -0.127859 -0.178603
-0.213732 -0.12775 -0.178601
-0.222811 -0.127641 -0.178599
-0.234893 -0.127497 -0.178596
0.237727 -0.129942 -0.178716
0.23115 -0.129866 -0.178715
0.221299 -0.129751 -0.178712
0.211465 -0.129636 -0.17871
0.201649 -0.129521 -0.178707
0.19185 -0.129407 -0.178705
0.182068 -0.129293 -0.178702
0.172304 -0.129179 -0.1787
0.159311 -0.129027 -0.178697
0.149587 -0.128913 -0.178694
0.139879 -0.1288 -0.178691
0.130189 -0.128687 -0.178689
0.120516 -0.128574 -0.178687
0.11086 -0.128461 -0.178684
0.10122 -0.128349 -0.178682
0.0915977 -0.128236 -0.178679
0.081992 -0.128124 -0.178677
0.0724031 -0.128012 -0.178674
0.059644 -0.127863 -0.178671
0.0500941 -0.127752 -0.178669
0.0405609 -0.12764 -0.178666
0.0310442 -0.127529 -0.178664
0.0215442 -0.127418 -0.178661
0.0120606 -0.127308 -0.178659
-0.000558645 -0.12716 -0.178656
-0.134393 -0.122497 -0.178621
-0.143607 -0.122392 -0.178619
-0.152806 -0.122287 -0.178617
-0.165047 -0.122148 -0.178614
-0.174209 -0.122043 -0.178611
-0.183356 -0.121939 -0.178609
-0.195527 -0.121801 -0.178606
-0.204637 -0.121697 -0.178603
-0.213732 -0.121593 -0.178601
-0.222811 -0.12149 -0.178599
0.143113 -0.122475 -0.178692
0.136647 -0.122404 -0.178691
0.126963 -0.122296 -0.178688
0.117295 -0.122189 -0.178686
0.104431 -0.122046 -0.178682
0.0948033 -0.121939 -0.17868
0.0851921 -0.121833 -0.178677
0.0755976 -0.121726 -0.178675
0.0660199 -0.12162 -0.178673
0.0564589 -0.121514 -0.17867
0.0469145 -0.121408 -0.178668
0.0373868 -0.121302 -0.178665
-0.0100039 -0.120776 -0.178653
-0.0194327 -0.120671 -0.178651
-0.0288452 -0.120567 -0.178648
-0.0382415 -0.120463 -0.178646
-0.0476215 -0.120359 -0.178644
-0.060103 -0.12022 -0.17864
-0.0694453 -0.120116 -0.178638
-0.0787715 -0.120013 -0.178636
-0.0880816 -0.11991 -0.178633
-0.10047 -0.119772 -0.17863
-0.109743 -0.119669 -0.178628
-0.119 -0.119566 -0.178625
0.237727 -0.120317 -0.178716
0.23115 -0.120246 -0.178715
0.221299 -0.120139 -0.178712
0.211465 -0.120033 -0.17871
0.201649 -0.119927 -0.178707
0.19185 -0.119821 -0.178705
0.182068 -0.119715 -0.178702
0.172304 -0.11961 -0.1787
0.159311 -0.119469 -0.178697
-0.234893 -0.115208 -0.178596
0.024709 -0.114867 -0.178662
0.0152199 -0.114767 -0.17866
0.0057473 -0.114668 -0.178657
-0.201602 -0.112486 -0.178604
-0.207671 -0.112422 -0.178603
-0.219787 -0.112295 -0.1786
0.0980109 -0.11247 -0.178681
0.0915977 -0.112405 -0.178679
0.081992 -0.112306 -0.178677
0.0724031 -0.112208 -0.178674
0.059644 -0.112078 -0.178671
0.0500941 -0.11198 -0.178669
0.0405609 -0.111882 -0.178666
-0.00370886 -0.111429 -0.178655
-0.0131486 -0.111333 -0.178652
-0.0225721 -0.111236 -0.17865
-0.0351112 -0.111108 -0.178647
-0.0444967 -0.111012 -0.178644
-0.0538658 -0.110916 -0.178642
-0.0632189 -0.11082 -0.17864
-0.0725558 -0.110725 -0.178637
-0.08498 -0.110598 -0.178634
-0.0942794 -0.110503 -0.178632
-0.103563 -0.110408 -0.178629
-0.11283 -0.110313 -0.178627
-0.125162 -0.110186 -0.178624
-0.134393 -0.110092 -0.178621
-0.143607 -0.109998 -0.178619
-0.152806 -0.109904 -0.178617
-0.165047 -0.109778 -0.178614
-0.174209 -0.109685 -0.178611
-0.183356 -0.109591 -0.178609
0.237727 -0.110692 -0.178716
0.23115 -0.110626 -0.178715
0.221299 -0.110528 -0.178712
0.211465 -0.11043 -0.17871
0.201649 -0.110333 -0.178707
0.19185 -0.110235 -0.178705
0.182068 -0.110138 -0.178702
0.172304 -0.110041 -0.1787
0.159311 -0.109912 -0.178697
0.149587 -0.109815 -0.178694
0.139879 -0.109719 -0.178691
0.130189 -0.109622 -0.178689
0.120516 -0.109526 -0.178687
0.11086 -0.10943 -0.178684
-0.228855 -0.106051 -0.178597
-0.237909 -0.105961 -0.178595
0.0310442 -0.105487 -0.178664
0.0215442 -0.105396 -0.178661
0.0120606 -0.105304 -0.178659
0.0469145 -0.102487 -0.178668
-0.000558645 -0.102042 -0.178656
-0.0100039 -0.101954 -0.178653
-0.0194327 -0.101865 -0.178651
-0.0288452 -0.101777 -0.178648
-0.0382415 -0.101689 -0.178646
-0.0476215 -0.101601 -0.178644
-0.060103 -0.101484 -0.17864
-0.0694453 -0.101397 -0.178638
-0.0787715 -0.10131 -0.178636
-0.0880816 -0.101222 -0.178633
-0.10047 -0.101106 -0.17863
-0.109743 -0.101019 -0.178628
-0.119 -0.100933 -0.178625
-0.128241 -0.100846 -0.178623
-0.140538 -0.100731 -0.17862
-0.149742 -0.100645 -0.178617
-0.15893 -0.100559 -0.178615
-0.168103 -0.100473 -0.178613
-0.180309 -0.100358 -0.17861
-0.189445 -0.100273 -0.178607
-0.198565 -0.100187 -0.178605
-0.207671 -0.100102 -0.178603
-0.219787 -0.0999884 -0.1786
0.237727 -0.101066 -0.178716
0.23115 -0.101007 -0.178715
0.221299 -0.100917 -0.178712
0.211465 -0.100828 -0.17871
0.201649 -0.100739 -0.178707
0.19185 -0.10065 -0.178705
0.182068 -0.100561 -0.178702
0.172304 -0.100472 -0.1787
0.159311 -0.100354 -0.178697
0.149587 -0.100266 -0.178694
0.139879 -0.100178 -0.178691
0.130189 -0.10009 -0.178689
0.120516 -0.100002 -0.178687
0.11086 -0.0999143 -0.178684
0.10122 -0.0998267 -0.178682
0.0915977 -0.0997394 -0.178679
0.081992 -0.0996521 -0.178677
0.0724031 -0.0995651 -0.178674
0.059644 -0.0994492 -0.178671
-0.228855 -0.0968295 -0.178597
-0.237909 -0.0967473 -0.178595
0.0373868 -0.0960964 -0.178665
0.024709 -0.0959849 -0.178662
0.0152199 -0.0959015 -0.17866
-0.0162916 -0.0924892 -0.178652
-0.0225721 -0.0924358 -0.17865
-0.0351112 -0.0923292 -0.178647
-0.0444967 -0.0922494 -0.178644
-0.0538658 -0.0921697 -0.178642
-0.0632189 -0.0920902 -0.17864
-0.0725558 -0.0920108 -0.178637
-0.08498 -0.0919051 -0.178634
-0.0942794 -0.091826 -0.178632
-0.103563 -0.0917471 -0.178629
-0.11283 -0.0916683 -0.178627
-0.125162 -0.0915634 -0.178624
-0.134393 -0.0914849 -0.178621
-0.143607 -0.0914065 -0.178619
-0.152806 -0.0913283 -0.178617
-0.165047 -0.0912242 -0.178614
-0.174209 -0.0911463 -0.178611
-0.183356 -0.0910685 -0.178609
-0.195527 -0.090965 -0.178606
-0.204637 -0.0908875 -0.178603
-0.213732 -0.0908102 -0.178601
0.237727 -0.0914409 -0.178716
0.23115 -0.0913869 -0.178715
0.221299 -0.091306 -0.178712
0.211465 -0.0912252 -0.17871
0.201649 -0.0911445 -0.178707
0.19185 -0.091064 -0.178705
0.182068 -0.0909837 -0.178702
0.172304 -0.0909034 -0.1787
0.159311 -0.0907967 -0.178697
0.149587 -0.0907168 -0.178694
0.139879 -0.0906371 -0.178691
0.130189 -0.0905574 -0.178689
0.120516 -0.090478 -0.178687
0.11086 -0.0903986 -0.178684
0.10122 -0.0903194 -0.178682
0.0915977 -0.0902404 -0.178679
0.081992 -0.0901615 -0.178677
0.0724031 -0.0900827 -0.178674
0.059644 -0.0899779 -0.178671
0.0500941 -0.0898994 -0.178669
0.0057473 -0.0895351 -0.178657
-0.00370886 -0.0894574 -0.178655
0.0405609 -0.0866695 -0.178666
0.0310442 -0.086594 -0.178664
0.0215442 -0.0865187 -0.178661
-0.222811 -0.0845816 -0.178599
-0.234893 -0.0844858 -0.178596
-0.0942794 -0.0824878 -0.178632
-0.103563 -0.0824169 -0.178629
-0.11283 -0.0823461 -0.178627
-0.125162 -0.0822518 -0.178624
-0.134393 -0.0821813 -0.178622
-0.143607 -0.0821109 -0.178619
-0.152806 -0.0820407 -0.178617
-0.165047 -0.0819472 -0.178614
-0.174209 -0.0818772 -0.178611
-0.183356 -0.0818073 -0.178609
-0.195527 -0.0817143 -0.178606
-0.204637 -0.0816447 -0.178603
-0.213732 -0.0815752 -0.178601
0.237727 -0.0818156 -0.178716
0.23115 -0.0817672 -0.178715
0.221299 -0.0816948 -0.178712
0.211465 -0.0816225 -0.17871
0.201649 -0.0815504 -0.178707
0.19185 -0.0814783 -0.178705
0.182068 -0.0814064 -0.178702
0.172304 -0.0813346 -0.1787
0.159311 -0.0812391 -0.178697
0.149587 -0.0811677 -0.178694
0.139879 -0.0810963 -0.178691
0.130189 -0.0810251 -0.178689
0.120516 -0.080954 -0.178687
0.11086 -0.080883 -0.178684
0.10122 -0.0808121 -0.178682
0.0915977 -0.0807414 -0.178679
0.081992 -0.0806708 -0.178677
0.0724031 -0.0806003 -0.178674
0.059644 -0.0805065 -0.178671
0.0500941 -0.0804363 -0.178669
0.0120606 -0.0801567 -0.178659
-0.000558645 -0.0800639 -0.178656
-0.0100039 -0.0799945 -0.178653
-0.0194327 -0.0799252 -0.178651
-0.0288452 -0.079856 -0.178648
-0.0382415 -0.079787 -0.178646
-0.0476215 -0.079718 -0.178644
-0.060103 -0.0796263 -0.17864
-0.0694453 -0.0795576 -0.178638
-0.0787715 -0.079489 -0.178636
0.0405609 -0.0772146 -0.178666
0.0310442 -0.0771474 -0.178664
0.0215441 -0.0770803 -0.178661
-0.222811 -0.0753545 -0.178599
-0.234893 -0.0752692 -0.178596
-0.192487 -0.0724842 -0.178607
-0.198565 -0.0724431 -0.178605
-0.207671 -0.0723814 -0.178603
0.237727 -0.0721902 -0.178716
0.23115 -0.0721475 -0.178715
0.221299 -0.0720837 -0.178712
0.211465 -0.0720199 -0.17871
0.201649 -0.0719562 -0.178707
0.19185 -0.0718926 -0.178705
0.182068 -0.0718292 -0.178702
0.172304 -0.0717659 -0.1787
0.159311 -0.0716816 -0.178697
0.149587 -0.0716185 -0.178694
0.139879 -0.0715556 -0.178692
0.130189 -0.0714927 -0.178689
0.120516 -0.07143 -0.178687
0.11086 -0.0713673 -0.178684
0.10122 -0.0713048 -0.178682
0.0915977 -0.0712424 -0.178679
0.081992 -0.0711801 -0.178677
0.0724031 -0.0711179 -0.178674
0.059644 -0.0710351 -0.178671
0.0500941 -0.0709732 -0.178669
0.0120606 -0.0707265 -0.178659
-0.000558645 -0.0706447 -0.178656
-0.0100039 -0.0705834 -0.178653
-0.0194327 -0.0705222 -0.178651
-0.0288453 -0.0704612 -0.178648
-0.0382415 -0.0704003 -0.178646
-0.0476215 -0.0703394 -0.178643
-0.060103 -0.0702585 -0.17864
-0.0694453 -0.0701979 -0.178638
-0.0787715 -0.0701374 -0.178636
-0.0880816 -0.070077 -0.178633
-0.10047 -0.0699966 -0.17863
-0.109743 -0.0699365 -0.178628
-0.119 -0.0698765 -0.178625
-0.128241 -0.0698165 -0.178623
-0.140538 -0.0697368 -0.17862
-0.149742 -0.0696771 -0.178617
-0.15893 -0.0696175 -0.178615
-0.168103 -0.069558 -0.178613
-0.180309 -0.0694788 -0.17861
-0.219787 -0.0661462 -0.1786
-0.228855 -0.06609 -0.178597
-0.237909 -0.0660338 -0.178595
0.0405608 -0.0646081 -0.178666
0.0310442 -0.0645519 -0.178664
0.0215441 -0.0644958 -0.178661
0.224581 -0.062491 -0.178713
0.214741 -0.0624356 -0.178711
0.204919 -0.0623804 -0.178708
0.195114 -0.0623253 -0.178706
0.185327 -0.0622703 -0.178703
0.175557 -0.0622154 -0.178701
0.165804 -0.0621606 -0.178698
0.156068 -0.0621058 -0.178696
0.146349 -0.0620512 -0.178693
0.136647 -0.0619967 -0.178691
0.126963 -0.0619422 -0.178688
0.117295 -0.0618879 -0.178686
0.104431 -0.0618155 -0.178683
0.0948033 -0.0617614 -0.17868
0.0851921 -0.0617074 -0.178678
0.0755976 -0.0616535 -0.178675
0.0660198 -0.0615996 -0.178673
0.0564588 -0.0615459 -0.178671
0.0120606 -0.0612964 -0.178658
-0.000558607 -0.0612254 -0.178655
-0.0100038 -0.0611723 -0.178653
-0.0194327 -0.0611193 -0.178651
-0.0288452 -0.0610664 -0.178648
-0.0382415 -0.0610136 -0.178646
-0.0476215 -0.0609608 -0.178644
-0.060103 -0.0608907 -0.178641
-0.0694453 -0.0608382 -0.178638
-0.0787715 -0.0607857 -0.178636
-0.0880816 -0.0607334 -0.178633
-0.10047 -0.0606638 -0.17863
-0.109743 -0.0606116 -0.178628
-0.119 -0.0605596 -0.178625
-0.128241 -0.0605077 -0.178623
-0.140538 -0.0604386 -0.17862
-0.149742 -0.0603868 -0.178617
-0.15893 -0.0603351 -0.178615
-0.168103 -0.0602836 -0.178613
-0.180309 -0.060215 -0.17861
-0.189445 -0.0601636 -0.178607
-0.198565 -0.0601123 -0.178605
-0.207671 -0.0600612 -0.178603
0.237727 -0.0593564 -0.178716
-0.219787 -0.0569165 -0.1786
-0.228855 -0.0568681 -0.178597
-0.237909 -0.0568198 -0.178595
0.178061 -0.0563651 -0.170263
0.170429 -0.0568023 -0.162516
0.165275 -0.0570977 -0.157282
0.157443 -0.0575465 -0.149329
0.149487 -0.0580024 -0.14125
0.140577 -0.0582548 -0.136407
0.131397 -0.0584578 -0.132344
0.122152 -0.0586623 -0.128253
0.11225 -0.0586947 -0.12691
0.101789 -0.0585578 -0.128277
0.0913771 -0.0584216 -0.129637
0.080273 -0.0580304 -0.135092
0.0688611 -0.0574774 -0.143156
0.0613732 -0.0571145 -0.148448
0.0495986 -0.0562845 -0.160992
0.0416423 -0.0556178 -0.171192
0.0342147 -0.0551213 -0.178664
0.0247091 -0.0550733 -0.178662
0.210752 -0.0532557 -0.171032
0.204646 -0.053907 -0.159281
0.200284 -0.054311 -0.151946
0.193616 -0.0549283 -0.140736
0.186795 -0.0555599 -0.129267
0.18216 -0.0559891 -0.121473
0.174669 -0.0565586 -0.11102
0.166512 -0.0570253 -0.102288
0.155429 -0.0576605 -0.0904063
0.146831 -0.0581161 -0.0818304
0.137132 -0.0583289 -0.0773563
0.127368 -0.0585448 -0.0728222
0.113817 -0.0587135 -0.0687926
0.106413 -0.0586175 -0.0698414
0.0953491 -0.0584727 -0.0714298
0.0839891 -0.0582099 -0.0750312
0.0758525 -0.0578172 -0.0811436
0.0638444 -0.0572352 -0.0902037
0.055863 -0.0568105 -0.0968816
0.0515462 -0.0564505 -0.102743
0.0430657 -0.0557402 -0.114311
0.034795 -0.0550471 -0.125598
0.0267263 -0.0543704 -0.136619
0.0223856 -0.0538525 -0.145205
0.0181289 -0.0533454 -0.153611
0.00985147 -0.0523594 -0.169958
0.00582649 -0.0518799 -0.177906
-0.00370888 -0.0517911 -0.178655
-0.0131487 -0.0517462 -0.178653
-0.0225721 -0.0517014 -0.17865
-0.0351112 -0.0516417 -0.178647
-0.0444967 -0.0515971 -0.178644
-0.0538658 -0.0515525 -0.178642
-0.0632189 -0.0515081 -0.178639
-0.0725558 -0.0514636 -0.178637
-0.08498 -0.0514045 -0.178634
-0.0942794 -0.0513603 -0.178632
-0.103563 -0.0513162 -0.178629
-0.11283 -0.0512721 -0.178627
-0.125162 -0.0512134 -0.178624
-0.134393 -0.0511695 -0.178621
-0.143607 -0.0511257 -0.178619
-0.152806 -0.0510819 -0.178617
-0.165047 -0.0510237 -0.178614
-0.174209 -0.0509801 -0.178611
-0.183356 -0.0509366 -0.178609
-0.195527 -0.0508787 -0.178606
-0.204637 -0.0508354 -0.178603
0.237934 -0.0497626 -0.178153
0.234429 -0.0502125 -0.169593
0.230861 -0.0506707 -0.160877
0.227226 -0.0511373 -0.151999
0.221647 -0.0518535 -0.138373
0.21784 -0.0523422 -0.129075
0.213961 -0.0528403 -0.119599
0.210007 -0.0533479 -0.109942
0.205672 -0.0538095 -0.101098
0.198707 -0.0544564 -0.0886329
0.193965 -0.0548954 -0.0801712
0.189146 -0.0553416 -0.0715715
0.181769 -0.0560246 -0.0584074
0.176567 -0.0564504 -0.0501518
0.167907 -0.0569443 -0.0403588
0.162054 -0.0572793 -0.0337179
0.156132 -0.0576186 -0.0269922
0.147019 -0.0581109 -0.0171903
0.136692 -0.0583369 -0.0121841
0.126289 -0.0585663 -0.00711071
0.115587 -0.0587346 -0.00313425
0.103769 -0.0585818 -0.00497079
0.0959213 -0.0584792 -0.00620925
0.0838355 -0.0582021 -0.010307
0.075183 -0.0577854 -0.0172547
0.0666471 -0.0573722 -0.0241475
0.0537513 -0.056636 -0.0366192
0.0491861 -0.0562553 -0.0432422
0.0402308 -0.0555061 -0.0562766
0.0358402 -0.0551382 -0.0626793
0.0272312 -0.0544167 -0.0752335
0.0226517 -0.0538879 -0.0845776
0.0181151 -0.0533465 -0.0941556
0.0136711 -0.0528171 -0.103522
0.00931434 -0.0522981 -0.112705
0.000852808 -0.0512901 -0.130538
-0.00325681 -0.0508005 -0.1392
-0.0075908 -0.0501315 -0.151142
-0.0118159 -0.0494773 -0.162819
0.237137 -0.0498627 -0.11303
0.233369 -0.0503453 -0.103235
0.229529 -0.0508377 -0.0932425
0.225616 -0.0513401 -0.0830472
0.221624 -0.0518525 -0.0726483
0.219598 -0.0521126 -0.0673705
0.215485 -0.0526407 -0.0566548
0.211287 -0.0531795 -0.0457199
0.206831 -0.0536982 -0.0351589
0.201907 -0.0541562 -0.0257541
0.196898 -0.054622 -0.0161875
0.1918 -0.0550952 -0.0064677
0.186608 -0.0555759 0.00340652
0.181324 -0.0560651 0.0134548
0.175663 -0.0565019 0.0225052
0.166383 -0.0570311 0.0336701
0.156931 -0.0575709 0.0450566
0.150534 -0.0579375 0.0527877
0.139883 -0.0582659 0.0601183
0.132492 -0.0584277 0.0639061
0.121332 -0.0586732 0.0696509
0.109167 -0.0586496 0.0701888
0.100763 -0.0585408 0.0687448
0.092388 -0.0584319 0.0672938
0.0790221 -0.0579699 0.0593159
0.0698508 -0.0575282 0.0513916
0.0608119 -0.0570907 0.0435398
0.051364 -0.0564388 0.0315063
0.0417452 -0.0556366 0.0165344
0.032387 -0.0548527 0.00190186
0.022956 -0.0539287 -0.0154797
0.0181021 -0.053349 -0.0264705
0.0133523 -0.0527822 -0.0372188
0.00870465 -0.0522285 -0.0477171
0.00415351 -0.0516863 -0.0579972
-0.000304162 -0.0511552 -0.0680664
-0.00477481 -0.0505718 -0.0791627
-0.00937237 -0.0498569 -0.0928328
-0.013837 -0.049165 -0.106061
-0.0181783 -0.0484929 -0.118911
-0.0224025 -0.0478389 -0.131415
-0.0265143 -0.0472023 -0.143586
-0.030518 -0.0465825 -0.155437
-0.0344767 -0.0459282 -0.167969
-0.213732 -0.0446355 -0.178601
-0.222811 -0.0445976 -0.178599
-0.234893 -0.0445471 -0.178596
0.238222 -0.0497217 -0.0435127
0.234194 -0.0502375 -0.0322938
0.230083 -0.0507641 -0.0208399
0.225884 -0.0513019 -0.00914323
0.221597 -0.0518515 0.00281048
0.21722 -0.0524133 0.0150307
0.212747 -0.0529875 0.0275189
0.208155 -0.053571 0.0402132
0.202888 -0.0540609 0.0509861
0.197524 -0.0545597 0.0619575
0.194804 -0.0548126 0.0675195
0.189289 -0.0553255 0.0787997
0.183666 -0.0558475 0.0902797
0.17791 -0.0563737 0.101861
0.171313 -0.0567499 0.110346
0.164628 -0.0571312 0.118945
0.157853 -0.0575177 0.127661
0.150985 -0.0579095 0.136496
0.143537 -0.0581845 0.142915
0.135619 -0.0583578 0.147226
0.123653 -0.0586197 0.153739
0.11538 -0.0587276 0.156698
0.10633 -0.0586105 0.154973
0.0973167 -0.058494 0.153255
0.0834602 -0.0581831 0.147835
0.0735428 -0.0577055 0.138571
0.0637869 -0.0572356 0.129458
0.0538822 -0.0566509 0.117932
0.0486435 -0.056214 0.109142
0.043485 -0.0557838 0.100486
0.0384049 -0.0553601 0.0919615
0.0284661 -0.0545286 0.0752307
0.0233061 -0.0539756 0.0639842
0.0180882 -0.0533525 0.0512609
0.0129895 -0.0527435 0.0388284
0.00800661 -0.0521488 0.0266851
0.00313724 -0.0515686 0.0148407
-0.00162502 -0.0510012 0.00325704
-0.00651031 -0.0503059 -0.0110158
-0.0113915 -0.0495468 -0.0266355
-0.0161263 -0.0488112 -0.0417721
-0.020718 -0.0481003 -0.056399
-0.025178 -0.0474098 -0.0706058
-0.0295117 -0.0467389 -0.0844104
-0.0337451 -0.0460691 -0.0981989
-0.0380454 -0.0452488 -0.115159
-0.0421994 -0.0444531 -0.131612
-0.0462102 -0.0436844 -0.147506
-0.0500848 -0.0429419 -0.162859
-0.0538298 -0.0422241 -0.177699
-0.0632189 -0.0421429 -0.17864
-0.0725558 -0.0421066 -0.178637
-0.08498 -0.0420583 -0.178634
-0.0942794 -0.0420221 -0.178631
-0.103563 -0.041986 -0.178629
-0.11283 -0.0419499 -0.178627
-0.125162 -0.0419019 -0.178624
-0.134393 -0.041866 -0.178622
-0.143607 -0.0418301 -0.178619
-0.152806 -0.0417943 -0.178617
-0.165047 -0.0417467 -0.178614
-0.174209 -0.041711 -0.178611
-0.183356 -0.0416754 -0.178609
-0.195527 -0.0416281 -0.178606
-0.204637 -0.0415926 -0.178603
0.237322 -0.0498345 0.0430911
0.232949 -0.0503946 0.0562185
0.230725 -0.0506793 0.0628936
0.226202 -0.0512587 0.0764726
0.223901 -0.0515533 0.0833793
0.219219 -0.0521529 0.0974334
0.216837 -0.052458 0.104584
0.21199 -0.0530792 0.119145
0.206867 -0.0536862 0.133402
0.201149 -0.0542178 0.145993
0.195317 -0.0547602 0.158836
0.189367 -0.0553134 0.171939
0.186347 -0.0555943 0.17859
0.0345715 -0.0550428 0.178523
0.0292326 -0.0545975 0.168812
0.0237129 -0.0540302 0.156336
0.0180721 -0.0533564 0.141442
0.0125703 -0.0526993 0.126915
0.00720233 -0.0520581 0.112742
0.00196414 -0.0514328 0.0989183
-0.00314726 -0.0508237 0.085456
-0.00850073 -0.050001 0.0671425
-0.0137025 -0.049192 0.0491292
-0.0187385 -0.0484088 0.0316899
-0.0236131 -0.0476528 0.0148593
-0.0283359 -0.0469216 -0.00141954
-0.0329158 -0.0462126 -0.0172063
-0.0375614 -0.0453424 -0.0366584
-0.0420552 -0.0444852 -0.05583
-0.0463855 -0.0436562 -0.0743701
-0.0505585 -0.0428564 -0.0922587
-0.0545813 -0.0420853 -0.109504
-0.0584619 -0.0413415 -0.126139
-0.0622077 -0.0406236 -0.142197
-0.0658885 -0.039816 -0.160302
0.23626 -0.0499676 0.145259
0.233883 -0.050272 0.152999
0.22904 -0.0508922 0.168765
-0.0108067 -0.0496478 0.157693
-0.0163734 -0.0487819 0.136698
-0.0217494 -0.0479457 0.116422
-0.0269437 -0.047138 0.0968367
-0.0319609 -0.0463612 0.0780028
-0.0369907 -0.0454529 0.0559111
-0.0418906 -0.0445181 0.0331532
-0.046593 -0.043621 0.0113124
-0.0511122 -0.0427565 -0.00973761
-0.0554572 -0.0419235 -0.0300176
-0.0596361 -0.0411225 -0.0495224
-0.0636718 -0.040329 -0.0688494
-0.0676271 -0.0394243 -0.0909398
-0.0714083 -0.0385606 -0.112029
-0.075027 -0.0377352 -0.132184
-0.078494 -0.0369443 -0.151495
-0.0818187 -0.0361859 -0.170012
-0.213732 -0.0354006 -0.178601
-0.222811 -0.0353705 -0.178599
-0.234893 -0.0353304 -0.178596
-0.0363077 -0.0455851 0.166702
-0.0416944 -0.0445574 0.139257
-0.0468436 -0.0435751 0.113022
-0.0517706 -0.0426351 0.0879192
-0.0564912 -0.0417326 0.0638155
-0.0610179 -0.0408646 0.0406353
-0.0654127 -0.0399386 0.0158665
-0.0696524 -0.0389687 -0.0101054
-0.073691 -0.0380447 -0.0348459
-0.0775421 -0.0371656 -0.0583862
-0.081219 -0.0363268 -0.0808478
-0.0847336 -0.0355249 -0.102318
-0.0880965 -0.0347577 -0.122861
-0.0913171 -0.034023 -0.142535
-0.0943925 -0.0332582 -0.163037
-0.155869 -0.0324974 -0.178616
-0.165047 -0.0324696 -0.178613
-0.174209 -0.0324419 -0.178611
-0.183356 -0.0324142 -0.178609
-0.195527 -0.0323774 -0.178606
-0.204637 -0.0323498 -0.178603
-0.0577333 -0.0414996 0.176144
-0.0626676 -0.0405568 0.148273
-0.0674756 -0.0394759 0.116248
-0.0720423 -0.038431 0.085281
-0.0763735 -0.0374399 0.0559114
-0.0804869 -0.0364987 0.0280213
-0.0843983 -0.0356063 0.00157475
-0.0881229 -0.0347564 -0.0236093
-0.0916739 -0.0339462 -0.0476191
-0.0950452 -0.0330905 -0.0730061
-0.09824 -0.0322433 -0.0981533
-0.101275 -0.0314372 -0.122083
-0.104161 -0.03067 -0.144856
-0.10691 -0.0299394 -0.166544
-0.109743 -0.0295287 -0.178628
-0.119 -0.0295034 -0.178626
-0.128241 -0.0294781 -0.178623
-0.140538 -0.0294444 -0.17862
-0.0795716 -0.0367187 0.164116
-0.0839816 -0.0357093 0.130641
-0.0881556 -0.0347548 0.0989851
-0.0921125 -0.0338518 0.0690398
-0.0958425 -0.0328856 0.0369571
-0.0993583 -0.0319531 0.00598657
-0.10268 -0.031072 -0.023276
-0.105823 -0.0302374 -0.0509962
-0.108801 -0.0294456 -0.0772932
-0.111628 -0.0286942 -0.102248
-0.114313 -0.0279803 -0.125961
-0.116868 -0.027301 -0.148523
-0.119302 -0.0266539 -0.170015
-0.213732 -0.0261656 -0.178601
-0.222811 -0.0261434 -0.178599
-0.234893 -0.0261138 -0.178596
-0.0968382 -0.0326296 0.174304
-0.100746 -0.0315928 0.135236
-0.104414 -0.0306199 0.0985733
-0.107862 -0.0297051 0.0641021
-0.11111 -0.028843 0.0316175
-0.114173 -0.0280283 0.00091517
-0.117068 -0.0272583 -0.0281005
-0.119808 -0.0265295 -0.0555643
-0.122079 -0.0255942 -0.0909102
-0.113987 -0.0280892 0.167397
-0.117328 -0.0272025 0.1288
-0.120463 -0.0263685 0.0925
-0.122276 -0.0247674 0.02246
-0.122694 -0.0225803 -0.0733836
-0.123045 -0.0207481 -0.153673
-0.125162 -0.020175 -0.178624
-0.134393 -0.0201577 -0.178622
-0.143607 -0.0201404 -0.178619
-0.152806 -0.0201232 -0.178617
-0.165047 -0.0201002 -0.178614
-0.174209 -0.0200831 -0.178611
-0.183356 -0.0200659 -0.178609
-0.195527 -0.0200431 -0.178606
-0.204637 -0.0200261 -0.178603
-0.122525 -0.0237224 0.165748
-0.122969 -0.0213785 0.0443506
-0.123636 -0.0178509 -0.138352
-0.213732 -0.0169307 -0.178601
-0.222811 -0.0169163 -0.178599
-0.234893 -0.0168972 -0.178596
-0.123689 -0.0178504 0.06714
-0.123994 -0.0162154 -0.0363696
-0.124247 -0.0148547 -0.122508
-0.12444 -0.0141745 0.0908782
-0.12468 -0.0128515 -0.0168079
-0.124879 -0.0117544 -0.106112
-0.125162 -0.0108635 -0.178624
-0.134393 -0.0108541 -0.178622
-0.143607 -0.0108448 -0.178619
-0.152806 -0.0108356 -0.178617
-0.165047 -0.0108232 -0.178614
-0.174209 -0.010814 -0.178611
-0.183356 -0.0108047 -0.178609
-0.195527 -0.0107925 -0.178606
-0.204637 -0.0107833 -0.178603
-0.125223 -0.0103412 0.115627
-0.125394 -0.00935743 0.00351131
-0.125534 -0.00854446 -0.0891377
-0.125652 -0.00786146 -0.166975
-0.12604 -0.00634036 0.141459
-0.126135 -0.00572528 0.0246242
-0.126213 -0.00521896 -0.0715516
-0.126277 -0.00479489 -0.152105
-0.213732 -0.00461747 -0.178601
-0.222811 -0.00461355 -0.178599
-0.234893 -0.00460832 -0.178596
-0.126894 -0.00216069 0.168444
-0.126906 -0.00194686 0.0465868
-0.126916 -0.00177155 -0.053324
-0.126924 -0.00162518 -0.136735
-0.128241 -0.00155149 -0.178623
-0.140538 -0.00154972 -0.17862
-0.149742 -0.00154839 -0.178617
-0.15893 -0.00154706 -0.178615
-0.168103 -0.00154574 -0.178613
-0.180309 -0.00154398 -0.17861
-0.189445 -0.00154267 -0.178607
-0.198565 -0.00154135 -0.178605
-0.127708 0.00198687 0.069452
-0.127645 0.00180461 -0.034421
-0.127592 0.00165298 -0.12084
-0.128545 0.00608561 0.0932766
-0.128402 0.00551674 -0.014799
-0.128283 0.00504514 -0.104397
-0.207671 0.00462007 -0.178603
-0.219787 0.00461483 -0.1786
-0.228855 0.00461091 -0.178597
-0.237909 0.004607 -0.178595
-0.129366 0.0103473 0.11666
-0.12916 0.00936656 0.00486267
-0.128991 0.00855566 -0.087577
-0.12884 0.00787253 -0.16545
-0.131318 0.00775518 -0.178622
-0.140538 0.00774853 -0.17862
-0.149742 0.0077419 -0.178617
-0.15893 0.00773528 -0.178615
-0.168103 0.00772867 -0.178613
-0.180309 0.00771987 -0.17861
-0.189445 0.00771329 -0.178607
-0.198565 0.00770671 -0.178605
-0.130168 0.0147661 0.139513
-0.129881 0.013342 0.0235525
-0.129646 0.0121685 -0.0720021
-0.129448 0.0111848 -0.152107
-0.131002 0.0193592 0.163281
-0.130628 0.0174587 0.0429063
-0.130322 0.0158983 -0.0559235
-0.130065 0.014594 -0.138537
-0.207671 0.0138603 -0.178603
-0.219787 0.0138445 -0.1786
-0.228855 0.0138328 -0.178597
-0.237909 0.013821 -0.178595
-0.131402 0.0217244 0.062968
-0.13102 0.0197508 -0.0393162
-0.130702 0.0181059 -0.124558
-0.132205 0.0261476 0.0837816
-0.131742 0.0237319 -0.0221536
-0.131358 0.0217253 -0.110151
-0.131318 0.0201634 -0.178622
-0.140538 0.0201462 -0.17862
-0.149742 0.0201289 -0.178618
-0.15893 0.0201117 -0.178615
-0.168103 0.0200945 -0.178613
-0.180309 0.0200716 -0.17861
-0.189445 0.0200545 -0.178607
-0.198565 0.0200374 -0.178605
-0.133038 0.0307369 0.105377
-0.132488 0.0278486 -0.00440145
-0.132034 0.0254572 -0.0952958
-0.131651 0.0234441 -0.17181
-0.207671 0.0231005 -0.178603
-0.219787 0.0230743 -0.1786
-0.228855 0.0230547 -0.178597
-0.237909 0.0230351 -0.178595
-0.133903 0.0355018 0.127799
-0.133261 0.0321081 0.0139768
-0.132731 0.0293069 -0.0799721
-0.132287 0.0269557 -0.158826
-0.134802 0.0404528 0.151096
-0.134061 0.0365176 0.0330026
-0.133451 0.0332802 -0.0641518
-0.132942 0.0305708 -0.14546
-0.134393 0.0294612 -0.178622
-0.143607 0.029436 -0.178619
-0.152806 0.0294108 -0.178617
-0.165047 0.0293773 -0.178614
-0.174209 0.0293522 -0.178611
-0.183356 0.0293272 -0.178609
-0.195527 0.0292938 -0.178606
-0.135652 0.0455205 0.173135
-0.134889 0.0410853 0.0527109
-0.134195 0.0373835 -0.0478044
-0.133616 0.034294 -0.131694
-0.135657 0.0457328 0.0709748
-0.134964 0.0416229 -0.0309149
-0.134311 0.0381304 -0.117506
-0.204637 0.0354307 -0.178603
-0.213732 0.0354006 -0.178601
-0.222811 0.0353705 -0.178599
-0.234893 0.0353304 -0.178596
-0.136411 0.0504932 0.0889024
-0.135663 0.0459131 -0.0155667
-0.135028 0.0420855 -0.102871
-0.134413 0.0387816 -0.178236
-0.143607 0.0387316 -0.178619
-0.152806 0.0386984 -0.178617
-0.165047 0.0386543 -0.178614
-0.174209 0.0386213 -0.178611
-0.183356 0.0385883 -0.178609
-0.195527 0.0385445 -0.178606
-0.137191 0.055408 0.107441
-0.136358 0.0503073 -0.000287056
-0.135667 0.0460678 -0.0898274
-0.135084 0.0424873 -0.165449
-0.137996 0.0604833 0.126588
-0.137074 0.0548313 0.0154436
-0.136313 0.0501482 -0.076649
-0.135671 0.0462021 -0.154248
-0.204637 0.0446736 -0.178603
-0.213732 0.0446355 -0.178601
-0.222811 0.0445976 -0.178599
-0.234893 0.0445471 -0.178596
-0.138828 0.0657269 0.146371
-0.137812 0.0594916 0.0316616
-0.136976 0.0543402 -0.06311
-0.136273 0.0500104 -0.142765
-0.137466 0.0480546 -0.178621
-0.143607 0.0480271 -0.178619
-0.152806 0.047986 -0.178617
-0.165047 0.0479314 -0.178614
-0.174209 0.0478904 -0.178611
-0.183356 0.0478496 -0.178609
-0.195527 0.0477952 -0.178606
-0.139687 0.0711474 0.166821
-0.138574 0.0642951 0.0483938
-0.137657 0.0586485 -0.0491954
-0.136891 0.0539158 -0.130989
-0.139359 0.0692472 0.0656435
-0.138358 0.063078 -0.034889
-0.137525 0.0579221 -0.118909
-0.204637 0.0539163 -0.178603
-0.213732 0.0538704 -0.178601
-0.222811 0.0538246 -0.178599
-0.234893 0.0537637 -0.178596
-0.140169 0.074355 0.083436
-0.139081 0.0676361 -0.020142
-0.138175 0.0620333 -0.106513
-0.140927 0.0795105 0.100103
-0.139824 0.0723263 -0.00496721
-0.138842 0.0662535 -0.0937876
-0.138015 0.0611247 -0.1688
-0.140538 0.0604385 -0.17862
-0.149742 0.0603868 -0.178618
-0.15893 0.0603351 -0.178615
-0.168103 0.0602835 -0.178613
-0.180309 0.0602149 -0.17861
-0.189445 0.0601636 -0.178607
-0.141634 0.0847003 0.115623
-0.140581 0.077143 0.010491
-0.139528 0.0705883 -0.0807043
-0.138637 0.0650553 -0.157686
-0.198565 0.063195 -0.178605
-0.207671 0.0631412 -0.178603
-0.219787 0.0630696 -0.1786
-0.228855 0.063016 -0.178597
-0.237909 0.0629625 -0.178595
-0.142355 0.0900234 0.131473
-0.141229 0.0819007 0.0237263
-0.140234 0.0750423 -0.0672511
-0.139274 0.0690843 -0.146293
-0.143096 0.0954913 0.147753
-0.141894 0.0867768 0.037291
-0.140882 0.0795045 -0.0548899
-0.139927 0.073216 -0.134608
-0.140538 0.0697367 -0.17862
-0.149742 0.069677 -0.178618
-0.15893 0.0696175 -0.178615
-0.168103 0.069558 -0.178613
-0.180309 0.0694788 -0.17861
-0.189445 0.0694195 -0.178607
-0.143858 0.10111 0.164482
-0.142573 0.0917724 0.0511552
-0.141494 0.0839959 -0.0432253
-0.140582 0.077432 -0.122891
-0.143266 0.0968895 0.065308
-0.14212 0.0885921 -0.0312885
-0.141149 0.0815946 -0.112753
-0.198565 0.0755257 -0.178605
-0.207671 0.0754614 -0.178603
-0.219787 0.0753759 -0.1786
-0.228855 0.0753118 -0.178597
-0.237909 0.0752479 -0.178595
-0.143977 0.102138 0.0798239
-0.142761 0.0932969 -0.0190698
-0.141728 0.0858477 -0.102395
-0.140848 0.0795 -0.173398
-0.149742 0.0789673 -0.178617
-0.15893 0.0788998 -0.178615
-0.168103 0.0788324 -0.178613
-0.180309 0.0787427 -0.17861
-0.189445 0.0786755 -0.178607
-0.144707 0.107523 0.094717
-0.143414 0.0981092 -0.00661123
-0.14232 0.0901941 -0.0918095
-0.141386 0.0834573 -0.164325
-0.145408 0.112957 0.109036
-0.144081 0.103033 0.00610375
-0.142925 0.0946372 -0.0809888
-0.141936 0.087496 -0.155065
-0.198565 0.0847738 -0.178605
-0.207671 0.0847016 -0.178603
-0.219787 0.0846056 -0.1786
-0.228855 0.0845337 -0.178597
-0.237909 0.0844619 -0.178595
-0.146015 0.118297 0.121416
-0.144764 0.108077 0.0191276
-0.143543 0.09918 -0.0699251
-0.142497 0.0916183 -0.145613
-0.143607 0.088308 -0.178619
-0.152806 0.0882324 -0.178617
-0.165047 0.0881318 -0.178614
-0.174209 0.0880566 -0.178611
-0.183356 0.0879814 -0.178609
-0.146638 0.123761 0.13415
-0.145411 0.113141 0.0314642
-0.144173 0.10382 -0.0586698
-0.14307 0.0958272 -0.135964
-0.147276 0.129343 0.14716
-0.145976 0.118124 0.0422326
-0.144815 0.108563 -0.0471835
-0.143655 0.100125 -0.126109
-0.195527 0.0940486 -0.178606
-0.204637 0.0939685 -0.178603
-0.213732 0.0938885 -0.178601
-0.222811 0.0938087 -0.178599
-0.234893 0.0937024 -0.178596
-0.147927 0.135048 0.160455
-0.146552 0.123205 0.0532145
-0.145414 0.113302 -0.0364646
-0.144253 0.104515 -0.116044
-0.143607 0.0976036 -0.178619
-0.152806 0.09752 -0.178617
-0.148592 0.140879 0.174044
-0.147145 0.1284 0.0645121
-0.145944 0.117974 -0.0269964
-0.14486 0.108993 -0.105826
-0.165047 0.100501 -0.178614
-0.174209 0.100415 -0.178611
-0.183356 0.10033 -0.178609
-0.14775 0.1337 0.0760454
-0.146483 0.122732 -0.0173522
-0.145417 0.113444 -0.0964431
-0.144321 0.10513 -0.167255
-0.195527 0.103299 -0.178606
-0.204637 0.103211 -0.178603
-0.213732 0.103123 -0.178601
-0.222811 0.103036 -0.178599
-0.234893 0.102919 -0.178596
-0.148367 0.139111 0.0878164
-0.148997 0.144633 0.0998327
-0.147595 0.132527 0.002545
-0.146422 0.122316 -0.0795156
-0.145419 0.113571 -0.14979
-0.146675 0.109966 -0.178618
-0.152806 0.109904 -0.178617
-0.165047 0.109778 -0.178613
-0.174209 0.109685 -0.178611
-0.183356 0.109591 -0.178609
-0.149517 0.149971 0.109743
-0.148171 0.137573 0.01284
-0.146937 0.126868 -0.0708284
-0.145889 0.117724 -0.142303
-0.195527 0.11255 -0.178606
-0.150004 0.155297 0.119028
-0.148758 0.142717 0.0233356
-0.147462 0.131502 -0.0619869
-0.204637 0.115535 -0.178603
-0.213732 0.115437 -0.178601
-0.222811 0.115339 -0.178599
-0.234893 0.115208 -0.178596
-0.150497 0.160704 0.128439
-0.149299 0.147826 0.0330222
-0.146853 0.126238 -0.126956
-0.146675 0.119259 -0.178618
-0.152806 0.119191 -0.178617
-0.165047 0.119055 -0.178613
-0.174209 0.118954 -0.178611
-0.183356 0.118852 -0.178609
-0.150999 0.166198 0.138002
-0.148548 0.141037 -0.0437061
-0.151509 0.171781 0.147719
-0.150215 0.157822 0.0494024
-0.149107 0.14594 -0.0342892
-0.14785 0.135039 -0.11109
-0.195527 0.124884 -0.178606
-0.204637 0.124778 -0.178603
-0.213732 0.124672 -0.178601
-0.222811 0.124566 -0.178599
-0.234893 0.124425 -0.178596
-0.152027 0.177455 0.157594
-0.150681 0.162928 0.05774
-0.149533 0.150585 -0.0271045
-0.147245 0.129798 -0.170019
-0.149742 0.128515 -0.178618
-0.15893 0.128406 -0.178615
-0.168103 0.128296 -0.178613
-0.180309 0.12815 -0.17861
-0.152484 0.183027 0.166321
-0.148887 0.144155 -0.0945926
-0.15286 0.188423 0.173489
-0.151634 0.17337 0.0747836
-0.150401 0.160063 -0.0124834
-0.149339 0.148639 -0.0874017
-0.148202 0.138244 -0.155591
-0.189445 0.134211 -0.178607
-0.198565 0.134097 -0.178605
-0.207671 0.133983 -0.178603
-0.219787 0.133831 -0.1786
-0.228855 0.133717 -0.178597
-0.237909 0.133603 -0.178595
-0.152122 0.17871 0.0835007
-0.149742 0.137806 -0.178618
-0.15893 0.137688 -0.178615
-0.168103 0.13757 -0.178613
-0.151292 0.169804 0.00250947
-0.150153 0.157532 -0.0744427
-0.149165 0.146908 -0.141055
-0.180309 0.140502 -0.17861
-0.152875 0.188931 0.0969779
-0.189445 0.143467 -0.178607
-0.198565 0.143345 -0.178605
-0.207671 0.143223 -0.178603
-0.219787 0.14306 -0.1786
-0.228855 0.142939 -0.178597
-0.237909 0.142817 -0.178595
-0.153232 0.194053 0.103358
-0.152206 0.179822 0.017903
-0.150989 0.166663 -0.0611359
-0.149932 0.155283 -0.12949
-0.149742 0.150193 -0.178618
-0.15893 0.150064 -0.178615
-0.168103 0.149936 -0.178613
-0.180309 0.149765 -0.17861
-0.153957 0.204467 0.11633
-0.152889 0.189383 0.0294107
-0.151844 0.176033 -0.0475196
-0.150718 0.16387 -0.117632
-0.189445 0.152723 -0.178607
-0.198565 0.152593 -0.178605
-0.154326 0.209761 0.122924
-0.152277 0.180802 -0.0406408
-0.151119 0.168245 -0.111589
-0.207671 0.155543 -0.178603
-0.219787 0.155367 -0.1786
-0.228855 0.155235 -0.178597
-0.237909 0.155103 -0.178595
-0.153563 0.199078 0.0407714
-0.150476 0.161375 -0.168086
-0.152806 0.159437 -0.178617
-0.165047 0.159256 -0.178614
-0.174209 0.15912 -0.178611
-0.154941 0.220085 0.133923
-0.152901 0.189784 -0.0307044
-0.151934 0.177161 -0.0992961
-0.154253 0.208978 0.0523819
-0.151236 0.169676 -0.157194
-0.183356 0.165158 -0.178609
-0.195527 0.16497 -0.178606
-0.204637 0.16483 -0.178603
-0.213732 0.16469 -0.178601
-0.222811 0.16455 -0.178599
-0.234893 0.164363 -0.178596
-0.155412 0.230074 0.14235
-0.154603 0.214007 0.0582787
-0.153538 0.198942 -0.0205735
-0.152614 0.185864 -0.0890226
-0.152806 0.168725 -0.178617
-0.165047 0.168533 -0.178614
-0.174209 0.168389 -0.178611
-0.152014 0.178179 -0.146038
-0.15589 0.240203 0.150896
-0.155081 0.22345 0.0663354
-0.154188 0.208284 -0.0102255
-0.153212 0.194463 -0.0800083
-0.183356 0.174419 -0.178609
-0.195527 0.174221 -0.178606
-0.204637 0.174073 -0.178603
-0.213732 0.173925 -0.178601
-0.222811 0.173777 -0.178599
-0.234893 0.17358 -0.178596
-0.152639 0.186398 -0.137075
-0.152806 0.178013 -0.178617
-0.165047 0.17781 -0.178614
-0.174209 0.177658 -0.178611
-0.156368 0.250454 0.159449
-0.155527 0.232893 0.0738428
-0.154788 0.217608 -0.000671983
-0.153821 0.203221 -0.0708261
-0.153207 0.194573 -0.128931
-0.183356 0.183681 -0.178609
-0.195527 0.183472 -0.178606
-0.204637 0.183316 -0.178603
-0.213732 0.18316 -0.178601
-0.222811 0.183004 -0.178599
-0.234893 0.182797 -0.178596
-0.156607 0.259922 0.163731
-0.154442 0.212147 -0.0614573
-0.156206 0.247293 0.0852796
-0.155417 0.230918 0.00934768
-0.153785 0.202891 -0.120644
-0.152931 0.190761 -0.176917
-0.165047 0.190179 -0.178613
-0.174209 0.190017 -0.178611
-0.156848 0.269454 0.168034
-0.154921 0.220737 -0.0542282
-0.183356 0.192942 -0.178609
-0.195527 0.192722 -0.178606
-0.204637 0.192558 -0.178603
-0.156502 0.256443 0.0902767
-0.155842 0.239927 0.0161095
-0.154374 0.211359 -0.112204
-0.153476 0.198616 -0.169462
-0.213732 0.195473 -0.178601
-0.222811 0.195307 -0.178599
-0.234893 0.195085 -0.178596
-0.15709 0.279052 0.172367
-0.155319 0.229152 -0.0482255
-0.155869 0.199627 -0.178616
-0.165047 0.199456 -0.178613
-0.174209 0.199286 -0.178611
-0.156729 0.265393 0.0940917
-0.156272 0.249049 0.0229542
-0.154853 0.219588 -0.105328
-0.154031 0.206604 -0.161881
-0.157254 0.288386 0.175298
-0.155721 0.237667 -0.0421531
-0.183356 0.20529 -0.178609
-0.195527 0.205057 -0.178606
-0.204637 0.204882 -0.178603
-0.213732 0.204708 -0.178601
-0.222811 0.204534 -0.178599
-0.234893 0.204302 -0.178596
-0.156956 0.274398 0.0979192
-0.156515 0.257563 0.0268122
-0.15523 0.227567 -0.0999198
-0.154596 0.214728 -0.154168
-0.155869 0.208912 -0.178616
-0.165047 0.208733 -0.178613
-0.174209 0.208555 -0.178611
-0.157305 0.301619 0.176218
-0.157185 0.283464 0.101772
-0.156322 0.250588 -0.0330882
-0.183356 0.214551 -0.178609
-0.195527 0.214307 -0.178606
-0.204637 0.214125 -0.178603
-0.213732 0.213943 -0.178601
-0.222811 0.213761 -0.178599
-0.234893 0.213519 -0.178596
-0.156838 0.270274 0.0319496
-0.155804 0.239705 -0.0916917
-0.15515 0.226135 -0.146592
-0.155869 0.218197 -0.178616
-0.165047 0.21801 -0.178613
-0.174209 0.217824 -0.178611
-0.15734 0.310453 0.176833
-0.156526 0.258565 -0.0300177
