ply
format ascii 1.0
comment Created by Open3D
element vertex 1624
property double x
property double y
property double z
end_header
-0.00301129 -0.126182 0.273311
-0.320847 -0.115458 0.0147888
-0.312129 -0.116444 0.0148017
-0.240943 -0.124861 0.0114719
-0.230793 -0.126008 0.0114876
-0.220456 -0.127176 0.0115038
-0.169565 -0.132927 0.0115831
-0.161916 -0.133791 0.011595
-0.150256 -0.135109 0.0116132
-0.00318193 -0.135153 0.164781
-0.00316453 -0.133957 0.175825
-0.00306654 -0.127209 0.238197
-0.00305116 -0.126149 0.247986
-0.340452 -0.111265 0.00940335
-0.29816 -0.115734 0.0113826
-0.292097 -0.116404 0.0113919
-0.209925 -0.125481 0.0115202
-0.199195 -0.126666 0.0115369
-0.191928 -0.127469 0.0115482
-0.142354 -0.132945 0.0116256
-0.130302 -0.134277 0.0116444
-0.122133 -0.135179 0.0116572
-0.0032298 -0.135335 0.134342
-0.00321162 -0.134109 0.145929
-0.00319958 -0.133305 0.153537
-0.0031088 -0.127198 0.21127
-0.00309795 -0.126474 0.218116
-0.00308216 -0.125403 0.228242
-0.00641084 -0.117182 0.302359
-0.00640142 -0.116564 0.308201
-0.00638294 -0.115348 0.319702
-0.279757 -0.11506 0.0114112
-0.270312 -0.116079 0.0114259
-0.260697 -0.117117 0.011441
-0.180854 -0.125734 0.0115656
-0.169565 -0.126952 0.0115831
-0.109671 -0.133416 0.0116766
-0.101222 -0.134328 0.0116898
-0.00327361 -0.135105 0.106465
-0.00326097 -0.134269 0.114553
-0.00324827 -0.133443 0.122541
-0.00315309 -0.127187 0.18308
-0.00313616 -0.126079 0.193805
-0.00300157 -0.117226 0.279472
-0.00298733 -0.116284 0.288588
-0.00636935 -0.111821 0.328171
-0.00291073 -0.111218 0.337602
-0.332244 -0.106473 0.0147718
-0.250909 -0.115393 0.0114563
-0.240943 -0.116443 0.0114719
-0.161916 -0.124771 0.011595
-0.150256 -0.126 0.0116132
-0.142354 -0.126833 0.0116256
-0.0883284 -0.132526 0.0117099
-0.0795833 -0.133448 0.0117235
-0.0707158 -0.134382 0.0117374
-0.0617231 -0.13533 0.0117514
-0.00332606 -0.135295 0.0730793
-0.00330615 -0.134011 0.0857967
-0.00329292 -0.133169 0.0941418
-0.00319958 -0.127176 0.153537
-0.00318193 -0.126041 0.164781
-0.00316453 -0.124927 0.175825
-0.00304604 -0.117319 0.251213
-0.00303596 -0.116673 0.257614
-0.00301623 -0.115403 0.270206
-0.320847 -0.10508 0.0147888
-0.312129 -0.105977 0.0148017
-0.230793 -0.114681 0.0114876
-0.220456 -0.115744 0.0115038
-0.209925 -0.116827 0.0115202
-0.130302 -0.125016 0.0116444
-0.122133 -0.125856 0.0116572
-0.109671 -0.127138 0.0116766
-0.0479938 -0.133481 0.0117728
-0.0386767 -0.134439 0.0117873
-0.0292249 -0.135411 0.0118021
-0.00338125 -0.135495 0.0379442
-0.00336021 -0.134176 0.0513335
-0.0033465 -0.133311 0.0601159
-0.00324827 -0.127164 0.122541
-0.0032298 -0.126002 0.134342
-0.00321162 -0.12486 0.145929
-0.00309265 -0.117417 0.221511
-0.00308216 -0.116754 0.228242
-0.00306654 -0.115774 0.238197
0.00387186 -0.112496 0.278678
-0.00638294 -0.107393 0.319702
-0.340452 -0.101034 0.00940317
-0.199195 -0.115019 0.0115369
-0.191928 -0.115748 0.0115482
-0.180854 -0.116859 0.0115656
-0.101222 -0.124846 0.0116898
-0.0883284 -0.12614 0.0117099
-0.0795833 -0.127017 0.0117235
-0.0196353 -0.13303 0.011817
-0.00990504 -0.134006 0.0118322
-0.00340998 -0.133904 0.0196769
-0.00339562 -0.133021 0.0288708
-0.00329959 -0.127151 0.0899824
-0.00328642 -0.126355 0.0982751
-0.00326723 -0.125178 0.110521
-0.00313616 -0.117179 0.193805
-0.00311971 -0.116167 0.204344
-0.00641084 -0.106407 0.302359
-0.00640142 -0.105846 0.308201
-0.169565 -0.115004 0.0115831
-0.161917 -0.115752 0.0115951
-0.150256 -0.116892 0.0116132
-0.0707158 -0.124668 0.0117374
-0.0617231 -0.125547 0.0117514
-0.0479938 -0.12689 0.0117728
-0.00335336 -0.127138 0.0557389
-0.00333959 -0.126321 0.0644648
-0.00332606 -0.125514 0.0730793
-0.00318772 -0.117278 0.161055
-0.00317603 -0.116583 0.168484
-0.00315875 -0.115555 0.179463
-0.00636935 -0.101297 0.328171
-0.00291073 -0.100751 0.337602
-0.332244 -0.096211 0.0147718
-0.320847 -0.0972963 0.0147888
-0.142354 -0.114608 0.0116256
-0.130302 -0.115756 0.0116444
-0.122133 -0.116534 0.0116572
-0.0386767 -0.124481 0.0117873
-0.0292249 -0.125381 0.0118021
-0.0196353 -0.126294 0.011817
-0.00990504 -0.127221 0.0118322
-0.00340998 -0.127124 0.0196769
-0.00339562 -0.126285 0.0288708
-0.00338125 -0.125458 0.0379442
-0.00324208 -0.117383 0.126499
-0.0032298 -0.116668 0.134342
-0.00321162 -0.115612 0.145929
0.00269467 -0.112495 0.186214
-0.312129 -0.0955099 0.0148017
-0.109672 -0.114581 0.0116766
-0.101222 -0.115364 0.0116898
-0.0883284 -0.116559 0.0117099
-0.0795833 -0.11737 0.0117235
-0.00329959 -0.117494 0.0899824
-0.00328642 -0.116758 0.0982751
-0.00326723 -0.115671 0.110521
0.00297481 -0.112496 0.152752
-0.00639212 -0.0972937 0.313982
-0.340452 -0.0908029 0.00940305
-0.0036782 -0.135147 -0.151815
-0.0036602 -0.134147 -0.140229
-0.0036425 -0.133162 -0.128814
-0.00362504 -0.132191 -0.117565
-0.00361645 -0.13171 -0.112001
-0.0707158 -0.114954 0.0117374
-0.0617231 -0.115764 0.0117514
-0.0479938 -0.117002 0.0117728
-0.00335336 -0.117231 0.0557389
-0.00333959 -0.116478 0.0644648
-0.00332606 -0.115734 0.0730793
0.00327063 -0.112497 0.117405
0.143025 -0.134222 0.0120713
0.155299 -0.135328 0.0120907
-0.00641084 -0.0956313 0.302359
-0.00375271 -0.135377 -0.199938
-0.00373369 -0.134345 -0.187632
-0.00372428 -0.133835 -0.181549
-0.00370562 -0.132826 -0.169521
-0.00368726 -0.131832 -0.157673
-0.00359941 -0.127077 -0.100995
-0.0035826 -0.126167 -0.0901468
-0.00356597 -0.12527 -0.0794528
-0.00354958 -0.124385 -0.0689096
-0.0386767 -0.114522 0.0117873
-0.0292249 -0.11535 0.0118021
-0.0196353 -0.116191 0.011817
-0.00990504 -0.117043 0.0118322
-0.00340998 -0.116954 0.0196769
-0.00339562 -0.116183 0.0288708
-0.00338125 -0.115421 0.0379442
0.084547 -0.125318 0.0119788
0.0958724 -0.12631 0.0119967
0.107378 -0.127318 0.012015
0.1132 -0.127828 0.0120242
0.124986 -0.128861 0.0120428
0.136963 -0.12991 0.0120619
0.167777 -0.13261 0.0121105
0.180465 -0.133721 0.0121306
0.193366 -0.134851 0.012151
-0.00637841 -0.0912446 0.32254
-0.00391448 -0.09062 0.332546
-0.332244 -0.0859484 0.0147718
-0.320847 -0.0869181 0.0147888
-0.00382203 -0.135087 -0.24454
-0.00380182 -0.134028 -0.231547
-0.00378203 -0.132986 -0.218756
-0.00377202 -0.132471 -0.212435
-0.00366908 -0.12706 -0.146001
-0.00365126 -0.126123 -0.1345
-0.00353348 -0.119933 -0.0585144
-0.00351763 -0.119098 -0.0482638
-0.00350189 -0.118275 -0.0381551
-0.00348639 -0.117462 -0.0281852
0.0357102 -0.117531 0.0119016
0.0462725 -0.11843 0.0119182
0.0569975 -0.119342 0.0119352
0.067889 -0.120269 0.0119525
0.143025 -0.12666 0.0120713
0.206488 -0.132059 0.0121717
0.213133 -0.132624 0.0121824
0.226596 -0.133769 0.0122037
0.233414 -0.134349 0.0122145
-0.312129 -0.0850431 0.0148017
-0.00396276 -0.138145 -0.334266
-0.00390577 -0.135329 -0.298632
-0.00389504 -0.134779 -0.291678
-0.00387377 -0.133694 -0.277939
-0.0038631 -0.133157 -0.271152
-0.00384247 -0.132097 -0.25774
-0.00374323 -0.127041 -0.193762
-0.00372428 -0.126076 -0.181549
-0.00370562 -0.125126 -0.169521
-0.0036338 -0.121462 -0.123168
-0.00361645 -0.12058 -0.112001
-0.00354958 -0.117175 -0.0689096
-0.00347126 -0.113179 -0.0183511
-0.00294328 -0.112494 -0.00915039
0.0114244 -0.112497 0.00581622
0.0201639 -0.11274 0.0118769
0.1132 -0.120418 0.0120242
0.124986 -0.121391 0.0120428
0.136963 -0.122379 0.0120619
0.155299 -0.123892 0.0120907
0.167777 -0.124922 0.0121105
0.180465 -0.125969 0.0121306
0.193366 -0.127034 0.012151
0.247231 -0.131479 0.0122364
0.25423 -0.132057 0.0122474
0.268415 -0.133227 0.0122699
0.282853 -0.134419 0.0122928
0.331309 -0.138599 0.010085
-0.00640613 -0.0873184 0.305288
-0.00639212 -0.0866314 0.313982
-0.340452 -0.0805716 0.00940281
-0.00394976 -0.13334 -0.327022
-0.00392771 -0.132243 -0.31271
-0.00382203 -0.127022 -0.24454
-0.00380182 -0.126027 -0.231547
-0.00378203 -0.125047 -0.218756
-0.00368726 -0.120368 -0.157673
-0.00359941 -0.116027 -0.100995
-0.0035826 -0.115196 -0.0901468
-0.00356597 -0.114377 -0.0794528
-0.00280339 -0.112494 -0.0541211
0.05396 -0.112496 0.00512993
0.078951 -0.113973 0.0119699
0.0901874 -0.114872 0.0119877
0.101602 -0.115785 0.0120058
0.213133 -0.124706 0.0121824
0.226596 -0.125783 0.0122037
0.233414 -0.126329 0.0122145
0.297552 -0.131459 0.0123159
0.312519 -0.132656 0.0123397
-0.00291073 -0.0824325 0.337602
-0.00735348 -0.126898 -0.300838
-0.00389504 -0.126485 -0.291678
-0.00387377 -0.125466 -0.277939
-0.0038631 -0.124963 -0.271152
-0.00377202 -0.120608 -0.212435
-0.00370562 -0.117426 -0.169521
-0.0036782 -0.116112 -0.151815
-0.0036602 -0.115253 -0.140229
0.143025 -0.115317 0.0120713
0.155299 -0.116268 0.0120907
0.167777 -0.117235 0.0121105
0.206488 -0.120233 0.0121717
0.268415 -0.125029 0.0122699
0.282853 -0.126147 0.0122928
0.330102 -0.129551 0.0158095
-0.00637841 -0.0806655 0.32254
-0.332244 -0.075686 0.0147718
-0.320847 -0.0765398 0.0147888
-0.312129 -0.0771929 0.0148017
-0.00739491 -0.124781 -0.329328
-0.00384247 -0.119904 -0.25774
-0.00378203 -0.117107 -0.218756
-0.00375271 -0.115757 -0.199938
-0.00373369 -0.114875 -0.187632
-0.00372428 -0.114438 -0.181549
0.00277734 -0.112495 -0.14771
0.180465 -0.114341 0.0121306
0.193366 -0.115308 0.012151
0.213133 -0.116788 0.0121824
0.247231 -0.119343 0.0122364
0.25423 -0.119867 0.0122474
0.3148 -0.124157 0.0157852
-0.00738442 -0.120051 -0.322117
-0.0073638 -0.119064 -0.307873
-0.00387377 -0.117239 -0.277939
-0.0038631 -0.116769 -0.271152
-0.0038321 -0.11538 -0.251114
-0.00381184 -0.114473 -0.238018
-0.00380182 -0.114024 -0.231547
-0.00232381 -0.112495 -0.20797
0.00312662 -0.112494 -0.202269
0.204962 -0.112496 0.00844938
0.226596 -0.113804 0.0122037
0.233414 -0.114297 0.0122145
0.268415 -0.11683 0.0122699
0.297552 -0.118939 0.0123159
0.330102 -0.121056 0.0158095
-0.00641084 -0.0767744 0.302359
-0.00640142 -0.0763696 0.308201
-0.340452 -0.0703403 0.00940281
-0.00739491 -0.116321 -0.329328
-0.00735348 -0.114416 -0.300838
-0.00389504 -0.114044 -0.291678
0.260713 -0.112494 0.00776362
0.282853 -0.113739 0.0122928
0.3148 -0.11574 0.0157852
-0.00636935 -0.0723547 0.328171
-0.00291073 -0.0719649 0.337602
-0.00738442 -0.111626 -0.322117
-0.0073638 -0.110709 -0.307873
0.00263917 -0.110919 -0.300682
0.301469 -0.111343 0.00477183
0.301488 -0.110708 0.0146355
-0.00638294 -0.0702693 0.319702
-0.332244 -0.0654234 0.0147718
-0.320847 -0.0661615 0.0147888
-0.312129 -0.0667261 0.0148017
-0.00735348 -0.106095 -0.300838
0.3148 -0.107322 0.0157852
0.330102 -0.108313 0.0158095
-0.00739491 -0.103631 -0.329328
-0.0073638 -0.102353 -0.307873
0.301488 -0.102353 0.0146355
-0.00641084 -0.0659991 0.302359
-0.00640142 -0.0656511 0.308201
-0.340452 -0.0601089 0.00940281
-0.00738442 -0.0989895 -0.322117
0.00263917 -0.0983617 -0.300682
0.301469 -0.0987384 0.00477183
0.330102 -0.0998179 0.0158095
-0.00638294 -0.0623143 0.319702
-0.00636935 -0.0618304 0.328171
-0.00291073 -0.0614973 0.337602
-0.00739491 -0.0951718 -0.329328
-0.00735348 -0.0936129 -0.300838
0.3148 -0.094696 0.0157852
-0.332244 -0.055161 0.0147718
-0.320847 -0.0557832 0.0147888
-0.312129 -0.0562593 0.0148017
-0.00738442 -0.0905649 -0.322117
-0.0073638 -0.0898201 -0.307873
0.00263917 -0.0899905 -0.300682
0.301469 -0.0903351 0.00477183
0.301488 -0.0898197 0.0146355
0.330102 -0.0913228 0.0158095
-0.00639683 -0.0574607 0.311099
-0.340452 -0.0524355 0.00940281
-0.00739491 -0.0867121 -0.329328
-0.00735348 -0.0852918 -0.300838
0.3148 -0.0862786 0.0157852
-0.00641084 -0.0552237 0.302359
-0.00738442 -0.0821403 -0.322117
-0.0073638 -0.0814648 -0.307873
0.00263917 -0.0816193 -0.300682
0.301469 -0.0819318 0.00477183
0.301488 -0.0814644 0.0146355
-0.00638294 -0.0517076 0.319702
-0.00636935 -0.051306 0.328171
-0.00291073 -0.0510296 0.337602
-0.332244 -0.0474641 0.0147718
-0.00735348 -0.0769706 -0.300838
0.330102 -0.0785801 0.0158095
-0.320847 -0.045405 0.0147888
-0.312129 -0.0457924 0.0148017
-0.00739491 -0.0740225 -0.329328
0.3148 -0.0736524 0.0157852
-0.00641084 -0.0471422 0.302359
-0.00640142 -0.0468936 0.308201
-0.340452 -0.0422041 0.00940293
-0.00738442 -0.0695033 -0.322117
-0.0073638 -0.0689317 -0.307873
0.00263917 -0.0690625 -0.300682
0.301469 -0.0693269 0.00477183
0.301488 -0.0689314 0.0146355
0.330102 -0.0700849 0.0158095
-0.00739491 -0.0655628 -0.329328
-0.00735348 -0.0644889 -0.300838
0.3148 -0.065235 0.0157852
-0.00638294 -0.0411009 0.319702
-0.00636935 -0.0407817 0.328171
-0.00291073 -0.040562 0.337602
-0.332244 -0.0372016 0.0147718
-0.00738442 -0.0610786 -0.322117
-0.0073638 -0.0605764 -0.307873
0.00263917 -0.0606913 -0.300682
0.301469 -0.0609237 0.00477183
0.301488 -0.060576 0.0146355
0.330102 -0.0615898 0.0158095
-0.320847 -0.0350267 0.0147888
-0.312129 -0.0353256 0.0148017
-0.00739491 -0.0571031 -0.329328
-0.00735348 -0.0561677 -0.300838
0.3148 -0.0568176 0.0157852
-0.00641084 -0.0363668 0.302359
-0.00640142 -0.0361751 0.308201
-0.340452 -0.0319728 0.00940293
-0.00737393 -0.0524366 -0.314965
0.00263917 -0.0523201 -0.300682
0.301477 -0.05237 0.00971901
0.330102 -0.0488471 0.0158095
-0.00638294 -0.0304942 0.319702
-0.00636935 -0.0302574 0.328171
-0.00291073 -0.0300944 0.337602
-0.332244 -0.0269391 0.0147718
-0.320847 -0.027243 0.0147888
-0.312129 -0.0274755 0.0148017
-0.00739491 -0.0444135 -0.329328
-0.00735348 -0.043686 -0.300838
0.3148 -0.0441915 0.0157852
-0.00738442 -0.0400171 -0.322117
-0.0073638 -0.039688 -0.307873
0.00263917 -0.0397633 -0.300682
0.301469 -0.0399155 0.00477183
0.301488 -0.0396878 0.0146355
0.330102 -0.0403519 0.0158095
-0.00641084 -0.0255915 0.302359
-0.00640142 -0.0254565 0.308201
-0.340452 -0.0217415 0.00940293
-0.00739491 -0.0359538 -0.329328
-0.00735348 -0.0353649 -0.300838
0.3148 -0.035774 0.0157852
-0.00637841 -0.0224806 0.32254
-0.00391448 -0.0223267 0.332546
-0.00738442 -0.0315924 -0.322117
-0.0073638 -0.0313326 -0.307873
0.00263917 -0.031392 -0.300682
0.301469 -0.0315122 0.00477183
0.301488 -0.0313324 0.0146355
0.330102 -0.0318568 0.0158095
-0.332244 -0.0166766 0.0147718
-0.320847 -0.0168647 0.0147888
-0.312129 -0.0170086 0.0148017
-0.00739491 -0.0274941 -0.329328
-0.00735348 -0.0270437 -0.300838
0.3148 -0.0273566 0.0157852
-0.00640613 -0.0174637 0.305288
-0.00639212 -0.0173263 0.313982
-0.340452 -0.0115102 0.00940281
-0.00738442 -0.0189554 -0.322117
-0.0073638 -0.0187996 -0.307873
0.00263917 -0.0188352 -0.300682
0.301469 -0.0189073 0.00477183
0.301488 -0.0187995 0.0146355
0.330102 -0.0191141 0.0158095
-0.00637841 -0.0119015 0.32254
-0.00391448 -0.01182 0.332546
-0.00739491 -0.0148045 -0.329328
-0.00735348 -0.014562 -0.300838
0.3148 -0.0147305 0.0157852
-0.332244 -0.00641407 0.0147718
-0.320847 -0.00648643 0.0147888
-0.312129 -0.00654178 0.0148017
-0.00738442 -0.0105308 -0.322117
-0.0073638 -0.0104442 -0.307873
0.00263917 -0.010464 -0.300682
0.301469 -0.0105041 0.00477183
0.301488 -0.0104442 0.0146355
0.330102 -0.0106189 0.0158095
-0.00641084 -0.0067346 0.302359
-0.00640142 -0.00669909 0.308201
-0.00739491 -0.0063448 -0.329328
-0.00735348 -0.00624087 -0.300838
0.3148 -0.00631308 0.0157852
-0.340452 -0.00127892 0.00940293
-0.00738442 -0.00210617 -0.322117
-0.0073638 -0.00208885 -0.307873
0.00263917 -0.00209282 -0.300682
0.301469 -0.00210083 0.00477183
0.301488 -0.00208884 0.0146355
0.330102 -0.0021238 0.0158095
-0.00638294 -0.00132584 0.319702
-0.00636935 -0.00131555 0.328171
-0.00291073 -0.00130846 0.337602
-0.332244 0.00384843 0.0147718
-0.320847 0.00389184 0.0147888
-0.312129 0.00392505 0.0148017
-0.00739491 0.00634477 -0.329328
-0.00735348 0.00624084 -0.300838
0.3148 0.00631305 0.0157852
-0.00641084 0.00404075 0.302359
-0.00640142 0.00401944 0.308201
-0.00738442 0.0105308 -0.322117
-0.0073638 0.0104442 -0.307873
0.00263917 0.010464 -0.300682
0.301469 0.0105041 0.00477183
0.301488 0.0104442 0.0146355
0.330102 0.0106189 0.0158095
-0.340452 0.00895238 0.00940317
-0.00739491 0.0148045 -0.329328
-0.00735348 0.014562 -0.300838
0.3148 0.0147305 0.0157852
-0.00638294 0.00928083 0.319702
-0.00636935 0.00920876 0.328171
-0.00291073 0.00915915 0.337602
-0.00738442 0.0189554 -0.322117
-0.0073638 0.0187996 -0.307873
0.00263917 0.0188352 -0.300682
0.301469 0.0189073 0.00477183
0.301488 0.0187995 0.0146355
0.330102 0.0191141 0.0158095
-0.332244 0.014111 0.0147718
-0.320847 0.0142701 0.0147888
-0.312129 0.0143919 0.0148017
-0.00739491 0.0232642 -0.329328
-0.00735348 0.0228832 -0.300838
0.3148 0.0231479 0.0157852
-0.00641084 0.0148161 0.302359
-0.00640142 0.014738 0.308201
0.330102 0.0276092 0.0158095
-0.340452 0.0191837 0.00940341
-0.00738442 0.0315924 -0.322117
-0.0073638 0.0313326 -0.307873
0.00263917 0.0313921 -0.300682
0.301469 0.0315123 0.00477183
0.301488 0.0313325 0.0146355
-0.00638294 0.0198876 0.319702
-0.00636935 0.0197331 0.328171
-0.00291073 0.0196268 0.337602
-0.00739491 0.0359538 -0.329328
-0.00735348 0.0353649 -0.300838
0.3148 0.035774 0.0157852
-0.00641084 0.0228976 0.302359
-0.00640142 0.0227769 0.308201
-0.332244 0.0243734 0.0147718
-0.320847 0.0246484 0.0147888
-0.312129 0.0248587 0.0148017
-0.00738442 0.0400171 -0.322117
-0.0073638 0.039688 -0.307873
0.00263917 0.0397633 -0.300682
0.301469 0.0399155 0.00477183
0.301488 0.0396878 0.0146355
0.330102 0.0403519 0.0158095
-0.00739491 0.0444135 -0.329328
-0.00735348 0.043686 -0.300838
0.3148 0.0441915 0.0157852
-0.00638294 0.0278425 0.319702
-0.00636935 0.0276263 0.328171
-0.340452 0.029415 0.00940359
-0.00738442 0.0484417 -0.322117
-0.0073638 0.0480433 -0.307873
0.00263917 0.0481345 -0.300682
0.301469 0.0483188 0.00477183
0.301488 0.0480431 0.0146355
0.330102 0.0488471 0.0158095
-0.00291073 0.0300944 0.337602
-0.317957 0.0325238 0.0147931
-0.312129 0.0327089 0.0148017
-0.00739491 0.0528732 -0.329328
0.3148 0.0526089 0.0157852
-0.00641084 0.033673 0.302359
-0.00640142 0.0334954 0.308201
-0.332244 0.0346359 0.0147718
-0.00735348 0.0561677 -0.300838
-0.00738442 0.0610787 -0.322117
-0.0073638 0.0605764 -0.307873
0.00263917 0.0606913 -0.300682
0.301469 0.0609237 0.00477183
0.301488 0.0605761 0.0146355
0.330102 0.0615898 0.0158095
-0.00638294 0.0384493 0.319702
-0.00636935 0.0381507 0.328171
-0.00291073 0.0379451 0.337602
-0.340453 0.0396462 0.00940424
-0.00739491 0.0655628 -0.329328
-0.00735348 0.0644889 -0.300838
0.3148 0.065235 0.0157852
-0.326577 0.0425703 0.0147802
-0.315051 0.0430533 0.0147974
-0.306233 0.0434227 0.0148106
-0.00738442 0.0695033 -0.322117
-0.0073638 0.0689318 -0.307873
0.00263917 0.0690625 -0.300682
0.301469 0.069327 0.00477183
0.301488 0.0689314 0.0146355
0.330102 0.0700849 0.0158095
-0.00641084 0.0444484 0.302359
-0.00640142 0.044214 0.308201
-0.00739491 0.0740225 -0.329328
-0.00735348 0.07281 -0.300838
0.3148 0.0736524 0.0157852
-0.333471 0.0475335 0.0119488
-0.00738442 0.0779279 -0.322117
0.301469 0.0777302 0.00477183
0.307253 0.0775066 0.0157732
0.330102 0.0785801 0.0158095
-0.00638294 0.0490559 0.319702
-0.00636935 0.048675 0.328171
-0.00291073 0.0484127 0.337602
-0.0073638 0.0814648 -0.307873
0.00263917 0.0816193 -0.300682
-0.00641084 0.0525299 0.302359
-0.326577 0.0528903 0.0147802
-0.315051 0.0534904 0.0147974
-0.306233 0.0539495 0.0148106
-0.00739491 0.0867121 -0.329328
-0.00735348 0.0852918 -0.300838
0.3148 0.0862786 0.0157852
-0.00640142 0.0549325 0.308201
-0.00738442 0.0905649 -0.322117
-0.0073638 0.0898201 -0.307873
0.00263917 0.0899905 -0.300682
0.301469 0.0903351 0.00477183
0.301488 0.0898196 0.0146355
0.330102 0.0913227 0.0158095
-0.340455 0.0575507 0.00940782
-0.00739491 0.0951718 -0.329328
-0.00735348 0.0936129 -0.300838
0.3148 0.094696 0.0157852
-0.00638294 0.0596626 0.319702
-0.00636935 0.0591993 0.328171
-0.00291073 0.0588803 0.337602
-0.00738442 0.0989896 -0.322117
-0.0073638 0.0981755 -0.307873
0.00263917 0.0983618 -0.300682
0.301469 0.0987384 0.00477183
0.301488 0.098175 0.0146355
0.330102 0.0998179 0.0158095
-0.00641084 0.0633053 0.302359
-0.00640142 0.0629715 0.308201
-0.332244 0.0628578 0.0147718
-0.320847 0.0635669 0.0147887
-0.312129 0.0641094 0.0148017
-0.00739491 0.103631 -0.329328
0.3148 0.103113 0.0157852
-0.00735348 0.106095 -0.300838
0.330102 0.108313 0.0158095
-0.00638294 0.0676176 0.319702
-0.340454 0.067782 0.00940669
-0.00738442 0.111626 -0.322117
-0.0073638 0.110709 -0.307873
-0.00389504 0.109897 -0.291678
-0.00150013 0.10938 -0.281163
0.275137 0.10938 0.0076884
0.282853 0.109603 0.0122928
0.297552 0.110592 0.0123159
-0.00636935 0.0697236 0.328171
-0.00291073 0.069348 0.337602
-0.30326 0.0725788 0.014815
-0.00739491 0.116321 -0.329328
-0.00735348 0.114416 -0.300838
-0.00386328 0.112672 -0.271152
-0.00384247 0.111775 -0.25774
-0.0038321 0.111332 -0.251114
-0.00381184 0.110456 -0.238018
-0.00380182 0.110023 -0.231547
-0.00242037 0.109379 -0.220491
0.214699 0.109381 0.00619519
0.226596 0.109811 0.0122037
0.233414 0.110287 0.0122145
0.247231 0.111252 0.0122364
0.25423 0.11174 0.0122474
0.3148 0.11574 0.0157852
-0.00641084 0.0740806 0.302359
-0.00640142 0.07369 0.308201
-0.332244 0.0731203 0.0147718
-0.320847 0.0739452 0.0147887
-0.00738442 0.120051 -0.322117
-0.0073638 0.119064 -0.307873
-0.00389504 0.118191 -0.291678
-0.00377202 0.1127 -0.212435
-0.00375289 0.111833 -0.199938
-0.00373369 0.110981 -0.187632
-0.00372428 0.110559 -0.181549
-0.00370562 0.109726 -0.169521
-0.000620425 0.109379 -0.161313
0.161147 0.109381 0.00758141
0.167777 0.109547 0.0121105
0.180465 0.110465 0.0121306
0.193366 0.111399 0.012151
0.206488 0.112349 0.0121717
0.282853 0.117875 0.0122928
0.297552 0.118939 0.0123159
0.330102 0.121056 0.0158095
-0.00739491 0.124781 -0.329328
-0.00735348 0.122737 -0.300838
-0.00387377 0.121353 -0.277939
-0.00384247 0.119904 -0.25774
-0.0038321 0.119429 -0.251114
-0.00381184 0.118489 -0.238018
-0.00380182 0.118025 -0.231547
-0.0036782 0.112305 -0.151815
-0.0036602 0.111474 -0.140229
-0.0036425 0.110655 -0.128814
-0.00362504 0.109849 -0.117565
-0.00361645 0.10945 -0.112001
0.15837 0.133203 -0.273455
0.164611 0.133203 -0.266942
0.173966 0.133202 -0.257164
0.183322 0.133202 -0.247387
0.192677 0.133201 -0.23761
0.198914 0.133201 -0.231092
0.208269 0.1332 -0.221314
0.217624 0.133199 -0.211537
0.226979 0.133199 -0.201761
0.23322 0.133199 -0.195247
0.24259 0.133201 -0.185484
0.25196 0.133202 -0.175721
0.258207 0.133203 -0.169212
0.267577 0.133205 -0.159448
0.276948 0.133206 -0.149685
0.283195 0.133207 -0.143175
0.108652 0.109379 0.00620753
0.119069 0.109742 0.0120335
0.13095 0.110632 0.0120523
0.143025 0.111537 0.0120713
0.226596 0.117797 0.0122037
0.233414 0.118308 0.0122145
0.247231 0.119343 0.0122364
0.25423 0.119867 0.0122474
0.268415 0.12093 0.0122699
0.3148 0.124157 0.0157852
-0.00638294 0.0782243 0.319702
-0.00636935 0.0776168 0.328171
-0.340453 0.0780134 0.00940567
-0.00393867 0.128574 -0.319837
-0.00386328 0.124963 -0.271152
-0.00378203 0.121077 -0.218756
-0.00375289 0.119681 -0.199938
-0.00373369 0.118769 -0.187632
-0.00372428 0.118318 -0.181549
-0.00359941 0.112343 -0.100995
-0.0035826 0.111539 -0.0901468
-0.00356597 0.110746 -0.0794528
-0.00354958 0.109964 -0.0689096
-0.00233752 0.109378 -0.0597651
0.160177 0.133203 -0.210786
0.169224 0.133202 -0.201327
0.178272 0.133201 -0.191871
0.187321 0.133201 -0.182414
0.193353 0.1332 -0.17611
0.202401 0.1332 -0.166654
0.208434 0.133199 -0.16035
0.217482 0.133199 -0.150894
0.223516 0.133199 -0.144592
0.0620893 0.109379 0.00750238
0.067889 0.109498 0.0119525
0.078951 0.110355 0.0119699
0.0901874 0.111225 0.0119877
0.101602 0.112109 0.0120058
0.174095 0.117724 0.0121205
0.186888 0.118715 0.0121409
0.193366 0.119216 0.012151
0.206488 0.120233 0.0121717
0.213133 0.120747 0.0121824
0.305002 0.127863 0.0123277
0.327761 0.129625 0.0123639
-0.00291073 0.0798156 0.337602
-0.30919 0.0826615 0.0148062
-0.00764537 0.133193 -0.328968
-0.00389504 0.130632 -0.291678
-0.00387377 0.12958 -0.277939
-0.00384247 0.128033 -0.25774
-0.0038321 0.127525 -0.251114
-0.00377202 0.124563 -0.212435
-0.00370562 0.121276 -0.169521
-0.00368726 0.120368 -0.157673
-0.0036782 0.119919 -0.151815
-0.0036602 0.119032 -0.140229
-0.0036425 0.118158 -0.128814
-0.00351763 0.111988 -0.0482638
-0.00350189 0.111213 -0.0381551
-0.00348651 0.11045 -0.0281851
-0.00347131 0.109697 -0.0183511
-0.000711739 0.109379 -0.0113255
0.158944 0.133202 -0.155143
0.167703 0.133201 -0.145984
0.0160746 0.109377 0.00621808
0.0253069 0.109682 0.0118852
0.0357102 0.110514 0.0119016
0.0462725 0.111359 0.0119182
0.124986 0.117655 0.0120428
0.136963 0.118613 0.0120619
0.143025 0.119098 0.0120713
0.155299 0.12008 0.0120907
0.25423 0.127994 0.0122474
0.268415 0.129128 0.0122699
0.282853 0.130283 0.0122928
0.316689 0.133199 0.00962132
0.325467 0.1332 0.0187649
-0.00641084 0.084856 0.302359
-0.00640142 0.0844085 0.308201
-0.332244 0.0833828 0.0147718
-0.320847 0.0843235 0.0147887
-0.0518101 0.133194 -0.321675
-0.0404831 0.133194 -0.309848
-0.0319878 0.133194 -0.300978
-0.0234925 0.133194 -0.292109
-0.0149971 0.133194 -0.283239
-0.0036701 0.133194 -0.271412
-0.00381184 0.130539 -0.238018
-0.00380182 0.130027 -0.231547
-0.00378203 0.129017 -0.218756
-0.00375289 0.127529 -0.199938
-0.00362504 0.12102 -0.117565
-0.00361645 0.12058 -0.112001
-0.00359941 0.11971 -0.100995
-0.0035826 0.118853 -0.0901468
-0.00356597 0.118008 -0.0794528
-0.0270624 0.109383 0.00496864
-0.014788 0.109855 0.0118246
-0.00498623 0.110664 0.0118399
-0.00340998 0.110174 0.0196769
-0.00339562 0.109447 0.0288708
0.00314695 0.10938 0.0365546
0.078951 0.117591 0.0119699
0.0901874 0.118519 0.0119877
0.101602 0.119461 0.0120058
0.1132 0.120418 0.0120242
0.199899 0.127573 0.0121614
0.213133 0.128665 0.0121824
0.226596 0.129776 0.0122037
0.233414 0.130339 0.0122145
0.247231 0.131479 0.0122364
0.273905 0.133204 0.0183024
0.285225 0.133203 0.030135
0.293702 0.1332 0.0390176
0.30218 0.133198 0.0478991
0.30785 0.133199 0.0538092
0.316354 0.1332 0.0626745
-0.093336 0.133195 -0.314821
-0.085097 0.133194 -0.306212
-0.0768551 0.133194 -0.297607
-0.0713606 0.133194 -0.29187
-0.0603716 0.133194 -0.280397
-0.0521299 0.133194 -0.271792
-0.0411409 0.133195 -0.260318
-0.0328992 0.133195 -0.251713
-0.0274046 0.133195 -0.245977
-0.0191628 0.133195 -0.237371
-0.00373369 0.130451 -0.187632
-0.00372428 0.129955 -0.181549
-0.00370562 0.128976 -0.169521
-0.00368726 0.12801 -0.157673
-0.0036782 0.127533 -0.151815
-0.00354958 0.12078 -0.0689096
-0.0654071 0.109383 0.00618613
-0.057179 0.109629 0.0117584
-0.0433519 0.110805 0.01178
-0.0339679 0.111604 0.0117947
-0.00338125 0.112076 0.0379442
-0.00336021 0.110985 0.0513335
-0.0033465 0.11027 0.0601159
-0.00333279 0.109564 0.0687858
0.155299 0.127704 0.0120907
0.167777 0.128766 0.0121105
0.180465 0.129845 0.0121306
0.225366 0.133199 0.0179043
0.233612 0.1332 0.0265074
0.241863 0.133201 0.0351069
0.250115 0.133203 0.0437066
0.258365 0.133204 0.0523074
0.263856 0.133203 0.0580471
0.274839 0.133202 0.069526
0.283075 0.133202 0.0781352
0.294044 0.133199 0.0896218
0.302289 0.133199 0.098226
0.307789 0.1332 0.10396
-0.00638294 0.088831 0.319702
-0.00636935 0.0881411 0.328171
-0.00291073 0.0876663 0.337602
-0.340453 0.0882448 0.00940448
-0.113779 0.133197 -0.288873
-0.10578 0.133196 -0.280511
-0.0977815 0.133195 -0.272148
-0.0924487 0.133194 -0.266574
-0.0817763 0.133195 -0.255436
-0.0737721 0.133195 -0.247082
-0.0657694 0.133195 -0.238726
-0.0577664 0.133195 -0.230371
-0.0524311 0.133195 -0.2248
-0.0444282 0.133195 -0.216444
-0.0364253 0.133196 -0.208089
-0.0284224 0.133196 -0.199733
-0.0204194 0.133196 -0.191377
-0.0036602 0.130368 -0.140229
-0.0036425 0.129411 -0.128814
-0.00362504 0.128467 -0.117565
-0.00361645 0.128 -0.112001
-0.103716 0.109383 0.00504231
-0.0969535 0.109417 0.0116964
-0.083971 0.110554 0.0117167
-0.075165 0.111326 0.0117304
-0.00331277 0.11176 0.0815845
-0.00329959 0.111056 0.0899824
-0.00328642 0.11036 0.0982751
-0.00298065 0.109377 0.110291
0.00360149 0.109379 0.117144
0.143025 0.130441 0.0120713
0.179668 0.133199 0.0175118
0.187667 0.133198 0.0258709
0.195666 0.133198 0.0342299
0.203671 0.133198 0.0425848
0.214346 0.133199 0.0537233
0.225022 0.1332 0.0648618
0.233028 0.1332 0.0732157
0.243711 0.133202 0.0843503
0.251723 0.133203 0.0927011
0.259722 0.133203 0.10106
0.26772 0.133202 0.10942
0.275718 0.133201 0.117779
0.283716 0.133201 0.126138
0.291709 0.133199 0.1345
-0.00641084 0.0929375 0.302359
-0.315051 0.0926297 0.0147974
-0.306233 0.0934247 0.0148106
-0.130479 0.133198 -0.261677
-0.120114 0.133197 -0.250842
-0.112341 0.133196 -0.242715
-0.107159 0.133196 -0.237297
-0.0967934 0.133195 -0.226463
-0.0864222 0.133195 -0.215638
-0.0760494 0.133196 -0.204814
-0.0682703 0.133196 -0.196696
-0.0604929 0.133196 -0.188576
-0.0527154 0.133196 -0.180455
-0.0449379 0.133196 -0.172335
-0.0371604 0.133196 -0.164214
-0.0293828 0.133196 -0.156094
-0.0216053 0.133197 -0.147973
-0.137741 0.109382 0.00618917
-0.130302 0.109582 0.0116444
-0.122133 0.110318 0.0116572
-0.0386767 0.117842 0.0117873
-0.0292249 0.118694 0.0118021
-0.0196353 0.119558 0.011817
-0.00990504 0.120436 0.0118322
-0.00340998 0.120344 0.0196769
-0.00339562 0.11955 0.0288708
-0.00338125 0.118767 0.0379442
-0.00336021 0.117611 0.0513335
-0.00325465 0.111808 0.11856
-0.00323588 0.110783 0.130433
-0.00322366 0.11011 0.138228
-0.00151986 0.109378 0.148482
0.159887 0.1332 0.0414967
0.167659 0.133199 0.0496219
0.175433 0.133199 0.0577453
0.183207 0.133198 0.0658687
0.19098 0.133198 0.073992
0.19876 0.133198 0.0821117
0.203947 0.133198 0.087524
0.214322 0.133199 0.0983488
0.224697 0.1332 0.109174
0.235073 0.133201 0.119998
0.242859 0.133202 0.128114
0.25323 0.133202 0.138942
0.263594 0.133201 0.149774
-0.00640142 0.0951271 0.308201
-0.332244 0.0936453 0.0147718
-0.146265 0.1332 -0.235971
-0.136184 0.133199 -0.225432
-0.126103 0.133198 -0.214893
-0.118542 0.133197 -0.20699
-0.110982 0.133196 -0.199086
-0.103422 0.133195 -0.191182
-0.0958565 0.133195 -0.183285
-0.0882912 0.133196 -0.175388
-0.080725 0.133196 -0.167493
-0.0706364 0.133197 -0.156966
-0.0605486 0.133197 -0.146438
-0.171969 0.109382 0.00510794
-0.161916 0.109739 0.011595
-0.150256 0.110819 0.0116132
-0.075165 0.117779 0.0117304
-0.0662352 0.118607 0.0117443
-0.057179 0.119446 0.0117584
-0.0033465 0.120145 0.0601159
-0.00333279 0.119375 0.0687858
-0.00331277 0.118239 0.0815845
-0.00318778 0.111186 0.161055
-0.00317609 0.110527 0.168484
-0.00315875 0.109552 0.179463
0.158831 0.1332 0.0826042
0.168909 0.133199 0.0931404
0.178991 0.133198 0.103675
0.189073 0.133198 0.114208
0.199163 0.133198 0.124737
0.206731 0.133199 0.132633
0.214299 0.133199 0.140529
0.221867 0.1332 0.148426
0.229435 0.1332 0.156322
0.237005 0.133201 0.164218
-0.202935 0.1332 -0.255193
-0.161209 0.133201 -0.211635
-0.151397 0.1332 -0.201378
-0.141584 0.133199 -0.19112
-0.131772 0.133198 -0.180862
-0.12196 0.133197 -0.170605
-0.112148 0.133196 -0.160348
-0.102333 0.133195 -0.150096
-0.0949696 0.133196 -0.14241
-0.202358 0.109382 0.00619185
-0.191928 0.109887 0.0115482
-0.180854 0.110942 0.0115656
-0.109671 0.11772 0.0116766
-0.101222 0.118525 0.0116898
-0.0883284 0.119753 0.0117099
-0.00498623 0.127689 0.0118399
-0.00329959 0.120713 0.0899824
-0.00328642 0.119957 0.0982751
-0.00326723 0.11884 0.110521
-0.00325465 0.118107 0.11856
-0.00314182 0.11157 0.190251
-0.00312525 0.110603 0.200851
-0.00311422 0.109968 0.207817
0.00116789 0.109378 0.218753
0.160283 0.133199 0.124083
0.16764 0.133198 0.131774
0.174999 0.133198 0.139464
0.184813 0.133197 0.149717
0.194634 0.133198 0.159964
0.202 0.133199 0.16765
0.209366 0.133199 0.175336
-0.00638294 0.0994377 0.319702
-0.00636935 0.0986654 0.328171
-0.00291073 0.0981339 0.337602
-0.2232 0.133199 -0.238462
-0.216028 0.133199 -0.230976
-0.340452 0.0984763 0.00940359
-0.175383 0.133201 -0.188554
-0.16821 0.133201 -0.181067
-0.161041 0.133201 -0.173576
-0.153872 0.1332 -0.166083
-0.146704 0.133199 -0.15859
-0.139536 0.133199 -0.151097
-0.132368 0.133198 -0.143604
-0.23313 0.109382 0.00516677
-0.227248 0.10938 0.0113249
-0.216967 0.11037 0.0115092
-0.142354 0.117664 0.0116256
-0.130302 0.118843 0.0116444
-0.122133 0.119641 0.0116572
-0.0386767 0.1278 0.0117873
-0.0292249 0.128724 0.0118021
-0.0196353 0.129662 0.011817
-0.00340998 0.130514 0.0196769
-0.00339562 0.129653 0.0288708
-0.00338125 0.128804 0.0379442
-0.00336021 0.12755 0.0513335
-0.00323588 0.120145 0.130433
-0.00322366 0.119415 0.138228
-0.0032056 0.118337 0.149745
-0.00308216 0.110989 0.228242
-0.00306654 0.110057 0.238197
0.000441015 0.109377 0.249104
0.159271 0.133199 0.16091
0.166437 0.133198 0.168401
0.173605 0.133198 0.175891
0.180775 0.133197 0.18338
0.187949 0.133198 0.190867
-0.00641084 0.103713 0.302359
-0.00640142 0.103166 0.308201
0.228606 0.133201 0.23329
-0.242432 0.1332 -0.22259
-0.235447 0.133199 -0.215284
-0.226127 0.133199 -0.205553
-0.317957 0.102775 0.0147931
-0.312129 0.10336 0.0148017
-0.188842 0.1332 -0.166637
-0.181851 0.133201 -0.15934
-0.17486 0.133201 -0.152043
-0.165538 0.133201 -0.142314
-0.260432 0.109381 0.00619429
-0.250909 0.109832 0.0114563
-0.173352 0.117611 0.0115772
-0.165753 0.118373 0.0115891
-0.154168 0.119535 0.0116072
-0.0707158 0.127906 0.0117374
-0.0617231 0.128808 0.0117514
-0.0479939 0.130185 0.0117729
-0.0033465 0.13002 0.0601159
-0.00333279 0.129187 0.0687858
-0.00331277 0.127958 0.0815845
-0.00318778 0.120325 0.161055
-0.00317609 0.119611 0.168484
-0.00315875 0.118557 0.179463
-0.00314182 0.11752 0.190251
-0.00303596 0.11105 0.257614
-0.00301623 0.109841 0.270206
-0.000249088 0.109377 0.277917
0.160639 0.133198 0.198306
0.167623 0.133198 0.205607
0.204913 0.133199 0.244527
-0.256165 0.133202 -0.202766
-0.249352 0.133201 -0.19564
-0.240267 0.133199 -0.186139
-0.332244 0.103908 0.0147718
-0.201636 0.133199 -0.145802
-0.28825 0.109381 0.00521982
-0.279757 0.109645 0.0114112
-0.270312 0.110617 0.0114259
-0.202794 0.117561 0.0115313
-0.195573 0.118303 0.0115426
-0.184569 0.119435 0.0115598
-0.105461 0.127571 0.0116832
-0.0969535 0.128446 0.0116964
-0.083971 0.129781 0.0117167
-0.0448373 0.1332 0.01792
-0.0357462 0.1332 0.0274099
-0.0289286 0.1332 0.0345281
-0.0221111 0.1332 0.0416464
-0.0152935 0.1332 0.0487646
-0.00329959 0.13037 0.0899824
-0.00328642 0.129553 0.0982751
-0.00326723 0.128347 0.110521
-0.00325465 0.127556 0.11856
-0.00312525 0.119452 0.200851
-0.00311416 0.118766 0.207817
-0.00309795 0.117752 0.218116
-0.00298733 0.110812 0.288588
0.18239 0.133198 0.25521
0.18921 0.133198 0.262326
-0.269237 0.133204 -0.183897
-0.262587 0.133203 -0.176943
-0.255938 0.133202 -0.169989
-0.29816 0.110413 0.0113826
-0.230793 0.117513 0.0114876
-0.220456 0.118602 0.0115038
-0.134346 0.127677 0.0116382
-0.126231 0.128532 0.0116507
-0.113854 0.129836 0.0116702
-0.0763218 0.133198 0.0175995
-0.0674485 0.133199 0.0268592
-0.0607935 0.133199 0.033804
-0.0519201 0.1332 0.0430639
-0.0408283 0.133201 0.0546388
-0.0319558 0.133201 0.0638998
-0.0230848 0.133201 0.0731622
-0.0164315 0.133201 0.080109
-0.00323588 0.129507 0.130433
-0.00322366 0.128721 0.138228
-0.0032056 0.127558 0.149745
-0.00308216 0.119637 0.228242
-0.00306654 0.118633 0.238197
-0.00305116 0.117645 0.247986
-0.00297308 0.112642 0.29756
-0.00638294 0.110044 0.319702
-0.00636935 0.10919 0.328171
-0.00291073 0.108602 0.337602
0.16096 0.133198 0.265373
0.167609 0.133197 0.272322
0.174265 0.133197 0.279267
-0.283858 0.133207 -0.168179
-0.277364 0.133205 -0.161389
-0.268707 0.133204 -0.152335
-0.262214 0.133203 -0.145545
-0.340452 0.108708 0.00940353
-0.254191 0.117819 0.0114512
-0.244285 0.118888 0.0114666
-0.161917 0.127778 0.0115951
-0.150256 0.129036 0.0116132
-0.104156 0.133197 0.0195521
-0.0954925 0.133198 0.0285951
-0.0868291 0.133198 0.037638
-0.0759987 0.133199 0.0489404
-0.0673342 0.133199 0.0579824
-0.0565035 0.1332 0.069285
-0.0478387 0.1332 0.0783272
-0.0413402 0.133201 0.0851088
-0.0326753 0.133201 0.0941511
-0.0261781 0.133202 0.100934
-0.0196813 0.133202 0.107717
-0.00318772 0.129463 0.161055
-0.00317603 0.128696 0.168484
-0.00315875 0.127561 0.179463
-0.00303596 0.119485 0.257614
-0.00301623 0.118183 0.270206
-0.00640142 0.113885 0.308201
0.140556 0.1332 0.27505
0.14921 0.133199 0.284099
-0.293586 0.133205 -0.148743
-0.287236 0.133206 -0.142121
-0.27666 0.133205 -0.131069
-0.32372 0.112546 0.0147845
-0.315051 0.113504 0.0147974
-0.279757 0.117767 0.0114112
-0.270312 0.118811 0.0114259
-0.18826 0.127874 0.0115539
-0.180854 0.128693 0.0115656
-0.169565 0.12994 0.0115831
-0.132823 0.133197 0.0192034
-0.126476 0.133197 0.0258312
-0.118012 0.133197 0.0346662
-0.111664 0.133197 0.0412924
-0.105316 0.133198 0.0479187
-0.0968522 0.133198 0.0567538
-0.0905041 0.133198 0.0633802
-0.0820395 0.133199 0.072215
-0.0756904 0.133199 0.0788406
-0.067225 0.1332 0.0876748
-0.0566433 0.1332 0.0987177
-0.0481778 0.133201 0.107552
-0.0418286 0.133201 0.114178
-0.0333629 0.133202 0.123012
-0.0270137 0.133202 0.129638
-0.0185502 0.133202 0.138475
-0.00314182 0.129421 0.190251
-0.00312525 0.1283 0.200851
-0.00311416 0.127563 0.207817
-0.00300157 0.119984 0.279472
-0.00298733 0.11902 0.288588
0.121089 0.133202 0.284283
0.129545 0.133201 0.293123
-0.300811 0.133204 -0.128017
-0.294604 0.133204 -0.121544
-0.286327 0.133206 -0.112912
-0.280122 0.133206 -0.106434
-0.29816 0.118395 0.0113826
-0.292097 0.11908 0.0113919
-0.216967 0.12757 0.0115092
-0.20637 0.128767 0.0115257
-0.160188 0.1332 0.0188543
-0.151919 0.133199 0.0274969
-0.145718 0.133198 0.0339786
-0.137449 0.133197 0.042621
-0.127109 0.133197 0.0534192
-0.116767 0.133197 0.0642148
-0.108493 0.133198 0.0728515
-0.102288 0.133198 0.0793289
-0.0940138 0.133198 0.0879655
-0.0857399 0.133199 0.0966023
-0.0795336 0.133199 0.103079
-0.0712584 0.1332 0.111715
-0.0650521 0.1332 0.118192
-0.0567769 0.1332 0.126828
-0.0505704 0.133201 0.133305
-0.042295 0.133201 0.141941
-0.0360885 0.133202 0.148418
-0.0257441 0.133202 0.159213
-0.0174701 0.133203 0.167851
-0.00309795 0.129381 0.218116
-0.00308216 0.128286 0.228242
-0.00638294 0.117999 0.319702
0.102496 0.133205 0.293101
0.108696 0.133204 0.299582
-0.30898 0.133457 -0.111823
-0.301647 0.133203 -0.101872
-0.291529 0.133204 -0.0913199
-0.240943 0.127667 0.0114719
-0.230793 0.128839 0.0114876
-0.186364 0.133199 0.0185363
-0.176249 0.1332 0.0290945
-0.168157 0.1332 0.0375412
-0.16209 0.1332 0.0438786
-0.151981 0.133199 0.0544441
-0.143894 0.133198 0.0628964
-0.135806 0.133197 0.0713478
-0.129738 0.133197 0.0776829
-0.121645 0.133198 0.0861297
-0.113554 0.133198 0.0945765
-0.107484 0.133198 0.100912
-0.0993924 0.133198 0.109359
-0.0913002 0.133199 0.117805
-0.0811845 0.133199 0.128364
-0.0710679 0.1332 0.138921
-0.0609512 0.133201 0.149479
-0.0528578 0.133201 0.157925
-0.0467877 0.133201 0.16426
-0.0386941 0.133202 0.172707
-0.0306007 0.133203 0.181153
-0.022507 0.133203 0.1896
-0.0164372 0.133203 0.195935
-0.00306654 0.130067 0.238197
-0.00305116 0.128984 0.247986
-0.00303596 0.127919 0.257614
-0.00297308 0.123499 0.29756
-0.00636935 0.119714 0.328171
-0.00291073 0.119069 0.337602
0.0847163 0.133206 0.301534
0.0907838 0.133206 0.307871
-0.316308 0.1332 -0.091307
-0.306407 0.133201 -0.0809816
-0.340452 0.118939 0.00940341
-0.263921 0.127759 0.011436
-0.257454 0.128523 0.0114461
-0.211416 0.133198 0.0182335
-0.201519 0.133199 0.0285663
-0.191622 0.133199 0.0388979
-0.181725 0.133199 0.0492292
-0.171827 0.1332 0.0595604
-0.16391 0.1332 0.0678265
-0.155997 0.133199 0.0760971
-0.148083 0.133198 0.0843675
-0.142149 0.133197 0.0905702
-0.134232 0.133197 0.0988368
-0.126314 0.133198 0.107102
-0.120376 0.133198 0.113301
-0.112458 0.133198 0.121566
-0.106519 0.133198 0.127765
-0.0966215 0.133199 0.138097
-0.0867239 0.133199 0.148428
-0.076825 0.1332 0.158759
-0.0669259 0.1332 0.16909
-0.0570268 0.133201 0.179421
-0.0491073 0.133202 0.187686
-0.0411879 0.133202 0.195951
-0.0332685 0.133203 0.204216
-0.0273287 0.133203 0.210415
-0.0194091 0.133203 0.21868
-0.00301623 0.129306 0.270206
-0.00300157 0.128259 0.279472
-0.00640142 0.124603 0.308201
0.0676926 0.133206 0.309608
0.0756112 0.133206 0.317874
0.0862879 0.134344 0.318976
-0.320845 0.133806 -0.0765213
-0.316782 0.133199 -0.0670361
-0.30709 0.133201 -0.056928
-0.326577 0.122551 0.0147802
-0.315051 0.123941 0.0147974
-0.285963 0.127848 0.0114015
-0.276627 0.128974 0.0114161
-0.235409 0.133199 0.0179392
-0.225722 0.133198 0.0280558
-0.216034 0.133198 0.0381712
-0.206346 0.133199 0.0482865
-0.196659 0.133199 0.0584019
-0.18697 0.133199 0.068516
-0.17728 0.133199 0.0786298
-0.167591 0.1332 0.0887436
-0.16178 0.133199 0.0948143
-0.154033 0.133199 0.102911
-0.146287 0.133198 0.111007
-0.138538 0.133198 0.1191
-0.130786 0.133198 0.127191
-0.124973 0.133198 0.13326
-0.117221 0.133198 0.141351
-0.10947 0.133199 0.149442
-0.101719 0.133199 0.157534
-0.0920295 0.133199 0.167648
-0.0823397 0.1332 0.177762
-0.0726491 0.1332 0.187875
-0.0668346 0.133201 0.193944
-0.0571439 0.133201 0.204057
-0.0474529 0.133202 0.214171
-0.037762 0.133203 0.224285
-0.0319475 0.133203 0.230353
-0.0241945 0.133203 0.238444
-0.0164416 0.133204 0.246535
-0.00298733 0.129964 0.288588
0.0513858 0.133206 0.317342
0.0586386 0.133457 0.322745
-0.322848 0.134557 -0.0611258
-0.322928 0.133199 -0.0497138
-0.317234 0.1332 -0.0437728
-0.307125 0.127933 0.0113686
-0.295137 0.12941 0.0113872
-0.2584 0.133202 0.017639
-0.250814 0.133201 0.025571
-0.243228 0.1332 0.0335028
-0.235642 0.133199 0.0414343
-0.228053 0.133198 0.0493613
-0.22236 0.133198 0.0553053
-0.214769 0.133198 0.0632308
-0.207179 0.133198 0.0711563
-0.199588 0.133199 0.0790817
-0.191998 0.133199 0.0870072
-0.186304 0.133199 0.0929504
-0.176815 0.133199 0.102856
-0.167325 0.1332 0.112761
-0.157841 0.133199 0.122671
-0.152151 0.133198 0.128618
-0.142665 0.133198 0.138528
-0.136972 0.133198 0.144471
-0.127482 0.133198 0.154377
-0.117993 0.133199 0.164282
-0.112299 0.133199 0.170226
-0.104708 0.133199 0.17815
-0.0971162 0.133199 0.186075
-0.0895246 0.1332 0.194
-0.0819324 0.1332 0.201924
-0.076238 0.1332 0.207867
-0.0667471 0.133201 0.217772
-0.057256 0.133202 0.227677
-0.047765 0.133202 0.237583
-0.0420703 0.133203 0.243526
-0.0325791 0.133203 0.253431
-0.0268843 0.133204 0.259374
-0.017393 0.133204 0.26928
-0.00294107 0.129238 0.317947
-0.00292337 0.127903 0.329265
0.0357512 0.133206 0.324757
0.0499214 0.135057 0.32388
-0.325741 0.134286 -0.0388859
-0.326677 0.133301 -0.0316903
-0.278616 0.133202 0.0193098
-0.271179 0.133203 0.0270754
-0.265601 0.133203 0.0328997
-0.256306 0.133202 0.0426092
-0.247015 0.133201 0.0523235
-0.24144 0.1332 0.058152
-0.232148 0.133198 0.0678645
-0.222852 0.133198 0.0775713
-0.217274 0.133198 0.0833952
-0.207978 0.133199 0.0931019
-0.2024 0.133199 0.098926
-0.193104 0.133199 0.108633
-0.185666 0.133199 0.116398
-0.178228 0.133199 0.124162
-0.17079 0.133199 0.131926
-0.165211 0.1332 0.137749
-0.155919 0.133199 0.147461
-0.150344 0.133198 0.153287
-0.141048 0.133198 0.162994
-0.13175 0.133198 0.172699
-0.122453 0.133199 0.182405
-0.116874 0.133199 0.188228
-0.107576 0.133199 0.197934
-0.101997 0.133199 0.203757
-0.0926996 0.1332 0.213463
-0.087121 0.1332 0.219287
-0.0778221 0.133201 0.228992
-0.0722426 0.133201 0.234815
-0.0648032 0.133201 0.242579
-0.0573637 0.133202 0.250343
-0.0499243 0.133202 0.258107
-0.0424848 0.133203 0.265872
-0.0350452 0.133203 0.273636
-0.0257456 0.133204 0.283341
-0.016446 0.133204 0.293047
-0.00714624 0.133205 0.302753
-0.00291073 0.129537 0.337602
-0.328508 0.134027 -0.0176111
-0.340452 0.12917 0.00940311
-0.299861 0.1332 0.0190242
-0.290745 0.133201 0.0285327
-0.281631 0.133202 0.0380446
-0.272518 0.133202 0.0475593
-0.267051 0.133202 0.0532683
-0.257939 0.133202 0.0627831
-0.252473 0.133201 0.0684947
-0.243366 0.1332 0.0780162
-0.236081 0.133199 0.0856333
-0.228792 0.133198 0.0932466
-0.221502 0.133198 0.100858
-0.214213 0.133198 0.10847
-0.206923 0.133199 0.116081
-0.199633 0.133199 0.123693
-0.192343 0.133199 0.131305
-0.185053 0.133199 0.138916
-0.17594 0.133199 0.148429
-0.166826 0.133199 0.157943
-0.155895 0.133198 0.169364
-0.146785 0.133198 0.17888
-0.137672 0.133198 0.188394
-0.132204 0.133199 0.194102
-0.12309 0.133199 0.203615
-0.115799 0.133199 0.211226
-0.108508 0.133199 0.218837
-0.101217 0.1332 0.226448
-0.0939263 0.1332 0.234059
-0.0866353 0.1332 0.24167
-0.0793434 0.133201 0.24928
-0.0720515 0.133201 0.25689
-0.0665824 0.133202 0.262598
-0.0574672 0.133202 0.272111
-0.0519981 0.133202 0.277819
-0.0410598 0.133203 0.289235
-0.0319443 0.133204 0.298749
-0.0228289 0.133204 0.308262
-0.0173597 0.133205 0.31397
-0.329212 0.133199 0.00941324
-0.322058 0.133201 0.016867
-0.31491 0.133201 0.0243311
-0.305979 0.133199 0.0336687
-0.297043 0.1332 0.0429967
-0.286316 0.133201 0.0541856
-0.27738 0.133201 0.0635157
-0.268445 0.133201 0.0728456
-0.261297 0.133201 0.0803096
-0.254148 0.133201 0.0877737
-0.247003 0.133201 0.0952419
-0.239859 0.133199 0.102711
-0.230928 0.133198 0.112045
-0.225566 0.133198 0.117643
-0.216631 0.133198 0.126973
-0.21127 0.133198 0.132571
-0.202334 0.133199 0.1419
-0.195186 0.133199 0.149364
-0.186251 0.133199 0.158694
-0.177315 0.133199 0.168023
-0.166591 0.133199 0.179217
-0.157659 0.133198 0.18855
-0.1523 0.133198 0.19415
-0.143363 0.133198 0.203479
-0.136214 0.133199 0.210942
-0.129065 0.133199 0.218405
-0.121915 0.133199 0.225868
-0.114766 0.133199 0.233331
-0.105829 0.1332 0.24266
-0.0968927 0.1332 0.251989
-0.0915306 0.1332 0.257586
-0.0808057 0.133201 0.268781
-0.0718677 0.133201 0.278109
-0.061142 0.133202 0.289303
-0.0522038 0.133203 0.298632
-0.0432655 0.133203 0.30796
-0.0361147 0.133204 0.315423
-0.028964 0.133204 0.322886
-0.0215779 0.133599 0.327452
-0.328279 0.134845 0.0177425
-0.326691 0.133533 0.0296633
-0.320621 0.133202 0.0385887
-0.311858 0.133201 0.0477456
-0.301346 0.133199 0.0587369
-0.292578 0.1332 0.0678852
-0.287317 0.133201 0.0733732
-0.278551 0.133201 0.0825248
-0.271539 0.133201 0.0898466
-0.262774 0.133201 0.0989989
-0.255762 0.133201 0.106321
-0.24875 0.133201 0.113643
-0.241742 0.1332 0.12097
-0.234734 0.133199 0.128296
-0.225969 0.133198 0.137449
-0.22071 0.133198 0.14294
-0.211945 0.133198 0.152092
-0.206686 0.133199 0.157584
-0.196168 0.133199 0.168566
-0.187403 0.133199 0.177718
-0.176884 0.133199 0.1887
-0.168118 0.133199 0.197851
-0.161107 0.133199 0.205174
-0.152344 0.133198 0.214328
-0.143578 0.133199 0.223479
-0.136565 0.133199 0.2308
-0.129552 0.133199 0.238121
-0.120786 0.133199 0.247272
-0.115526 0.1332 0.252763
-0.106759 0.1332 0.261915
-0.0997459 0.1332 0.269236
-0.0909794 0.133201 0.278387
-0.0822123 0.133201 0.287538
-0.071691 0.133202 0.298519
-0.062923 0.133202 0.30767
-0.0559087 0.133203 0.314991
-0.0469972 0.133232 0.324065
-0.0084399 0.137723 0.329202
0.00070256 0.138806 0.330284
0.0085572 0.139985 0.329262
-0.330288 0.139964 -0.00393337
-0.324113 0.133904 0.049024
-0.320959 0.133202 0.0577047
-0.31236 0.133201 0.0666896
-0.305482 0.1332 0.07388
-0.296885 0.133199 0.0828674
-0.286559 0.1332 0.0936384
-0.277958 0.1332 0.102619
-0.271077 0.1332 0.109804
-0.262475 0.1332 0.118786
-0.253874 0.1332 0.127767
-0.246993 0.1332 0.134952
-0.238396 0.133199 0.143938
-0.231518 0.133198 0.151126
-0.224637 0.133198 0.158311
-0.216036 0.133198 0.167292
-0.210875 0.133198 0.172681
-0.202274 0.133198 0.181662
-0.195393 0.133199 0.188846
-0.186791 0.133199 0.197827
-0.17647 0.133199 0.208605
-0.167867 0.133199 0.217585
-0.160988 0.133199 0.224771
-0.152388 0.133198 0.233753
-0.143785 0.133199 0.242733
-0.136903 0.133199 0.249917
-0.1283 0.133199 0.258897
-0.121418 0.1332 0.266081
-0.114536 0.1332 0.273265
-0.105934 0.1332 0.282246
-0.100772 0.1332 0.287634
-0.0921693 0.133201 0.296614
-0.0852871 0.133201 0.303799
-0.0766832 0.133202 0.312778
-0.0673506 0.133354 0.321353
-0.0552264 0.134793 0.322968
-0.321616 0.134264 0.0677763
-0.319594 0.133203 0.0778804
-0.311154 0.133202 0.0867029
-0.304403 0.1332 0.0937613
-0.295964 0.133199 0.102584
-0.28583 0.1332 0.11316
-0.277386 0.1332 0.121977
-0.270631 0.1332 0.12903
-0.262188 0.1332 0.137846
-0.252056 0.1332 0.148426
-0.241924 0.1332 0.159006
-0.233486 0.133198 0.167828
-0.226731 0.133198 0.174881
-0.218288 0.133198 0.183697
-0.211533 0.133198 0.19075
-0.204778 0.133198 0.197803
-0.196335 0.133199 0.206619
-0.18958 0.133199 0.213672
-0.181136 0.133199 0.222488
-0.17607 0.133199 0.227778
-0.165937 0.133199 0.238357
-0.157496 0.133198 0.247175
-0.15074 0.133199 0.254227
-0.142295 0.133199 0.263043
-0.132162 0.133199 0.273621
-0.122028 0.1332 0.2842
-0.113583 0.1332 0.293015
-0.106827 0.1332 0.300068
-0.0983826 0.133201 0.308883
-0.0916266 0.133201 0.315936
-0.317928 0.134472 0.0883159
-0.313585 0.133672 0.0987685
-0.308335 0.133202 0.107728
-0.301706 0.1332 0.114659
-0.293419 0.133199 0.123323
-0.286785 0.133199 0.130247
