ply
format ascii 1.0
comment Created by Open3D
element vertex 824
property double x
property double y
property double z
end_header
-0.1018 -0.200094 -0.243161
-0.0741109 -0.196655 -0.243178
0.1044 -0.19864 -0.243289
0.0683755 -0.196723 -0.243265
-0.0121635 -0.189888 -0.243216
-0.027852 -0.189064 -0.243207
-0.0485594 -0.187976 -0.243194
0.0357331 -0.18982 -0.243245
0.0249799 -0.189263 -0.243239
-0.0791774 -0.181365 -0.243174
-0.0993004 -0.180336 -0.243163
0.0960246 -0.182444 -0.243283
0.0656331 -0.180955 -0.243264
-0.228077 -0.199771 -0.104581
-0.00426793 -0.172421 -0.243221
-0.0226376 -0.171547 -0.24321
-0.0434048 -0.170559 -0.243197
0.0492637 -0.172376 -0.243254
0.0303486 -0.17149 -0.243242
-0.0562633 -0.16743 -0.243189
-0.0842297 -0.161123 -0.243171
-0.226945 -0.192233 -0.0604931
0.234712 -0.20004 -0.104865
-0.228276 -0.180687 -0.0997332
0.0932412 -0.161322 -0.243281
0.227029 -0.195604 -0.0781217
0.00631337 -0.15243 -0.243227
-0.0147877 -0.151545 -0.243214
-0.0330512 -0.150779 -0.243203
0.065633 -0.152314 -0.243264
0.0465496 -0.151527 -0.243252
0.0260151 -0.149627 -0.248463
-0.0536989 -0.147394 -0.24319
0.243451 -0.181866 -0.101374
-0.0741109 -0.141541 -0.243178
-0.094291 -0.140738 -0.243165
-0.227001 -0.188072 0.0268959
-0.22695 -0.171069 -0.0603512
0.227019 -0.186733 -0.0557673
0.227011 -0.1897 -0.0402732
-0.000639886 -0.13554 -0.276499
-0.0177341 -0.135259 -0.27446
-0.0377208 -0.134477 -0.274448
-0.228492 -0.161453 -0.0944468
0.043697 -0.13521 -0.274351
0.0152445 -0.134089 -0.274481
0.22703 -0.175879 -0.0781206
0.226995 -0.187325 -0.0160958
0.0932412 -0.140337 -0.243281
0.227244 -0.186978 0.00127298
-0.0472751 -0.131403 -0.24933
0.226978 -0.186388 0.0180503
0.226962 -0.189573 0.0359816
0.233405 -0.194139 0.0603644
-0.227006 -0.171454 0.0270375
0.065633 -0.131485 -0.243264
0.243381 -0.160464 -0.0947368
0.227023 -0.166547 -0.0557596
0.22701 -0.169191 -0.0402766
-0.226948 -0.149865 -0.0604112
-0.074111 -0.1215 -0.243178
-0.094291 -0.12081 -0.243165
-0.0940298 -0.199379 0.22639
-0.228492 -0.14109 -0.0944468
0.226997 -0.166317 -0.0160924
0.22698 -0.170476 0.00929308
0.0356585 -0.11871 -0.267419
-0.00346535 -0.118714 -0.259372
-0.0230319 -0.118714 -0.255363
-0.0652379 -0.196232 0.226373
-0.105168 -0.197344 0.241339
-0.249263 -0.148002 -0.0302495
0.226969 -0.171171 0.0359991
0.0932412 -0.121975 -0.243281
0.0455942 -0.118713 -0.253852
0.0250941 -0.118435 -0.251382
-0.00437255 -0.118714 -0.243609
-0.0304534 -0.117921 -0.243205
-0.0361603 -0.188902 0.226355
-0.227001 -0.151458 0.0269091
0.227034 -0.147421 -0.0707689
0.227013 -0.152102 -0.0402687
-0.0652379 -0.183839 0.226373
-0.105168 -0.18488 0.241339
-0.262964 -0.135632 -0.0471314
0.243381 -0.141014 -0.0947368
0.226987 -0.15483 0.000693977
0.226945 -0.164341 0.0640808
-0.0899338 -0.17895 0.226389
-0.130298 -0.135638 -0.0539705
-0.148795 -0.135071 -0.053959
-0.17018 -0.134416 -0.0539457
-0.188346 -0.133858 -0.0539345
-0.20935 -0.133214 -0.0539216
-0.226947 -0.131696 -0.0604321
0.0656331 -0.110656 -0.243264
-0.0536991 -0.107081 -0.243191
-0.0738627 -0.134211 -0.0540053
-0.0928337 -0.133643 -0.0539935
-0.105392 -0.133266 -0.053986
0.226998 -0.145309 -0.0160895
-0.228492 -0.120726 -0.0944468
0.19543 -0.135584 -0.0541696
0.184749 -0.135279 -0.0541631
-0.074111 -0.101459 -0.243178
-0.094291 -0.100883 -0.243165
0.271474 -0.135296 -0.0472968
0.216938 -0.132835 -0.0541826
0.051982 -0.102465 -0.243255
0.0303487 -0.101862 -0.243242
0.0116272 -0.101341 -0.243231
-0.00953554 -0.100752 -0.243218
-0.027852 -0.100242 -0.243207
0.227046 -0.124666 -0.0924433
0.0932412 -0.10099 -0.243281
-0.26076 -0.118722 -0.0372135
0.227033 -0.124231 -0.0707694
0.174115 -0.124977 -0.0541567
-0.135522 -0.118723 -0.0390373
-0.163407 -0.118721 -0.0333361
-0.185094 -0.118717 -0.028925
-0.212977 -0.118718 -0.0232038
-0.22537 -0.118718 -0.0206581
-0.253254 -0.118721 -0.0149245
-0.274944 -0.118725 -0.010447
-0.0702723 -0.118718 -0.0273064
-0.0893696 -0.118719 -0.0233865
-0.108467 -0.11872 -0.0194615
-0.127564 -0.118722 -0.0155343
-0.149845 -0.118724 -0.0109526
-0.168943 -0.118724 -0.00703478
-0.188042 -0.118723 -0.00312728
-0.210324 -0.118722 0.00143093
-0.226945 -0.110497 -0.0604833
-0.254886 -0.118721 0.0105536
-0.273985 -0.118721 0.0144722
0.0656331 -0.0924302 -0.243264
-0.0667941 -0.11872 -0.0014419
-0.0929767 -0.118719 0.00391501
-0.112611 -0.118721 0.00795925
-0.125702 -0.118722 0.0106435
-0.145338 -0.118722 0.0146698
-0.174793 -0.118721 0.0207024
-0.194429 -0.11872 0.0247174
-0.214066 -0.118724 0.0287709
-0.256613 -0.118725 0.0375011
0.219764 -0.118722 -0.0320622
0.199554 -0.11872 -0.0279319
-0.0541677 -0.0881867 -0.232487
-0.0631153 -0.118721 0.0259141
-0.0833189 -0.118723 0.0300725
-0.103525 -0.118723 0.0342143
-0.123731 -0.118723 0.0383549
-0.143937 -0.118722 0.0424843
-0.164143 -0.118721 0.0466149
-0.184349 -0.118718 0.0507333
-0.228492 -0.100363 -0.0944468
0.225168 -0.118721 -0.00339466
0.214767 -0.118722 -0.0012539
0.0968414 -0.118719 0.0228866
0.0552313 -0.118722 0.0314421
0.0448267 -0.118722 0.033574
0.013618 -0.118725 0.0399933
-0.0542681 -0.123092 0.0917032
-0.0542854 -0.126336 0.119775
-0.0543037 -0.129755 0.149365
-0.0543229 -0.133365 0.180602
-0.0528112 -0.138689 0.226366
-0.0652379 -0.138395 0.226374
-0.0858323 -0.137909 0.226386
-0.226997 -0.111497 0.0267677
0.226977 -0.117623 0.018047
0.152255 -0.11872 0.0431479
0.109355 -0.118719 0.0519311
0.052155 -0.118717 0.0636395
-0.0278521 -0.0824773 -0.243207
0.0199816 -0.118717 0.070229
0.00210811 -0.118717 0.0738919
-0.0690299 -0.081534 -0.243182
-0.0892675 -0.0810704 -0.243168
-0.0543433 -0.133085 0.213627
0.243381 -0.102114 -0.0947368
0.227033 -0.104354 -0.0707695
0.226959 -0.116953 0.045193
0.226943 -0.12006 0.0737864
0.0411335 -0.0814715 -0.243249
0.00631358 -0.0806984 -0.243227
0.0917966 -0.13362 0.226276
0.0267622 -0.118716 0.102446
0.0932412 -0.0800053 -0.243281
0.033994 -0.118718 0.136806
0.0149465 -0.118717 0.1407
-0.226944 -0.0923288 -0.0605271
0.227015 -0.100832 -0.0402647
-0.00832985 -0.0767785 -0.228396
0.0417038 -0.118714 0.173438
0.0220096 -0.118712 0.177455
-0.0569593 -0.122043 0.226368
-0.0858323 -0.121442 0.226386
0.226991 -0.101441 0.000702798
0.0499704 -0.118718 0.212716
0.0295736 -0.11871 0.216817
-0.0361603 -0.118324 0.226356
0.227001 -0.0962897 -0.0160844
0.22698 -0.0995279 0.0180541
0.226968 -0.10123 0.0359961
0.0656331 -0.0716009 -0.243264
0.0528296 -0.115897 0.2263
-0.227003 -0.0915464 0.0269682
-0.228492 -0.0799994 -0.0944468
0.226951 -0.100117 0.0640938
0.232888 -0.0824748 -0.0947306
0.227033 -0.084477 -0.0707695
0.0917966 -0.103927 0.226276
-0.0278521 -0.0621752 -0.243207
-0.0690299 -0.0614641 -0.243182
-0.0892675 -0.0611146 -0.243168
-0.0361604 -0.101717 0.226355
-0.065238 -0.101214 0.226372
-0.0858323 -0.100859 0.226386
0.227009 -0.0803228 -0.0402778
0.0932412 -0.0616435 -0.243281
0.0411335 -0.0607803 -0.243249
0.00631358 -0.0602035 -0.243227
-0.226944 -0.0711385 -0.0605286
0.226985 -0.0800842 0.000689745
0.226972 -0.0821218 0.0269446
0.232813 -0.0847007 0.0589728
0.0528295 -0.0948247 0.2263
-0.00832985 -0.0559572 -0.228396
-0.227004 -0.071574 0.0269871
-0.234131 -0.0624595 -0.0944435
0.0313986 -0.0860863 0.226314
0.227033 -0.0646001 -0.0707695
0.0656331 -0.0507715 -0.243264
-0.0361604 -0.0809582 0.226354
-0.0611017 -0.0806153 0.226369
-0.077612 -0.0803884 0.226381
0.243381 -0.0599716 -0.0947368
0.227009 -0.0598149 -0.0402778
0.226985 -0.0622877 0.000689745
0.233989 -0.0638535 0.0251919
0.0917966 -0.0742332 0.226276
0.0399524 -0.0735937 0.226308
0.226951 -0.0623369 0.0640939
0.00631358 -0.0422706 -0.243227
-0.0278521 -0.0418731 -0.243207
-0.0690299 -0.0413942 -0.243182
-0.0892675 -0.0411588 -0.243168
-0.226944 -0.0499483 -0.0605286
0.0932412 -0.0406584 -0.243281
0.0411335 -0.0400891 -0.243249
-0.227004 -0.0515998 0.0269871
-0.0361604 -0.0601996 0.226354
-0.0611017 -0.0599447 0.226369
-0.077612 -0.059776 0.226381
-0.228492 -0.0421815 -0.0944468
0.227038 -0.0443816 -0.0781044
-0.00832985 -0.0351359 -0.228396
0.234173 -0.0441546 -0.00858998
0.0601606 -0.0324976 -0.24326
0.227009 -0.0393069 -0.0402778
0.226972 -0.0419734 0.0269446
0.226951 -0.0396689 0.0640939
0.0917966 -0.04454 0.226276
0.0399524 -0.0441563 0.226308
-0.0424942 -0.0441158 0.242091
-0.226944 -0.0317853 -0.0605286
-0.0611017 -0.0392741 0.226369
-0.077612 -0.0391636 0.226381
-0.227004 -0.0316257 0.0269871
0.0932412 -0.0222966 -0.243281
0.0411335 -0.0219844 -0.243249
0.00631358 -0.0217757 -0.243227
-0.0278521 -0.021571 -0.243207
-0.0690299 -0.0213243 -0.243182
-0.0892675 -0.021203 -0.243168
0.227046 -0.0242855 -0.0924433
0.227033 -0.0248462 -0.0707695
-0.228492 -0.021818 -0.0944468
0.227009 -0.0222169 -0.0402778
0.232813 -0.0244691 0.0589728
-0.00832985 -0.0169173 -0.228396
0.226985 -0.0195761 0.000689745
0.226972 -0.0200742 0.0269446
0.0917966 -0.0233304 0.226276
0.0656331 -0.0117165 -0.243264
-0.0361604 -0.0186826 0.226354
-0.0611017 -0.0186035 0.226369
-0.077612 -0.0185512 0.226381
0.0399524 -0.0147188 0.226308
-0.227004 -0.0116516 0.0269871
-0.226944 -0.0105951 -0.0605286
0.227046 -0.00485711 -0.0924433
0.227033 -0.00496924 -0.0707695
0.227009 -0.00170901 -0.0402778
0.226985 -0.00177966 0.000689745
0.226972 -0.00182494 0.0269446
0.226951 -0.00188901 0.0640939
0.0932412 -0.00131157 -0.243281
0.0411335 -0.00129321 -0.243249
0.00631358 -0.00128093 -0.243227
-0.0278521 -0.00126889 -0.243207
-0.0690299 -0.00125438 -0.243182
-0.0892675 -0.00124724 -0.243168
-0.0361604 -0.00207586 0.226354
-0.0611017 -0.00206707 0.226369
-0.077612 -0.00206125 0.226381
-0.228492 -0.00145454 -0.0944468
-0.00832985 0.00390398 -0.228396
0.0917966 0.00636283 0.226276
0.0399524 0.00630802 0.226308
-0.227004 0.00832256 0.0269871
-0.226944 0.00756793 -0.0605286
0.0656331 0.00911282 -0.243264
0.233358 0.0153687 -0.0423694
0.234173 0.0158957 -0.00858998
-0.0361604 0.0186826 0.226354
-0.0611017 0.0186035 0.226369
-0.077612 0.0185512 0.226381
0.243381 0.0178294 -0.0947368
0.226972 0.0200742 0.0269446
0.226951 0.020779 0.0640939
-0.228492 0.0189089 -0.0944468
0.227033 0.0248462 -0.0707695
0.0932412 0.0196735 -0.243281
0.0411335 0.019398 -0.243249
0.00631358 0.0192139 -0.243227
-0.0278521 0.0190332 -0.243207
-0.0690299 0.0188155 -0.243182
-0.0892675 0.0187086 -0.243168
0.0917966 0.0360561 0.226276
0.0399524 0.0357455 0.226308
-0.0424942 0.0357128 0.242091
-0.227004 0.0282967 0.0269871
0.232813 0.0357625 0.0589728
-0.00832985 0.0247253 -0.228396
-0.0611017 0.0392741 0.226369
-0.077612 0.0391636 0.226381
-0.226944 0.0287581 -0.0605286
0.233358 0.0358603 -0.0423694
0.226972 0.0383235 0.0269446
0.0594301 0.0277763 -0.229906
0.226985 0.0409319 0.000689745
0.243381 0.0405213 -0.0947368
0.227033 0.0447231 -0.0707695
0.0313986 0.0566909 0.226314
-0.228492 0.0392724 -0.0944468
0.0932412 0.0380353 -0.243281
0.0411335 0.0375028 -0.243249
-0.0361604 0.0601997 0.226354
-0.0611017 0.0599447 0.226369
-0.077612 0.059776 0.226381
-0.227004 0.0482708 0.0269871
0.226951 0.0585589 0.0640939
0.00631358 0.0397087 -0.243227
0.0917966 0.0657494 0.226276
-0.0278521 0.0393353 -0.243207
-0.0690299 0.0388854 -0.243182
-0.0892675 0.0386643 -0.243168
0.226985 0.0587284 0.000689745
0.226972 0.0602227 0.0269446
-0.00832985 0.0429439 -0.228396
-0.226944 0.0499483 -0.0605286
0.227009 0.0598149 -0.0402778
0.243381 0.0599716 -0.0947368
0.0656331 0.0481678 -0.243264
0.227033 0.0646001 -0.0707695
-0.0361604 0.0809581 0.226354
-0.0611017 0.0806153 0.226369
-0.077612 0.0803884 0.226381
0.226943 0.0781342 0.0737864
0.0399524 0.0862098 0.226308
-0.227004 0.068245 0.0269871
-0.228492 0.0596359 -0.0944468
0.234173 0.0759459 -0.00858998
0.226972 0.0784719 0.0269446
0.227008 0.077521 -0.0323384
0.0932412 0.0590203 -0.243281
0.0411335 0.0581939 -0.243249
0.00631358 0.0576417 -0.243227
-0.00832491 0.0577676 -0.238605
0.0917966 0.0954427 0.226276
-0.226944 0.0681113 -0.0605286
-0.0278521 0.0596375 -0.243207
-0.0690299 0.0589553 -0.243182
-0.0892675 0.0586202 -0.243168
-0.0361604 0.097565 0.226354
0.243381 0.0794218 -0.0947368
0.228195 0.0881838 0.0120496
0.226961 0.090964 0.0451973
-0.065238 0.101214 0.226372
-0.0858323 0.100859 0.226386
0.227033 0.084477 -0.0707695
0.226943 0.101003 0.0737864
0.0656331 0.0689972 -0.243264
-0.227004 0.0882192 0.0269881
0.0917966 0.116652 0.226276
0.0399524 0.115647 0.226308
-0.0424942 0.115541 0.242091
-0.228492 0.0799994 -0.0944468
0.22701 0.0981938 -0.0323342
-0.0611017 0.117822 0.226369
0.227024 0.099256 -0.0557558
0.233989 0.107639 0.0251919
-0.077612 0.121613 0.226381
-0.226944 0.0893015 -0.0605286
0.243381 0.098872 -0.0947368
0.234173 0.107737 -0.00858998
0.0932412 0.0800053 -0.243281
0.0411335 0.0788851 -0.243249
0.00631358 0.0781365 -0.243227
-0.0422008 0.077685 -0.237574
-0.0947161 0.0775507 -0.228087
0.226951 0.119007 0.0640939
-0.0690299 0.0790252 -0.243182
-0.00832985 0.0845865 -0.228396
0.0356723 0.136576 0.226311
-0.227004 0.108193 0.0269871
0.0594329 0.0877232 -0.237663
-0.0361603 0.139082 0.226355
-0.065238 0.138395 0.226373
-0.0858323 0.137909 0.226386
0.233358 0.117827 -0.0423694
0.226978 0.123819 0.00928885
-0.228492 0.100363 -0.0944468
0.226966 0.130678 0.0359912
0.243381 0.118322 -0.0947368
0.227024 0.122808 -0.0557574
0.226949 0.137896 0.0640898
-0.226944 0.110492 -0.0605286
0.0932412 0.0983672 -0.243281
-0.087328 0.152235 0.210141
-0.104837 0.149512 0.192682
-0.124472 0.149238 0.194591
0.226994 0.134804 -0.0160985
0.226976 0.139338 0.018045
0.0357331 0.0994297 -0.243245
0.0249801 0.0991379 -0.243239
-0.00426798 0.098344 -0.243221
-0.0226377 0.0978455 -0.24321
-0.0947161 0.0978919 -0.228087
-0.0361602 0.159841 0.226356
-0.0652379 0.159052 0.226374
-0.125861 0.150142 0.171718
-0.145236 0.149239 0.168891
-0.227007 0.12818 0.0270846
0.226984 0.140592 0.000687659
-0.0434049 0.0998086 -0.243197
-0.0690299 0.0990951 -0.243182
-0.149908 0.150103 0.147741
-0.168646 0.149241 0.145251
0.227014 0.13843 -0.040268
0.226964 0.149082 0.035987
-0.169027 0.150693 0.128677
-0.194507 0.149242 0.123519
-0.228492 0.117817 -0.0944468
0.225998 0.157819 0.0714971
0.0656331 0.108052 -0.243264
0.178695 0.163184 0.118667
0.141053 0.167453 0.156204
0.0979857 0.172337 0.199151
0.0842243 0.173898 0.212873
-0.0828507 0.169244 0.214605
-0.194491 0.150031 0.103285
-0.205045 0.149243 0.0999421
0.243381 0.137772 -0.0947368
0.227024 0.142996 -0.0557574
0.227003 0.14761 -0.0242797
0.0528295 0.179113 0.2263
-0.100518 0.170208 0.196988
-0.21855 0.149406 0.0792955
-0.226944 0.128657 -0.0605134
-0.0361602 0.180599 0.226356
-0.0652378 0.179708 0.226374
-0.117563 0.171138 0.179993
-0.134016 0.168171 0.163587
0.226987 0.158389 0.000694156
0.226958 0.165219 0.04519
0.169466 0.176102 0.127871
0.0470656 0.183157 0.198914
0.034982 0.183157 0.20139
-0.149908 0.169104 0.147741
-0.227004 0.148143 0.0269967
0.0932412 0.119352 -0.243281
0.0411335 0.117681 -0.243249
-0.00832985 0.118421 -0.228396
0.0890474 0.183157 0.164089
0.0417747 0.183157 0.173775
0.0220779 0.183157 0.177811
-0.0409515 0.183156 0.190727
-0.0606482 0.183156 0.194763
-0.165267 0.170006 0.132426
0.220185 0.149238 -0.0993387
0.227013 0.158938 -0.0402693
0.226975 0.168291 0.0180432
0.019024 0.122105 -0.22726
0.11766 0.183158 0.133133
0.0829675 0.183157 0.14024
-0.0278521 0.118006 -0.243207
0.0367114 0.183157 0.149718
0.0174382 0.183157 0.153667
-0.0947161 0.118233 -0.228087
-0.0442358 0.183156 0.166305
-0.0557997 0.183156 0.168675
-0.0750727 0.183156 0.172624
-0.183757 0.170177 0.113989
0.202249 0.149239 -0.115246
-0.0533785 0.122103 -0.228457
-0.0690299 0.119165 -0.243182
-0.0473817 0.183156 0.142911
-0.0662491 0.183156 0.146777
-0.0851164 0.183156 0.150644
-0.198011 0.171029 0.0997751
-0.228492 0.138181 -0.0944468
-0.26247 0.183161 0.187027
0.32287 0.183159 0.0439928
0.182043 0.14924 -0.12988
-0.0503979 0.183156 0.120482
-0.0688762 0.183156 0.124269
-0.0910501 0.183156 0.128813
-0.109528 0.183156 0.132599
-0.128007 0.183156 0.136386
-0.21855 0.170499 0.0792955
-0.261051 0.18316 0.163685
-0.27953 0.183162 0.167481
0.323295 0.183158 0.021785
0.243381 0.160464 -0.0947368
0.171503 0.14924 -0.145738
0.0656331 0.128882 -0.243264
-0.0532923 0.183156 0.0989595
-0.0750182 0.183156 0.103412
-0.103986 0.183156 0.109348
-0.125712 0.183156 0.1138
-0.15468 0.183156 0.119738
-0.226948 0.149862 -0.0604261
-0.254302 0.168213 0.0526457
-0.263311 0.18316 0.142029
-0.285038 0.183162 0.146492
0.323704 0.183157 0.00045681
0.149812 0.14924 -0.158597
0.213673 0.183156 0.023001
-0.056072 0.183156 0.0782891
-0.0844664 0.183156 0.0841078
-0.0951142 0.183156 0.0862898
-0.123508 0.183156 0.0921083
-0.155452 0.183156 0.0986564
-0.214585 0.149238 -0.0839207
-0.252948 0.167779 0.0303741
-0.26903 0.18316 0.121961
-0.290327 0.183162 0.126335
-0.308075 0.183163 0.129981
0.324098 0.183157 -0.0200427
0.278222 0.176415 -0.0485873
0.263514 0.17338 -0.0626571
0.131799 0.14924 -0.171542
-0.0587438 0.183156 0.0584217
-0.079626 0.183156 0.0627008
-0.100508 0.183156 0.0669799
-0.11791 0.183156 0.070546
-0.138792 0.183155 0.0748253
-0.159674 0.183156 0.0791071
-0.180556 0.183156 0.0833887
-0.194328 0.149238 -0.104709
-0.214178 0.149236 -0.100651
-0.267301 0.174291 0.0512704
-0.278008 0.18316 0.103387
-0.298892 0.183162 0.107676
-0.319776 0.183163 0.111965
0.324476 0.183156 -0.0397613
0.29716 0.183155 -0.0341703
0.224833 0.169104 -0.0969277
0.134267 0.149387 -0.187238
0.0932412 0.137714 -0.243281
-0.0613137 0.183156 0.0393108
-0.0783842 0.183156 0.0428089
-0.0988686 0.183156 0.0470067
-0.119353 0.183156 0.0512043
-0.160322 0.183156 0.0596023
-0.174842 0.149238 -0.124706
-0.194315 0.149236 -0.120725
-0.265645 0.173682 0.0288772
-0.303716 0.183162 0.0890262
-0.324202 0.183163 0.0932336
0.32484 0.183155 -0.0587426
0.304736 0.183154 -0.0546276
0.0465496 0.138576 -0.243252
0.0249802 0.137763 -0.243239
-0.0637877 0.183156 0.0209145
-0.103991 0.183156 0.0291529
-0.124092 0.183156 0.0332723
-0.153356 0.149237 -0.144513
-0.175194 0.149236 -0.140045
-0.249351 0.166961 -0.0288057
-0.288257 0.18316 0.0669448
-0.30836 0.183162 0.0710735
0.325191 0.183155 -0.0770271
0.295589 0.183154 -0.0709665
0.275858 0.183154 -0.0669191
0.198424 0.169578 -0.123262
0.113576 0.150401 -0.207871
-0.0042678 0.139214 -0.24322
-0.0226375 0.138509 -0.243209
-0.0434049 0.137711 -0.243197
-0.0947161 0.138574 -0.228087
-0.0661708 0.183156 0.00319326
-0.0957699 0.183156 0.00925887
-0.115503 0.183156 0.0133024
-0.135337 0.149237 -0.163045
-0.164792 0.149351 -0.156402
-0.228492 0.158544 -0.0944468
-0.248257 0.166742 -0.0467933
-0.286521 0.18316 0.0483761
-0.312833 0.183162 0.0537798
0.309379 0.183153 -0.0913471
0.290003 0.183154 -0.0873736
0.26094 0.183155 -0.0814121
0.243381 0.179915 -0.0947368
0.179766 0.168395 -0.141867
-0.0639343 0.139434 -0.243185
-0.0878452 0.183156 -0.00991863
-0.117968 0.149237 -0.18091
-0.13902 0.149237 -0.176592
-0.288077 0.183159 0.0311399
0.322682 0.183154 -0.111005
0.297304 0.183154 -0.105803
0.265583 0.183155 -0.099296
-0.0706839 0.183156 -0.0303673
-0.0986293 0.149237 -0.19867
-0.270196 0.175105 -0.0307804
-0.276888 0.183158 0.0119078
-0.305441 0.18316 0.0177712
0.323052 0.183153 -0.127426
0.276298 0.183154 -0.117837
0.25448 0.183155 -0.113361
0.162014 0.17023 -0.159569
0.0656329 0.149711 -0.243264
-0.265186 0.173408 -0.0559863
-0.303497 0.18316 0.00102669
0.295838 0.183154 -0.137629
0.256011 0.183155 -0.129459
0.234565 0.183156 -0.12506
0.139643 0.167764 -0.181877
-0.211155 0.167724 -0.110173
-0.286299 0.183158 -0.0182913
-0.323068 0.183161 -0.0107411
0.2846 0.183154 -0.150577
0.257491 0.183155 -0.145016
-0.19431 0.167852 -0.12697
-0.308842 0.183159 -0.028918
0.296019 0.183735 -0.164882
0.235222 0.183156 -0.155198
0.217448 0.183156 -0.151552
0.196711 0.183157 -0.147299
0.118631 0.168227 -0.20283
0.0932412 0.158699 -0.243281
-0.115234 0.1576 -0.205817
-0.175329 0.167535 -0.145896
-0.286199 0.183157 -0.0483178
0.274876 0.183155 -0.177601
0.216592 0.183156 -0.165646
0.0465494 0.159298 -0.243253
0.02498 0.158363 -0.243239
-0.101308 0.157865 -0.219704
-0.159606 0.167662 -0.161574
-0.228492 0.178908 -0.0944468
-0.246806 0.183157 -0.0706644
-0.305096 0.183158 -0.0587102
0.250175 0.183155 -0.186347
0.201425 0.183157 -0.176349
0.181352 0.183158 -0.172231
-0.00426792 0.159649 -0.243221
-0.0226376 0.15884 -0.243209
-0.0434047 0.157925 -0.243196
-0.144363 0.167785 -0.176772
-0.274634 0.183157 -0.0787721
-0.294709 0.183158 -0.0746562
0.305067 0.195224 -0.15588
0.231896 0.183156 -0.195976
0.181091 0.183158 -0.185556
0.161334 0.183158 -0.181504
-0.0639341 0.159533 -0.243184
-0.0842297 0.158625 -0.243172
-0.247955 0.183157 -0.0976204
-0.290296 0.183157 -0.0889395
-0.310055 0.183158 -0.0848869
0.247528 0.183156 -0.212146
0.211405 0.183157 -0.204737
0.0656327 0.167936 -0.243265
-0.233219 0.183157 -0.113605
-0.274903 0.183157 -0.105059
-0.313808 0.183158 -0.097081
0.229848 0.183156 -0.221087
0.210694 0.183157 -0.217158
0.19154 0.183157 -0.21323
0.172386 0.183158 -0.209301
0.150495 0.183159 -0.204811
-0.21346 0.183156 -0.130224
-0.232615 0.183157 -0.126296
-0.254507 0.183157 -0.121808
-0.292818 0.183158 -0.113953
0.191138 0.183157 -0.225337
0.15071 0.183159 -0.217045
-0.199685 0.183156 -0.145237
-0.248201 0.183157 -0.135291
-0.269764 0.183157 -0.13087
-0.288632 0.183157 -0.127001
-0.310194 0.183158 -0.12258
0.2173 0.183157 -0.242531
0.166851 0.183158 -0.232184
0.134988 0.183159 -0.225649
0.0514539 0.171184 -0.259958
0.0306937 0.170495 -0.258659
-0.12475 0.17759 -0.196329
-0.223495 0.183157 -0.152184
0.195603 0.183157 -0.249564
0.177287 0.183158 -0.245807
0.145889 0.183159 -0.239368
0.106639 0.183159 -0.231323
0.0932412 0.179684 -0.243281
-0.157644 0.183156 -0.177168
-0.178577 0.183156 -0.172877
-0.19951 0.183156 -0.168585
-0.238759 0.183157 -0.160538
-0.259692 0.183157 -0.156246
-0.278009 0.183157 -0.152491
-0.298942 0.183158 -0.148199
0.130688 0.183159 -0.247404
0.0223019 0.178832 -0.243237
0.0010151 0.177789 -0.243224
-0.0594468 0.170929 -0.259446
-0.096756 0.177535 -0.224242
-0.222636 0.183156 -0.174996
0.230868 0.195091 -0.22971
0.189645 0.183158 -0.27033
0.171849 0.183158 -0.266681
0.151511 0.183159 -0.262509
0.110832 0.183159 -0.254171
-0.0200248 0.179302 -0.243211
-0.0303902 0.173574 -0.264637
-0.138327 0.183155 -0.203117
-0.158666 0.183156 -0.198947
-0.179005 0.183156 -0.194777
-0.199344 0.183156 -0.190608
-0.219683 0.183156 -0.186438
-0.242565 0.183157 -0.181746
-0.262904 0.183157 -0.177576
-0.283244 0.183157 -0.173406
0.131643 0.183159 -0.268969
0.0915318 0.183159 -0.26075
0.052487 0.176724 -0.278835
-0.0741108 0.179119 -0.243177
-0.094291 0.178102 -0.243165
-0.12406 0.183155 -0.216574
-0.17921 0.183156 -0.205269
-0.323521 0.192706 -0.136969
0.166711 0.183158 -0.286402
0.146934 0.183159 -0.282346
0.107377 0.183159 -0.274239
0.0702915 0.183158 -0.26664
0.0311536 0.177629 -0.280727
-0.144798 0.183155 -0.222566
-0.164576 0.183156 -0.218511
-0.199187 0.183156 -0.211415
-0.218965 0.183156 -0.20736
-0.238744 0.183157 -0.203305
-0.258522 0.183157 -0.199251
0.125229 0.183159 -0.287861
0.0862099 0.183159 -0.279866
0.0106104 0.183157 -0.264375
-0.00889903 0.183157 -0.260378
-0.0484651 0.17656 -0.278286
-0.113761 0.183155 -0.238891
0.154631 0.183159 -0.303585
0.106513 0.183159 -0.293722
-0.134081 0.183155 -0.244423
-0.153327 0.183156 -0.240478
-0.172574 0.183156 -0.236532
-0.194227 0.183156 -0.232092
-0.213475 0.183156 -0.228146
-0.242603 0.184126 -0.218401
0.116782 0.183159 -0.305266
0.0859182 0.183159 -0.298942
0.0669254 0.183158 -0.29505
0.0123213 0.183157 -0.283862
-0.00904542 0.183157 -0.279483
-0.0300075 0.180979 -0.283551
-0.0826411 0.183156 -0.264403
-0.104007 0.183156 -0.260025
-0.123 0.183155 -0.256133
0.140952 0.183221 -0.31918
0.0471174 0.183158 -0.300184
-0.0747204 0.183156 -0.275219
-0.142667 0.183155 -0.261295
-0.173126 0.183156 -0.255051
-0.194213 0.183156 -0.250727
0.0972058 0.183159 -0.319403
0.0763902 0.183158 -0.315138
0.0255079 0.183158 -0.304712
0.00237978 0.183157 -0.299972
-0.0184355 0.183157 -0.295707
-0.0947574 0.183156 -0.280069
-0.11326 0.183156 -0.276277
-0.212918 0.185181 -0.248275
0.0569663 0.183158 -0.319885
0.036416 0.183158 -0.315674
-0.0389344 0.183157 -0.300234
-0.13255 0.183155 -0.281052
0.0154848 0.183158 -0.319893
-0.00255227 0.183157 -0.316197
-0.0589176 0.183156 -0.304647
-0.079209 0.183156 -0.300489
-0.15361 0.183156 -0.285242
-0.182907 0.183364 -0.278476
-0.225044 0.192625 -0.236072
-0.0227393 0.183157 -0.320357
-0.0984435 0.183156 -0.304844
-0.129615 0.183155 -0.298457
-0.0446301 0.183157 -0.323964
-0.0688222 0.183156 -0.319007
-0.0877163 0.183156 -0.323032
-0.109442 0.183156 -0.31858
-0.127624 0.183155 -0.322562
-0.148714 0.184697 -0.312887
