ply
format ascii 1.0
comment Created by Open3D
element vertex 787
property double x
property double y
property double z
end_header
-0.148804 -0.185278 0.392808
-0.148787 -0.183945 0.405557
-0.132334 -0.185241 0.420396
-0.148849 -0.185415 0.36011
-0.148891 -0.185208 0.329634
-0.103616 -0.183643 0.419977
-0.14894 -0.185348 0.294541
-0.148925 -0.184291 0.305209
-0.0767629 -0.18471 0.420321
-0.148985 -0.185133 0.26179
-0.0610666 -0.183872 0.420102
-0.149037 -0.185277 0.224029
-0.149021 -0.184181 0.235514
-0.0449224 -0.183011 0.419878
-0.149091 -0.185427 0.184739
-0.149064 -0.183569 0.204581
-0.148827 -0.167462 0.376608
-0.015093 -0.18412 0.420238
-0.149142 -0.1852 0.147992
-0.14898 -0.174412 0.265486
-0.148873 -0.167268 0.343305
-0.148845 -0.165419 0.363434
-0.132422 -0.163257 0.414088
0.00239348 -0.183227 0.420006
0.0163035 -0.185287 0.420616
-0.149201 -0.185354 0.10553
-0.149037 -0.17469 0.224029
-0.149256 -0.185117 0.0657558
-0.149097 -0.174979 0.180722
-0.148945 -0.165259 0.290958
-0.148796 -0.155714 0.399205
0.0537379 -0.183462 0.420145
-0.149319 -0.185275 0.0197212
-0.149293 -0.183664 0.0383752
-0.149166 -0.175646 0.131219
-0.11177 -0.156676 0.412228
0.0733384 -0.182506 0.419898
0.0889239 -0.18468 0.420543
-0.149386 -0.185441 -0.0283777
-0.149359 -0.183793 -0.00888163
-0.148926 -0.157239 0.305209
-0.148887 -0.154884 0.333071
-0.0852015 -0.157087 0.412383
-0.0608972 -0.160408 0.41337
0.0185994 -0.171273 0.416598
0.109648 -0.183717 0.420296
-0.149448 -0.18519 -0.0735485
-0.14942 -0.18351 -0.053245
-0.149213 -0.171096 0.0968223
-0.149131 -0.166178 0.156276
-0.148818 -0.147413 0.383124
-0.031791 -0.160933 0.413561
0.131054 -0.182722 0.42004
0.148072 -0.184999 0.420717
-0.14952 -0.185361 -0.125971
-0.149491 -0.183641 -0.10471
-0.14916 -0.164212 0.135439
-0.149022 -0.156115 0.235514
-0.148859 -0.146575 0.353426
-0.00117195 -0.161486 0.413763
0.170762 -0.183996 0.420461
-0.149588 -0.185096 -0.175296
-0.149573 -0.184215 -0.164153
-0.149332 -0.170421 0.0102711
-0.149262 -0.166389 0.0612417
-0.149238 -0.16497 0.0791838
-0.149065 -0.155053 0.204581
-0.132509 -0.14112 0.407735
0.194233 -0.182959 0.420196
-0.149667 -0.185273 -0.232654
-0.149627 -0.18303 -0.203628
-0.149294 -0.164331 0.0383754
-0.14912 -0.154586 0.164491
-0.149049 -0.150583 0.216296
-0.148991 -0.147355 0.258081
-0.148961 -0.145651 0.280126
-0.148787 -0.13596 0.405557
0.05003 -0.160795 0.413636
0.080529 -0.164612 0.414773
-0.14975 -0.185459 -0.292893
-0.149725 -0.184072 -0.274506
-0.149692 -0.182254 -0.250413
-0.149393 -0.165873 -0.0333061
-0.149366 -0.164395 -0.0137228
0.101038 -0.163329 0.414434
-0.149829 -0.185177 -0.349757
-0.149794 -0.183292 -0.324162
-0.149543 -0.169893 -0.14218
-0.149455 -0.165217 -0.0786822
-0.149262 -0.154914 0.0612418
-0.149092 -0.145821 0.184739
-0.149065 -0.14436 0.204581
-0.148936 -0.137473 0.298111
-0.100279 -0.135437 0.40615
-0.0517904 -0.141227 0.407879
0.0292526 -0.150904 0.410769
0.122218 -0.162004 0.414083
0.139059 -0.164015 0.414684
-0.149921 -0.18537 -0.416105
-0.149902 -0.184397 -0.402557
-0.149874 -0.182956 -0.382499
-0.149513 -0.164149 -0.120619
-0.14932 -0.154071 0.0197216
-0.14919 -0.147288 0.114165
-0.148805 -0.127278 0.392808
-0.0730532 -0.135333 0.406159
-0.0221266 -0.141267 0.407932
0.161505 -0.162663 0.414327
0.179351 -0.164742 0.414948
-0.14966 -0.167425 -0.226792
-0.149597 -0.164214 -0.180908
-0.149434 -0.155985 -0.06335
-0.149407 -0.154577 -0.0432302
-0.149022 -0.135066 0.235514
-0.148869 -0.127284 0.346691
-0.148832 -0.125419 0.373333
0.00909603 -0.141309 0.407988
-0.149847 -0.172346 -0.362752
-0.149742 -0.167163 -0.286733
-0.149288 -0.144684 0.0429888
-0.149226 -0.141612 0.0880408
-0.148907 -0.125849 0.319246
-0.124679 -0.122896 0.402516
-0.14982 -0.16646 -0.343309
-0.149692 -0.160295 -0.250413
-0.149628 -0.157191 -0.203627
-0.149566 -0.154204 -0.15862
-0.149484 -0.150278 -0.099456
-0.149366 -0.144589 -0.0137225
-0.149166 -0.13497 0.13122
-0.149049 -0.129325 0.216297
-0.148981 -0.12606 0.265486
0.0613506 -0.13974 0.40761
0.0767375 -0.141399 0.408108
0.108634 -0.144839 0.409139
-0.149875 -0.164429 -0.382498
-0.149777 -0.15985 -0.311559
-0.149726 -0.157459 -0.274506
-0.14966 -0.154379 -0.226791
-0.149543 -0.148918 -0.14218
-0.149456 -0.14482 -0.0786819
-0.149022 -0.124541 0.235514
0.130118 -0.143197 0.408698
-0.149743 -0.15379 -0.286733
-0.149327 -0.134864 0.0150071
-0.149132 -0.126003 0.156276
-0.149093 -0.124218 0.184739
-0.148941 -0.11733 0.294542
-0.148888 -0.114914 0.333071
-0.137318 -0.111949 0.399357
-0.103579 -0.115392 0.400393
-0.0424834 -0.121625 0.402268
0.0401556 -0.130056 0.404802
0.152323 -0.1415 0.408242
0.169979 -0.143302 0.408783
-0.149912 -0.156798 -0.409312
-0.149839 -0.153566 -0.356237
-0.149628 -0.144271 -0.203627
-0.149428 -0.135419 -0.0582854
-0.1494 -0.134199 -0.0382566
-0.149244 -0.127318 0.0747275
-0.149196 -0.125178 0.109857
-0.0764295 -0.114795 0.40026
-0.0641384 -0.116014 0.400627
-0.0122448 -0.121157 0.402176
0.193547 -0.141556 0.408315
-0.149803 -0.147462 -0.330511
-0.149726 -0.144152 -0.274505
-0.149514 -0.13506 -0.120618
-0.14922 -0.12247 0.0924413
-0.149066 -0.115844 0.204581
-0.149039 -0.114695 0.224029
-0.148869 -0.107447 0.346691
-0.148832 -0.105873 0.373333
0.0196015 -0.120665 0.402079
-0.149777 -0.141839 -0.311559
-0.149693 -0.138337 -0.250412
-0.149597 -0.134357 -0.180907
-0.149544 -0.132139 -0.142179
-0.149485 -0.129692 -0.0994557
-0.14936 -0.124505 -0.00888067
-0.149121 -0.114576 0.164492
-0.148921 -0.106315 0.308739
0.0684187 -0.121567 0.402406
0.0999899 -0.124513 0.403295
-0.149456 -0.124423 -0.0786816
-0.149282 -0.117421 0.047582
-0.148991 -0.105749 0.258081
-0.148961 -0.104526 0.280126
0.121247 -0.122543 0.402759
0.138151 -0.124071 0.403221
-0.149894 -0.137353 -0.395835
-0.149875 -0.136638 -0.382498
-0.149821 -0.134536 -0.343308
-0.149567 -0.124631 -0.158619
-0.149308 -0.114563 0.02909
-0.121542 -0.097351 0.39519
0.0469469 -0.112088 0.399656
0.160684 -0.122036 0.402669
-0.149752 -0.127363 -0.292892
-0.149677 -0.124547 -0.238543
-0.149428 -0.115207 -0.0582851
-0.149401 -0.114169 -0.0382563
-0.149196 -0.106495 0.109857
-0.149167 -0.105388 0.13122
-0.148888 -0.0949288 0.333071
-0.140525 -0.0924946 0.393769
-0.095199 -0.0963266 0.394934
-0.0459535 -0.10049 0.396198
-0.0329696 -0.101588 0.396532
0.183994 -0.11993 0.402097
-0.149839 -0.126061 -0.356236
-0.149795 -0.124458 -0.324161
-0.149529 -0.114818 -0.131348
-0.149251 -0.104738 0.0702519
-0.149023 -0.0964755 0.235514
-0.0021379 -0.10059 0.396289
-0.149903 -0.123709 -0.402555
-0.149718 -0.117247 -0.268437
-0.149645 -0.11468 -0.215152
-0.149629 -0.114125 -0.203627
-0.1495 -0.109613 -0.109987
-0.149367 -0.104975 -0.0137219
-0.149341 -0.104048 0.00551575
-0.149227 -0.100072 0.0880414
-0.149093 -0.0954135 0.18474
-0.149066 -0.0944576 0.204581
-0.148864 -0.0874484 0.350065
-0.148836 -0.0864857 0.370046
0.0914129 -0.104344 0.397496
-0.149761 -0.114244 -0.299083
-0.149471 -0.104505 -0.0890204
-0.149185 -0.094886 0.118456
-0.149049 -0.09035 0.216297
-0.148936 -0.086557 0.298111
-0.0849574 -0.0870963 0.392299
0.0201085 -0.0950561 0.394732
0.112446 -0.102052 0.396868
0.129174 -0.103319 0.397255
-0.149876 -0.113479 -0.382497
-0.149598 -0.104499 -0.180907
-0.149302 -0.0949383 0.0337434
-0.148981 -0.0846158 0.265487
0.0538465 -0.0938326 0.394428
0.0691499 -0.0949471 0.394769
0.151464 -0.100942 0.396604
0.16919 -0.102233 0.396999
-0.149831 -0.107448 -0.349755
-0.149727 -0.104233 -0.274504
-0.149443 -0.0954289 -0.0684364
-0.149415 -0.0945654 -0.0482251
-0.149155 -0.0865388 0.139641
-0.149127 -0.0856522 0.160393
-0.149099 -0.0847836 0.180723
-0.0270962 -0.0843921 0.391606
0.192854 -0.0997646 0.396323
-0.149894 -0.104761 -0.395834
-0.149694 -0.0988121 -0.250412
-0.149567 -0.0950572 -0.158619
-0.14953 -0.0939416 -0.131347
-0.149283 -0.0866221 0.0475824
-0.149209 -0.0844294 0.101186
-0.148888 -0.0749438 0.333071
-0.121593 -0.0745161 0.388637
-0.098533 -0.0760599 0.389113
0.0182787 -0.0838806 0.391523
-0.149796 -0.0973032 -0.324161
-0.149661 -0.0934971 -0.22679
-0.1495 -0.0889314 -0.109987
-0.149388 -0.0857414 -0.028376
-0.149341 -0.0844166 0.00551599
-0.149023 -0.0754263 0.235514
-0.140641 -0.0700218 0.38732
-0.070961 -0.0744819 0.388699
-0.0457184 -0.0760976 0.389199
-0.149876 -0.0949517 -0.382497
-0.14984 -0.0939729 -0.356235
-0.149822 -0.0934911 -0.343307
-0.149471 -0.0840136 -0.0890201
-0.149361 -0.0810268 -0.00888002
-0.149127 -0.0747179 0.160393
-0.148855 -0.0673987 0.356775
-0.00172341 -0.0752822 0.389027
0.0875605 -0.0807342 0.390716
0.120267 -0.0827314 0.391335
-0.149761 -0.0873627 -0.299082
-0.149629 -0.0839785 -0.203626
-0.149264 -0.0745882 0.061243
-0.149239 -0.0739521 0.0791848
-0.149049 -0.0690912 0.216297
-0.148946 -0.0664443 0.290959
-0.148922 -0.0658139 0.308739
0.142318 -0.0800179 0.390587
0.159855 -0.0810371 0.390904
0.177845 -0.0820826 0.391229
-0.149796 -0.083726 -0.32416
-0.149694 -0.0812455 -0.250411
-0.149443 -0.0751249 -0.0684361
-0.149415 -0.0744451 -0.0482247
-0.149388 -0.0737775 -0.0283759
-0.149071 -0.0660745 0.200645
-0.149023 -0.0649017 0.235514
0.035185 -0.0700439 0.387576
-0.149719 -0.0774273 -0.268436
-0.149598 -0.0746424 -0.180906
-0.149568 -0.0739333 -0.158618
-0.149501 -0.072386 -0.109987
-0.149185 -0.0651178 0.118456
-0.149156 -0.0644438 0.139642
-0.0172269 -0.0635558 0.38564
-0.00352585 -0.0642711 0.385865
-0.149761 -0.0739222 -0.299082
-0.149545 -0.0692154 -0.142178
-0.149348 -0.0649281 0.0007388
-0.149322 -0.0643586 0.0197229
-0.149296 -0.063799 0.0383769
-0.148992 -0.0572083 0.258081
-0.148878 -0.0547537 0.339907
-0.101868 -0.0557865 0.383291
0.0589657 -0.0637076 0.385791
-0.149858 -0.0714208 -0.369298
-0.149662 -0.0674049 -0.22679
-0.149093 -0.0558079 0.18474
-0.149044 -0.0548094 0.220171
-0.132864 -0.050998 0.381872
-0.0619228 -0.0542817 0.382915
-0.0362006 -0.0554724 0.383294
0.09505 -0.0615479 0.385222
0.128221 -0.0630834 0.385708
0.163089 -0.0646974 0.38622
0.199792 -0.0663964 0.386758
-0.149823 -0.0661278 -0.343306
-0.149728 -0.064314 -0.274503
-0.149209 -0.05441 0.101187
-0.149066 -0.0516843 0.204582
-0.148846 -0.0474966 0.363435
0.0229808 -0.0544845 0.383094
0.0837066 -0.0571155 0.383934
-0.149695 -0.0592872 -0.250411
-0.149472 -0.055326 -0.0890195
-0.149444 -0.0548208 -0.0684357
-0.149416 -0.0543247 -0.0482244
-0.149388 -0.0538376 -0.0283756
-0.149233 -0.0510887 0.0836226
-0.148961 -0.0462657 0.280126
-0.148936 -0.0458243 0.298111
-0.148907 -0.0453056 0.319246
-0.0796003 -0.0466133 0.38069
0.0419667 -0.0515195 0.38227
-0.149796 -0.0565716 -0.32416
-0.149662 -0.0543588 -0.226789
-0.14963 -0.0538323 -0.203625
-0.149545 -0.0524359 -0.142178
-0.149501 -0.0517043 -0.109986
-0.149179 -0.0464156 0.122729
-0.149133 -0.0456532 0.156277
-0.111848 -0.0419772 0.379314
-0.0379605 -0.0447397 0.380211
0.197707 -0.053551 0.38307
-0.149877 -0.0532656 -0.382496
-0.149322 -0.044856 0.019723
-0.149296 -0.044466 0.0383769
-0.149264 -0.0439879 0.0612431
0.0660754 -0.0447623 0.380365
0.184586 -0.0488409 0.381701
-0.149762 -0.0470414 -0.299081
-0.149599 -0.0447854 -0.180906
-0.149568 -0.04436 -0.158618
-0.149023 -0.0368361 0.235515
-0.148888 -0.0349738 0.333071
-0.14886 -0.0345852 0.353426
0.102664 -0.0420415 0.379635
0.119278 -0.0425639 0.379808
-0.149841 -0.0435484 -0.356234
-0.149823 -0.0433251 -0.343306
-0.149695 -0.0417206 -0.25041
-0.149355 -0.0374657 -0.00405955
-0.149156 -0.0349838 0.139642
-0.149127 -0.0346254 0.160393
-0.149099 -0.0342742 0.180723
-0.136114 -0.0312619 0.376204
-0.0899444 -0.0325759 0.376647
-0.0129188 -0.0347679 0.377385
0.141413 -0.0391602 0.378863
0.159019 -0.0396612 0.379031
-0.149472 -0.0348349 -0.0890192
-0.149444 -0.0345168 -0.0684354
-0.149416 -0.0342044 -0.0482242
-0.149388 -0.0338977 -0.0283754
-0.149071 -0.0303585 0.200645
-0.0617501 -0.0298803 0.375913
-0.149797 -0.0339429 -0.324159
-0.149762 -0.033601 -0.299081
-0.149728 -0.0332658 -0.274503
-0.149546 -0.0314615 -0.142178
-0.149501 -0.0310225 -0.109986
-0.149044 -0.0265207 0.220171
-0.148992 -0.0260038 0.258081
-0.148961 -0.0257032 0.280126
-0.148936 -0.0254579 0.298111
0.0382277 -0.0286273 0.375696
-0.149868 -0.0300284 -0.375879
-0.149264 -0.0248627 0.0612431
-0.149234 -0.0245982 0.0836229
-0.149215 -0.0244422 0.0968236
-0.149179 -0.0241361 0.122729
-0.115163 -0.0218318 0.373528
0.0132767 -0.0243367 0.374429
0.193536 -0.0278522 0.37569
-0.149679 -0.0240353 -0.238541
-0.149647 -0.0238015 -0.21515
-0.149631 -0.0236862 -0.203625
-0.1496 -0.023459 -0.180905
0.0622652 -0.0214121 0.373659
0.0939664 -0.0219355 0.373854
0.110407 -0.022207 0.373955
0.127259 -0.0224853 0.374058
0.162264 -0.0230632 0.374273
-0.149309 -0.0174757 0.0290909
-0.149018 -0.0157558 0.239313
-0.148879 -0.0149328 0.339907
-0.148851 -0.0147675 0.360111
-0.0338728 -0.0162288 0.372035
-0.149842 -0.0160441 -0.356234
-0.149824 -0.0159619 -0.343305
-0.149569 -0.0147866 -0.158617
-0.149531 -0.0146131 -0.131346
-0.149473 -0.0143438 -0.0890191
-0.149444 -0.0142128 -0.0684353
-0.149416 -0.0140842 -0.0482241
-0.149389 -0.0139579 -0.0283754
-0.149362 -0.0138338 -0.00887942
-0.149335 -0.013712 0.010273
0.19145 -0.0149989 0.372
-0.14978 -0.011257 -0.311556
-0.149502 -0.0103409 -0.109986
-0.149071 -0.00892899 0.200645
-0.149746 -0.00668652 -0.28673
-0.149729 -0.00665317 -0.274502
-0.149156 -0.00552376 0.139642
-0.149127 -0.00546717 0.160393
-0.149099 -0.00541173 0.180723
-0.149045 -0.00530415 0.220171
-0.148992 -0.00520076 0.258081
-0.148962 -0.00514064 0.280126
-0.148937 -0.0050916 0.298111
-0.148907 -0.00503396 0.319246
-0.0864081 -0.00518102 0.36879
-0.0741248 -0.00523645 0.368824
-0.0487527 -0.00535093 0.368893
-0.00854385 -0.00553237 0.369002
0.0344876 -0.00572655 0.369119
-0.149851 -0.00229795 -0.362748
-0.149696 -0.00219583 -0.25041
-0.149615 -0.00214293 -0.19221
-0.149252 -0.00190434 0.0702527
-0.129851 -0.00166254 0.367718
-0.10687 -0.00169712 0.367761
0.0539649 -0.00193917 0.368059
0.0694635 -0.00196249 0.368088
0.101607 -0.00201086 0.368148
0.118281 -0.00203596 0.368179
0.135378 -0.00206169 0.36821
0.170901 -0.00211515 0.368275
-0.149824 0.00684077 -0.343304
-0.149798 0.00678856 -0.324158
-0.149763 0.00672017 -0.29908
-0.149729 0.00665314 -0.274502
-0.149663 0.00652302 -0.226788
-0.149584 0.00636736 -0.169708
-0.149554 0.00630715 -0.147631
-0.149531 0.00626274 -0.131346
-0.149473 0.00614731 -0.0890189
-0.149444 0.00609118 -0.0684352
-0.149416 0.00603606 -0.048224
-0.149389 0.00598193 -0.0283753
-0.149362 0.00592876 -0.00887936
-0.149335 0.00587653 0.010273
-0.149309 0.00582521 0.029091
-0.149284 0.00577478 0.047583
-0.149228 0.00566445 0.0880419
-0.149197 0.00560495 0.109858
-0.149168 0.0055467 0.131221
-0.149145 0.00550096 0.147994
-0.149116 0.00544483 0.168575
-0.149088 0.00538984 0.18874
-0.149061 0.00533594 0.208502
-0.149034 0.00528312 0.227873
-0.149002 0.00522109 0.250618
-0.148977 0.0051705 0.269168
-0.148947 0.00511108 0.290959
-0.148922 0.00506259 0.308739
-0.148893 0.00500561 0.329635
-0.0758446 0.00523687 0.365816
-0.0633132 0.00529351 0.365817
-0.0374193 0.00541053 0.36582
-0.0240383 0.00547101 0.365822
0.00364161 0.0055961 0.365826
0.0179617 0.00566082 0.365827
-0.149502 0.0103409 -0.109986
-0.149842 0.0160441 -0.356233
-0.149632 0.015073 -0.203624
0.192834 0.0150685 0.363374
-0.149696 0.0197624 -0.250409
-0.148865 0.0148497 0.350065
0.0610681 0.0175946 0.362464
0.0767807 0.017808 0.362425
0.109378 0.0182506 0.362344
0.143636 0.0187158 0.36226
-0.149825 0.0250829 -0.343304
-0.149252 0.0209476 0.0702528
-0.133136 0.0182909 0.361988
-0.11022 0.0186714 0.361911
0.166778 0.0232712 0.360985
-0.149781 0.0292682 -0.311555
-0.149459 0.0265162 -0.0786797
-0.14943 0.0262752 -0.0582836
-0.149402 0.0260385 -0.0382549
-0.149362 0.0256914 -0.0088793
-0.149335 0.025465 0.0102732
-0.149309 0.0252427 0.0290911
-0.149284 0.0250241 0.0475831
0.0394377 0.0250163 0.360304
-0.149747 0.0334325 -0.286729
-0.14973 0.0332658 -0.274502
-0.149664 0.0326152 -0.226788
-0.149546 0.0314615 -0.142177
-0.149502 0.0310226 -0.109986
-0.148977 0.0258526 0.269168
-0.148947 0.0255555 0.290959
-0.148922 0.025313 0.308739
-0.148893 0.0250281 0.329635
-0.149632 0.0366059 -0.203624
-0.1496 0.0362548 -0.180905
-0.149569 0.0359104 -0.158617
-0.149072 0.0303585 0.200645
-0.0880381 0.0294714 0.358844
0.129343 0.035059 0.357549
0.164717 0.0359683 0.357339
-0.149696 0.0417206 -0.250409
-0.14924 0.0360279 0.0791853
-0.149209 0.0356479 0.101187
-0.149186 0.0353497 0.118457
-0.149156 0.0349838 0.139642
-0.149128 0.0346253 0.160393
-0.149099 0.0342742 0.180723
-0.149045 0.0335929 0.220171
-0.149018 0.0332623 0.239313
-0.0594734 0.033777 0.357649
-0.0332956 0.0345294 0.35747
-0.00592494 0.0353161 0.357283
0.00823343 0.0357231 0.357187
0.0842196 0.0379072 0.356668
0.188641 0.0409087 0.355954
-0.149747 0.0468055 -0.286729
-0.14973 0.0465721 -0.274502
-0.149664 0.0456612 -0.226788
-0.148865 0.0346493 0.350065
0.105418 0.0425932 0.355353
-0.151139 0.0518372 -0.316422
-0.149582 0.0482391 -0.142147
-0.149502 0.0475679 -0.109985
-0.14943 0.0464869 -0.0582834
-0.149403 0.0460682 -0.0382547
-0.149362 0.045454 -0.00887918
-0.149336 0.0450536 0.0102732
-0.125114 0.0386446 0.356158
-0.11357 0.0390467 0.356059
0.061782 0.0451544 0.354556
-0.153112 0.0570959 -0.35266
-0.149156 0.0460312 0.139642
-0.149128 0.0455596 0.160393
-0.1491 0.0450976 0.180723
-0.0350826 0.0454374 0.354337
-0.153732 0.0591726 -0.252427
-0.153141 0.0577757 -0.194669
-0.152092 0.0552957 -0.0921183
-0.149097 0.0482151 0.200658
-0.148937 0.0458243 0.298112
-0.148908 0.0453056 0.319246
-0.0702657 0.0476582 0.35365
-0.156086 0.0653394 -0.323824
-0.152227 0.0561314 0.0310501
-0.152027 0.055656 0.0493702
-0.156381 0.0665838 -0.208831
-0.155866 0.0653452 -0.164125
-0.15319 0.0589071 0.0682403
-0.151427 0.054667 0.221274
-0.151208 0.0541404 0.240281
-0.150994 0.0536238 0.258925
-0.150741 0.0530168 0.280834
-0.159664 0.0750197 -0.351957
-0.159055 0.0735442 -0.301876
-0.158759 0.072828 -0.277567
-0.156777 0.0680252 -0.114553
-0.156092 0.0663651 -0.0582072
-0.155851 0.0657814 -0.0383936
-0.151242 0.0546126 0.340692
-0.159942 0.076183 -0.24632
-0.159793 0.0758188 -0.234655
-0.158511 0.072692 -0.13448
-0.157019 0.0690531 -0.017902
-0.155669 0.0657611 0.0875612
-0.155392 0.0650866 0.109171
-0.127318 0.0587778 0.353431
-0.105002 0.0599534 0.353463
-0.159351 0.0751736 -0.086266
-0.155402 0.0654864 0.207622
-0.163857 0.0866758 -0.303061
-0.1636 0.0860429 -0.284827
-0.162292 0.0828179 -0.191903
-0.159613 0.0762121 -0.00157011
-0.159284 0.0753994 0.0218467
-0.155361 0.0657269 0.300539
-0.155115 0.0651216 0.317981
-0.165693 0.0916355 -0.319878
-0.164038 0.0875348 -0.207367
-0.163465 0.0861151 -0.168413
-0.163067 0.0851288 -0.141354
-0.159099 0.075298 0.128376
-0.158794 0.0745428 0.149094
-0.158495 0.0738027 0.169401
-0.158202 0.0730771 0.189309
-0.167551 0.0966515 -0.336885
-0.164206 0.0883287 -0.11892
-0.163342 0.0861805 -0.0626605
-0.163039 0.085425 -0.0428749
-0.161323 0.0811564 0.0689174
-0.158873 0.0750613 0.228541
-0.158529 0.074204 0.250994
-0.158247 0.0735043 0.269318
-0.167961 0.0980569 -0.262197
-0.16686 0.0953076 -0.193323
-0.163085 0.0858772 0.0429292
-0.158343 0.0740321 0.339674
-0.166835 0.0955885 -0.100921
-0.162646 0.0850887 0.151199
-0.138154 0.0781635 0.353416
-0.11627 0.0797117 0.353447
-0.170609 0.1054 -0.23583
-0.166811 0.0958478 -0.0155823
-0.166485 0.0950276 0.00332934
-0.173601 0.113275 -0.317663
-0.172844 0.111365 -0.275305
-0.171806 0.108745 -0.217213
-0.170912 0.106491 -0.167219
-0.170432 0.105278 -0.140329
-0.166553 0.0954927 0.0766791
-0.16609 0.0943237 0.102603
-0.164345 0.0899206 0.200247
-0.162566 0.0854339 0.299743
-0.175607 0.118674 -0.340798
-0.17481 0.116657 -0.297708
-0.171486 0.108246 -0.118035
-0.170822 0.106566 -0.0821316
-0.170451 0.105628 -0.0621116
-0.168112 0.0997094 0.0643297
-0.166242 0.0949786 0.16539
-0.174563 0.116339 -0.203107
-0.170292 0.105507 0.0201249
-0.166458 0.0957776 0.220611
-0.165886 0.0943279 0.250485
-0.165538 0.093444 0.268701
-0.178347 0.126253 -0.318801
-0.177163 0.123242 -0.258858
-0.174028 0.115268 -0.100147
-0.170145 0.105393 0.0964205
-0.169562 0.10391 0.125953
-0.165761 0.0942438 0.318359
-0.16536 0.0932236 0.338667
-0.178192 0.126149 -0.234202
-0.17422 0.116024 -0.0392712
-0.173828 0.115025 -0.0200557
-0.170254 0.105914 0.155354
-0.138152 0.0981203 0.353415
-0.116271 0.100064 0.353447
-0.182193 0.136643 -0.352688
-0.177935 0.125765 -0.149932
-0.173924 0.115519 0.041068
-0.181901 0.136173 -0.265976
-0.181648 0.135527 -0.254298
-0.178908 0.128513 -0.127563
-0.177803 0.125684 -0.0764631
-0.174857 0.118144 0.0597714
-0.171908 0.110594 0.196183
-0.169989 0.105682 0.284928
-0.169761 0.105098 0.295469
-0.181874 0.136364 -0.196154
-0.181386 0.135113 -0.174228
-0.177472 0.125075 0.00174683
-0.17348 0.114837 0.181225
-0.169869 0.105577 0.343547
-0.185691 0.146419 -0.298452
-0.181374 0.135327 -0.109604
-0.177064 0.124252 0.0789354
-0.173747 0.115729 0.224047
-0.173491 0.115071 0.235246
-0.172822 0.113353 0.264497
-0.185551 0.146307 -0.226916
-0.181592 0.136118 -0.0583008
-0.177651 0.125975 0.109567
-0.177163 0.124719 0.130352
-0.172611 0.113002 0.324255
-0.190015 0.15805 -0.350263
-0.189419 0.156512 -0.325511
-0.185291 0.14587 -0.154176
-0.182487 0.138643 -0.0378173
-0.181022 0.134866 0.0229896
-0.177447 0.125651 0.171359
-0.138152 0.118077 0.353415
-0.189888 0.15796 -0.281764
-0.189309 0.156466 -0.258345
-0.186054 0.148064 -0.126635
-0.185046 0.14546 -0.0858204
-0.181235 0.135622 0.0683942
-0.178288 0.128013 0.187662
-0.189205 0.156422 -0.194798
-0.184815 0.145073 -0.0214635
-0.18102 0.13526 0.128421
-0.180504 0.133928 0.14877
-0.177163 0.125289 0.280709
-0.185065 0.145919 0.0212137
-0.184598 0.144709 0.0392351
-0.177076 0.125236 0.32924
-0.159219 0.125613 0.353391
-0.18862 0.155324 -0.0626692
-0.18082 0.135104 0.231139
-0.180045 0.133095 0.260328
-0.197741 0.179191 -0.347868
-0.196745 0.176605 -0.31118
-0.194223 0.17006 -0.218332
-0.19274 0.166211 -0.163717
-0.191322 0.162531 -0.11152
-0.188415 0.154984 -0.00444269
-0.18016 0.133559 0.299521
-0.197236 0.178092 -0.273993
-0.196435 0.176009 -0.245121
-0.193408 0.168142 -0.136087
-0.184763 0.145678 0.175256
-0.183803 0.143183 0.209838
-0.179905 0.133054 0.350216
-0.138153 0.138034 0.353415
-0.199191 0.183378 -0.290066
-0.196296 0.175845 -0.188009
-0.191965 0.164577 -0.0353525
-0.189748 0.15881 0.0427728
-0.188758 0.156234 0.0776739
-0.188155 0.154666 0.098918
-0.194982 0.172612 -0.0928597
-0.19247 0.166069 -0.00616646
-0.187976 0.154367 0.148893
-0.184483 0.145268 0.26946
-0.199746 0.185211 -0.207176
-0.184503 0.14547 0.308118
-0.159216 0.14519 0.35339
-0.196203 0.176146 -0.0417874
-0.191137 0.162926 0.126042
-0.188199 0.155259 0.223363
-0.187535 0.153526 0.245373
-0.184424 0.145407 0.348437
-0.199635 0.185276 -0.10952
-0.19796 0.180903 -0.0551386
-0.19594 0.175626 0.0104693
-0.195827 0.175488 0.0558884
-0.191358 0.163805 0.198256
-0.187135 0.152763 0.332809
-0.138153 0.15799 0.353415
-0.199532 0.185336 -0.0198577
-0.197643 0.180393 0.0391958
-0.195852 0.175706 0.0951812
-0.193272 0.168954 0.175851
-0.195876 0.175916 0.132978
-0.195484 0.174888 0.14503
-0.191795 0.165228 0.258222
-0.190767 0.162535 0.289781
-0.19901 0.184271 0.0756242
-0.195544 0.17532 0.215624
-0.194555 0.172725 0.244908
-0.191755 0.165382 0.327781
-0.195478 0.175403 0.284712
-0.194762 0.173521 0.30521
-0.16945 0.172905 0.353378
-0.194455 0.172835 0.345284
-0.199101 0.185169 0.246994
-0.148779 0.182824 0.3534
-0.199033 0.185223 0.310276
-0.199001 0.185249 0.340307
