ply
format ascii 1.0
comment Created by Open3D
element vertex 1590
property double x
property double y
property double z
end_header
0.110528 -0.101886 -0.234403
0.115931 -0.0148703 -0.386478
-0.140152 0.111023 -0.375622
-0.0650372 -0.0392684 2.60672e-07
0.0213165 -0.101886 -0.138879
0.0952628 -0.0296865 -0.145156
-0.122331 -0.0564792 -0.433197
0.177303 -0.0296865 -0.0110727
0.152893 0.0212774 -0.0363222
-0.127172 -0.0296865 0.188721
0.142667 -0.0806509 -0.330208
0.0830043 -0.0296865 -0.0330633
0.170835 -0.0296865 -0.303011
0.186869 -0.0648703 -0.304125
0.0616312 0.0212774 -0.17385
-0.144399 0.0550007 0.126015
0.0854629 -0.101886 -0.324501
-0.0385285 -0.0806509 -0.275076
0.0349592 -0.101886 0.161882
0.186869 -0.0932029 0.0669654
-0.0129278 0.0668245 0.433197
-0.0747474 0.0153713 -0.205158
-0.00289853 -0.0806509 0.135319
-0.099853 0.152665 2.60672e-07
0.001987 -0.0806509 0.0743701
-0.140152 0.0757719 -0.16156
-0.144399 -0.0556009 0.397739
-0.0719181 0.00835144 0.38648
-0.0521814 -0.0472487 -0.386478
0.0934731 -0.0296865 0.221276
-0.176033 -0.0806509 -0.272332
0.0746372 -0.0296865 -0.180905
-0.0402483 -0.0806509 0.427568
0.150505 0.0212774 0.354972
-0.0998479 -0.101886 -0.228026
-0.08841 0.0212774 0.132446
-0.186869 0.00875924 -0.0485713
-0.117548 -0.0296865 -0.00490954
0.186869 -0.0580505 0.0878671
0.160221 -0.0806509 0.332265
-0.130912 -0.0806509 0.315412
-0.0851724 0.165592 0.366131
-0.138112 -0.0486065 0.433197
0.135161 -0.101886 0.36014
-0.140152 -0.0208979 0.0633583
0.0727183 0.0212774 0.108848
0.0343058 0.1317 -0.428448
-0.140152 0.156085 -0.10393
-0.112887 0.113352 2.60672e-07
-0.0471953 -0.0806509 -0.0442428
0.142477 0.129441 -0.433197
-0.0405707 -0.0162793 -0.433197
0.116233 -0.0806509 -0.169598
0.0851226 -0.0296865 0.0659559
0.170348 -0.0258426 2.60672e-07
0.186869 -0.0127725 -0.0935271
0.124483 -0.0296865 -0.290581
0.114042 -0.0608922 0.433197
0.0291086 -0.101886 0.0897894
-0.039355 -0.0296865 0.204241
-0.106371 -0.0562332 -0.433197
0.0801976 -0.0806509 -0.395054
0.185536 -0.101886 -0.308681
-0.186869 -0.0517151 0.196457
-0.140152 0.146915 -0.281451
-0.144399 0.0861101 -0.273239
-0.118665 -0.0806509 -0.0673854
-0.0870209 -0.0724709 0.38648
0.180343 -0.0716176 2.60672e-07
0.0568711 -0.0296865 -0.0953031
0.131484 -0.0233244 -0.433197
0.132843 -0.0806509 -0.327591
-0.0998623 0.0212774 0.287553
-0.0651506 0.0212774 0.135182
-0.041375 0.0411872 -0.433197
0.105394 -0.0296865 0.151069
-0.0747474 0.00572697 0.367437
0.11618 -0.0806509 -0.133281
-0.0708613 0.11819 -0.389593
0.0406039 -0.101886 0.339407
-0.117251 -0.0296865 0.31611
-0.0491519 -0.0806509 0.414082
0.00411014 -0.101886 -0.411187
-0.068172 0.0535697 0.433197
-0.140152 0.0940213 0.376323
0.114438 0.0718161 0.433197
-0.104865 -0.0214737 2.60672e-07
0.125352 -0.101886 -0.379737
-0.186869 -0.0408895 0.373709
-0.0747474 0.100564 0.215503
-0.140152 -0.0786959 0.279714
0.151294 -0.101886 -0.254872
-0.00310917 -0.0296865 -0.26252
0.123842 -0.0296865 -0.311272
-0.144399 -0.00957548 -0.223806
0.0893131 -0.0296865 0.153161
-0.186869 0.0220935 -0.07419
-0.152632 0.1317 0.429069
0.105616 -0.0806509 0.208392
0.0859919 -0.0296865 -0.27953
-0.00103907 -0.101886 -0.31702
-0.147531 -0.0806509 0.0307147
0.0572054 -0.0296865 -0.066509
-0.144399 0.0664958 0.104608
0.14363 0.0204893 0.38648
0.087902 0.0604648 0.433197
0.131716 -0.0806509 -0.254016
0.00141105 -0.0296865 -0.325139
-0.132354 -0.0296865 -0.214793
0.153172 -0.101886 -0.239267
0.0134537 0.0212774 0.0739476
-0.106851 -0.0296865 0.193726
0.0130191 -0.0240799 -0.386478
0.084083 -0.0296865 0.00313062
-0.126378 -0.101886 -0.223735
0.128591 -0.101886 -0.326943
-0.143824 -0.0806509 -0.306196
0.0595604 0.0212774 -0.0342825
-0.066635 -0.0806509 0.377997
0.0395733 -0.0806509 -0.126129
-0.140152 -0.0158968 0.318077
-0.186869 0.0439426 0.359377
0.0401065 0.0212774 0.341613
0.0789843 -0.101886 0.327083
-0.140152 0.00531079 -0.238599
-0.186869 0.0653344 0.151946
0.139579 -0.0296865 -0.166525
-0.140152 0.0891204 -0.275238
0.0189653 -0.101886 -0.400191
-0.186869 0.00875447 0.0821753
-0.0609357 -0.0806509 0.253935
0.13578 -0.0155736 -0.433197
-0.178808 0.1317 -0.0419057
0.121345 -0.0235671 -0.433197
-0.037728 -0.0806509 0.143761
-0.102854 -0.0296865 -0.386423
-0.140152 0.045493 -0.0251716
-0.00300516 -0.0806509 0.249997
-0.164613 -0.0806509 -0.140316
0.186869 0.0163415 0.363165
-0.0579617 -0.0296865 -0.00314209
-0.144399 -0.0525035 -0.0254208
-0.136138 -0.0806509 -0.0645722
-0.144399 0.070536 -0.427173
0.143276 -0.0806509 -0.259164
-0.0460049 -0.0296865 0.306226
-0.186869 0.0158324 -0.312996
-0.140152 -0.0665301 0.238049
-0.134004 -0.0806509 0.302891
0.177398 -0.0296865 -0.302832
-0.00304735 -0.0617779 -0.433197
0.0632379 -0.0296865 0.00374448
0.16664 -0.0296865 0.357932
-0.115518 0.0900744 2.60672e-07
-0.140152 0.0847365 -0.172821
-0.186869 0.0913494 -0.0528455
-0.130024 0.0212774 0.334333
-0.0297261 -0.101886 -0.301688
-0.140152 -0.00604362 -0.199827
0.0434888 0.0212774 -0.289354
-0.0816135 -0.0296865 0.222043
-0.114259 -0.0806509 -0.0755574
0.186869 -0.0563807 0.165276
-0.134142 -0.0806509 -0.0769076
0.0222524 -0.048702 2.60672e-07
0.0809349 -0.0806509 0.23712
0.186869 -0.101056 -0.160679
-0.157428 0.1317 -0.324657
0.154028 -0.0674555 -0.433197
0.0698367 -0.0806509 -0.104249
-0.140152 0.0444867 -0.313861
-0.181219 -0.101886 -0.345801
-0.144399 0.0686496 0.230416
-0.0509613 0.0212774 0.263612
0.180673 -0.0296865 0.159404
-0.0747474 -0.0128781 0.0541803
-0.118772 -0.101886 -0.0951954
-0.153005 0.1317 -0.0555608
0.0261442 -0.101886 -0.415749
-0.140152 -0.046175 -0.109257
-0.186869 0.0551843 0.386226
-0.0853386 -0.0284882 -0.386478
-0.186869 -0.0960843 0.00131933
-0.170299 -0.0806509 -0.241988
-0.0960298 0.165592 0.189
-0.0758014 0.0591899 0.38648
-0.0990986 0.0212774 -0.0216696
0.00513005 -0.101886 0.171197
-0.00349313 -0.0296865 0.178432
-0.048688 -0.0296865 0.0613722
-0.144399 0.0246644 0.414587
-0.144399 0.0535015 0.0509554
0.167037 -0.0296865 -0.204436
0.0525652 0.1317 -0.422394
-0.0137756 0.0212774 0.177173
-0.186869 -0.0391078 -0.0633946
0.186869 -0.0224277 -0.103259
-0.0431751 -0.0296865 -0.196922
0.178824 -0.0806509 0.264756
-0.186869 -0.0363652 0.326859
0.163172 -0.101886 -0.354016
0.0497373 0.0212774 0.3069
-0.108539 -0.0657795 2.60672e-07
-0.140152 0.12096 0.107253
-0.167008 -0.0806509 -0.259905
0.102326 -0.0296865 -0.276209
0.0124573 -0.0296865 -0.32309
-0.186869 0.0801397 -0.374036
0.150631 0.0212774 -0.00038944
-0.0499617 -0.0296865 -0.317612
-0.131598 -0.0806509 -0.400763
-0.165564 0.1317 0.215422
-0.121297 -0.0806509 0.305864
0.0701665 0.0816874 0.38648
-0.140152 0.143132 0.0705931
-0.129949 0.165592 -0.257086
0.165568 0.0765841 -0.433197
0.136178 0.0212774 0.172768
-0.109442 -0.101886 0.0756934
0.01443 -0.0806509 0.173509
-0.0121638 -0.025399 0.38648
-0.00303512 -0.0296865 0.0214553
-0.140152 -0.0326434 -0.142201
-0.0305049 -0.0296865 0.159523
-0.140152 0.0488093 -0.256688
-0.185136 0.1317 -0.170714
-0.111102 0.165592 0.192719
0.101795 -0.0806509 -0.116386
0.128924 0.0212774 0.0280142
0.153724 -0.00483242 0.433197
-0.0878569 -0.0296865 0.0860864
-0.0885902 -0.0806509 0.156792
-0.0872576 0.165592 -0.115017
-0.186869 -0.0507575 -0.185926
-0.124405 0.0212774 -0.00311502
-0.170041 -0.115592 0.433197
-0.183414 0.1317 0.393501
0.00674751 0.0203252 2.60672e-07
-0.14756 -0.101886 -0.00386325
0.152345 0.0212774 0.112516
-0.144399 0.0908781 0.276761
-0.140152 -0.0361882 0.357226
0.125694 0.0212774 -0.131744
-0.0279127 -0.101886 -0.375013
0.159476 -0.0806509 -0.332738
-0.135447 -0.0296865 0.345046
-0.121056 0.0212774 -0.14636
-0.0998137 0.165592 -0.312971
-0.0431762 -0.0296865 -0.179297
-0.0619646 -0.0296865 0.302772
-0.144399 0.0427468 0.360848
-0.140152 -0.0154945 -0.337292
-0.144399 0.12191 -0.286812
-0.140096 0.165592 -0.325223
-0.178849 0.1317 0.278442
0.128093 -0.0806509 0.282101
-0.0637343 -0.0806509 0.364251
-0.180198 -0.0806509 0.220553
0.186869 -0.0037152 -0.292773
0.020643 0.0125217 0.433197
0.0540381 -0.0296865 -0.250693
-0.0885555 -0.0296865 -0.378193
0.117119 0.0212774 0.000639682
-0.0747474 0.148716 -0.102312
-0.0747474 0.0986161 -0.156191
-0.115938 0.0851154 2.60672e-07
-0.123563 0.0212774 0.159328
-0.140152 0.0787788 0.00459923
-0.103339 -0.0296865 -0.340364
-0.0963704 -0.0641068 -0.433197
-0.0295459 -0.0806509 -0.133074
-0.0747474 0.0357146 -0.200244
-0.140152 -0.0243247 0.0607978
-0.0833939 0.165592 0.0557662
-0.0390805 0.0212774 0.216359
0.121812 -0.0296865 -0.174769
-0.0269355 -0.0806509 0.0105083
0.0762571 -0.0296865 -0.302005
0.170074 -0.0296865 -0.341576
-0.186869 -0.0531312 0.115689
0.115972 -0.0296865 0.384606
-0.0412928 -0.0806509 -0.240774
0.0956829 -0.101886 -0.27344
-0.0279824 -0.0806509 -0.187311
-0.0593845 0.0685845 0.433197
-0.128584 -0.0296865 0.00444227
0.0822743 -0.00624086 0.433197
0.165114 0.119531 -0.390374
-0.0214404 -0.0296865 0.19388
-0.186869 0.114523 0.336058
0.079808 0.0212774 -0.0197279
0.0975491 0.0212774 -0.170529
0.145107 -0.101886 0.116101
-0.0886587 0.165592 -0.306748
-0.186869 0.0550608 0.258554
-0.125535 -0.0296865 -0.24249
-0.140152 0.0992381 0.202703
-0.144399 0.113324 -0.41455
0.045208 0.00649039 2.60672e-07
-0.0747474 -0.000182656 0.275332
-0.0971602 -0.0806509 -0.363076
0.150215 -0.0806509 0.379395
0.0033924 -0.0296865 0.185001
-0.0747474 0.107378 -0.329897
0.186869 -0.0391528 -0.261148
-0.120468 0.0212774 -0.0241309
-0.0649118 -0.101886 0.0195514
0.158826 -0.0296865 -0.0758691
0.165796 0.0212774 -0.075041
0.0864868 -0.0296865 0.269522
0.134789 0.00724599 0.38648
0.0743939 0.0254211 -0.433197
0.0742819 -0.0296865 -0.342902
0.115824 0.00952167 0.433197
-0.0855342 0.0212774 -0.0271125
0.16036 -0.0296865 -0.358432
-0.0145741 -0.0806509 -0.364166
-0.144107 0.00117741 0.433197
-0.124638 0.165592 0.219286
0.1383 0.0212774 0.324796
-0.0297489 -0.0656097 0.38648
-0.069406 -0.101886 -0.0760557
-0.140152 0.115725 0.122377
-0.186869 -0.0640513 -0.423369
0.186869 -0.0925347 0.307497
0.0868153 -0.0806509 0.23643
0.005257 0.0212774 0.0116816
0.06467 -0.0806509 -0.217128
0.0891749 0.0754418 -0.433197
-0.075617 0.0563698 2.60672e-07
-0.101548 -0.0296865 0.158091
-0.186869 -0.00439842 -0.120186
-0.0259316 -0.101886 -0.18955
-0.0747474 0.0617103 0.136366
-0.0753919 -0.0296865 -0.223413
0.0603435 -0.101886 0.0968294
-0.00507126 -0.0296865 0.215105
0.108747 -0.0806509 -0.0505094
-0.161184 -0.0380817 -0.433197
-0.140152 0.0669866 -0.106637
0.0833611 0.1317 0.430231
0.116893 -0.0296865 0.283106
0.131664 -0.0296865 0.361223
-0.0936637 -0.0806509 -0.0601889
0.0247573 0.0124052 2.60672e-07
0.0190806 0.0938242 -0.386478
0.0968537 -0.0806509 -0.287554
-0.0869374 -0.101886 0.282333
-0.168144 -0.0806509 0.416452
-0.0747474 0.080536 0.290302
0.0802428 -0.0806509 -0.0885926
0.0558073 -0.0296865 -0.319043
-0.186869 -0.0254895 0.262963
-0.176698 -0.101886 0.23509
-0.0305859 -0.0296865 0.0673891
-0.140152 0.052101 -0.227682
0.0758755 -0.0296865 -0.0329276
-0.137871 -0.0296865 -0.049994
0.186869 -0.0883427 -0.0244656
-0.0724421 -0.101886 -0.0387586
-0.144399 0.0948988 0.288792
-0.0143479 -0.0806509 -0.335701
0.118633 -0.0296865 -0.12799
-0.12962 -0.101886 0.0275288
-0.160554 -0.101886 -0.422597
-0.13982 -0.0296865 -0.137885
0.186869 0.0277271 -0.390431
-0.0478119 0.0212774 0.118979
-0.139913 -0.0296865 0.236531
0.186869 0.000698782 -0.0598357
-0.0219919 -0.101886 -0.382288
-0.144399 -0.0451757 0.168639
-0.100596 0.0212774 0.0835426
-0.0694464 0.1317 -0.433035
-0.144399 -0.068431 -0.363287
-0.154737 -0.0806509 0.21296
-0.144399 -0.0613927 0.116536
0.12027 -0.0296865 -0.0266267
-0.1069 -0.0806509 0.373533
0.147683 -0.0806509 -0.262484
0.05305 0.1317 0.42488
0.0605363 0.0212774 0.0252887
-0.140152 0.0205797 0.159752
-0.0289467 -0.101886 0.301805
-0.107175 -0.0806509 0.370948
-0.000344783 -0.0806509 -0.313398
0.16111 -0.101886 0.410427
-0.0747474 0.0814795 -0.0196363
0.0297829 -0.0832013 0.433197
0.156354 -0.0296865 -0.22592
-0.186869 -0.00632277 -0.152563
0.118287 -0.0806509 0.409733
0.186869 -0.00965337 0.0714753
-0.0747474 0.0708542 0.189439
-0.146984 -0.0806509 0.0236979
0.0841786 -0.039345 0.38648
-0.156253 -0.101886 -0.341551
0.106411 -0.0806509 -0.0190523
-0.158673 -0.0806509 -0.0857037
-0.163274 -0.0806509 0.379412
-0.121002 -0.0806509 0.0237976
0.153362 -0.0296865 -0.00390216
-0.140152 -0.0105854 -0.0506421
-0.120367 -0.101886 0.086021
0.157358 -0.0806509 0.380205
-0.0944271 -0.101886 -0.425285
0.0902013 0.0053804 -0.386478
-0.140152 0.00349426 0.191217
-0.0755992 -0.0806509 -0.19629
-0.140128 0.102403 0.433197
0.153194 -0.101886 -0.14093
-0.142784 -0.0806509 -0.221642
0.151519 -0.0806509 0.357084
-0.0341652 -0.0806509 -0.307947
0.186869 0.0163986 0.0947713
0.102119 -0.0806509 -0.010035
0.0727288 -0.0296865 0.310239
0.186869 0.0204854 0.251367
-0.138416 0.165592 0.0315111
0.0899199 -0.0731306 -0.386478
-0.186869 0.0815998 -0.106137
0.179773 -0.0806509 0.181683
-0.140152 0.0392482 0.349752
-0.140152 0.0159732 -0.130079
0.186869 -0.0390649 0.160709
-0.144399 0.0919305 0.312958
-0.102869 0.165592 -0.14951
0.0119845 -0.0296865 0.063814
0.0907083 0.0212774 0.109478
0.143592 -0.0296865 0.281051
0.034426 -0.0296865 0.154814
-0.140152 -0.0514182 -0.196254
-0.0946689 -0.0296865 -0.160422
0.0327246 0.0212774 -0.142947
-0.119078 -0.0666493 0.38648
0.0845549 -0.0806509 0.107934
-0.0461411 -0.101886 -0.282707
-0.13878 -0.0296865 0.141037
0.0285354 -0.0736937 -0.386478
0.126475 -0.0296865 0.176627
0.0161388 -0.0806509 -0.0466228
0.149309 0.0212774 0.10678
-0.186869 -0.0305972 -0.236192
-0.0747474 0.0567271 -0.0970731
0.08116 -0.0806509 0.365992
0.076902 -0.0437187 -0.386478
-0.00347752 -0.0806509 0.289676
-0.140152 0.164027 -0.203508
0.186869 0.00267907 -0.305185
0.173993 0.0119028 2.60672e-07
-0.068622 0.0114076 -0.386478
-0.0710668 0.1317 -0.41218
-0.144399 -0.0693008 -0.0641533
-0.167259 -0.0806509 0.255714
-0.0615336 0.0212774 0.311198
0.0222348 -0.0806509 -0.176523
0.0570364 0.0156393 0.38648
-0.0879529 -0.0806509 0.263762
0.0345387 -0.0806509 0.106139
-0.144399 0.0772367 -0.402684
-0.186869 -0.109832 0.42422
0.117735 0.0212774 -0.22701
0.105063 0.0212774 -0.245525
-0.0747474 -0.00888888 0.213183
-0.144399 -0.0695805 0.143138
-0.0349597 -0.101886 -0.380212
-0.050084 -0.101886 0.413512
0.167315 0.0441545 0.433197
-0.0793576 -0.0296865 0.140748
-0.10192 -0.101886 0.304293
0.12874 0.0212774 -0.0148498
0.185526 -0.0806509 -0.219989
0.148983 -0.0806509 0.192307
-0.00755443 -0.0296865 -0.32813
-0.0747474 0.108463 0.341874
0.0568175 -0.0806509 -0.157346
0.0146479 0.0264521 -0.386478
-0.0519675 -0.0795746 -0.386478
0.163092 -0.0296865 0.0450449
0.0130659 -0.0296865 -0.194289
-0.144399 -0.0185097 0.291782
0.156287 -0.0806509 -0.349931
0.131827 -0.0296865 -0.120743
-0.0722085 -0.00186715 2.60672e-07
0.0259181 -0.0296865 -0.375568
0.0845955 -0.0296865 0.102394
-0.152843 0.1317 0.34425
-0.0747474 0.104696 -0.0252071
0.161023 0.0212774 -0.345651
-0.144399 -0.00436418 0.390282
0.172511 0.0212774 0.0786606
0.185137 -0.0296865 0.267202
0.186869 0.00548462 0.241358
-0.163735 -0.119494 0.432077
0.173439 0.0212774 0.010625
-0.144399 -0.0383069 0.322902
0.0365268 0.0212774 0.32451
0.16362 -0.0296865 -0.0150011
-0.140152 0.0364288 0.0165478
-0.0861566 0.131109 -0.386478
-0.0568112 -0.0296865 0.146705
-0.106065 -0.0296865 0.209137
0.0348591 -0.0806509 0.29367
-0.140152 -0.0639711 0.0117598
-0.0105323 -0.0778978 0.38648
-0.186869 0.106411 -0.372004
-0.0608526 -0.101886 0.345486
0.124242 -0.0296865 -0.222471
-0.0896424 0.165592 0.261443
0.0330916 0.0212774 -0.278687
0.186869 0.0165041 -0.290004
0.00202208 -0.0806509 -0.136634
0.0579997 0.082772 0.433197
0.162481 -0.0806509 -0.0941147
0.110615 -0.0806509 -0.407358
-0.0129977 -0.0637277 -0.386478
0.10556 -0.0486908 0.433197
-0.0747474 0.0837701 0.0561452
0.0650308 -0.0806509 -0.353361
-0.140152 -0.0343239 0.352385
-0.129376 -0.0806509 0.0787963
0.132468 -0.0806509 -0.241381
-0.0798986 -0.0296865 -0.0544471
-0.0326898 -0.0296865 -0.325835
-0.154009 -0.101886 -0.15642
-0.00688028 -0.0806509 0.0796154
-0.18563 -0.101886 0.430025
-0.103918 -0.0296865 -0.205802
-0.0747474 0.0810104 -0.324976
-0.0378125 -0.0806509 0.324305
0.136301 -0.0296865 -0.0958332
0.143942 -0.0806509 -0.102745
0.056014 -0.0806509 -0.369511
0.157174 -0.0806509 -0.371985
-0.186869 -0.0754992 0.334134
0.174161 -0.0672495 0.38648
-0.144399 -0.0336506 0.103856
-0.136676 -0.0806509 -0.260443
0.04154 0.0815203 0.38648
-0.140152 0.0544981 0.212564
0.0504396 -0.0806509 -0.0985817
0.060327 0.0986673 -0.433197
-0.186869 -0.0162178 0.135609
0.00565027 0.0212774 -0.197274
-0.022745 -0.0806509 0.26451
-0.00436492 -0.0806509 -0.376182
-0.158722 -0.0806509 0.209683
-0.00577405 -0.101886 -0.30856
0.132435 -0.0806509 0.248653
-0.140152 0.0342653 -0.179446
-0.144399 0.0601324 0.417117
0.109045 -0.0480346 -0.433197
0.11603 -0.0806509 -0.0538188
-0.174328 -0.0806509 -0.394333
0.0732289 -0.0806509 -0.283798
0.00986575 -0.0806509 -0.303242
-0.0747474 0.0582463 0.0145949
0.107929 -0.0296865 -0.239332
-0.186869 -0.0307563 0.0972561
-0.124086 -0.0296865 -0.0384876
0.186869 -0.0666307 0.182145
-0.0855284 -0.0806509 -0.197511
0.0609125 -0.0296865 0.075735
-0.186869 -0.0224022 -0.0987248
-0.186869 0.122945 -0.0427635
-0.0610159 -0.0806509 0.2391
-0.106143 -0.0806509 -0.296226
-0.117568 0.00871631 0.38648
-0.148792 0.1317 0.397489
0.0736863 -0.0296865 -0.372331
0.0923821 -0.0296865 -0.294736
-0.121252 -0.0296865 0.119987
0.0295824 -0.0806509 0.421863
-0.115576 0.00470404 2.60672e-07
-0.0310694 -0.0296865 -0.131472
-0.163766 -0.0806509 -0.209646
-0.109061 -0.0296865 -0.121639
-0.0602308 -0.000462456 0.433197
0.0386071 -0.0806509 -0.307455
0.0704626 0.0268525 0.38648
-0.07831 -0.0806509 -0.431684
0.126034 -0.0806509 -0.310336
-0.0747474 0.00055548 0.0627082
0.00617266 -0.0806509 -0.409256
-0.0634291 -0.0806509 0.317284
-0.01116 -0.0806509 0.264433
0.107612 -0.101886 -0.269118
-0.156686 0.1317 0.175878
0.167492 -0.0806509 0.307061
-0.116175 0.107436 2.60672e-07
-0.00860922 0.115585 0.38865
0.186869 0.0659726 -0.408417
-0.140152 0.151421 0.189687
0.186869 0.0592332 -0.423842
0.00110665 -0.101886 -0.2998
0.167182 -0.0806509 -0.252816
-0.0747474 0.0820664 -0.112649
0.177043 -0.0806509 0.085738
-0.0998987 -0.0296865 0.0959317
-0.00648987 -0.0806509 0.140846
0.0852178 -0.0806509 -0.124064
0.123241 0.0212774 -0.289313
-0.186869 0.00590097 -0.310954
0.186869 0.0194893 0.159624
-0.101399 -0.101886 -0.315507
-0.140152 0.137045 -0.327277
-0.136868 0.00372086 2.60672e-07
0.181767 0.0196126 -0.433197
0.0380913 -0.0311531 0.433197
0.150883 -0.0296865 -0.36679
-0.140152 -0.0716605 -0.291441
-0.186869 -0.0767297 0.247017
0.053139 -0.0296865 0.0838133
-0.0291145 -0.0296865 -0.309892
-0.140152 -0.0608737 0.0197041
-0.144399 0.0308596 -0.190458
0.0795881 -0.0296865 -0.217842
0.00156332 -0.0268277 -0.386478
-0.111765 0.165592 0.206702
-0.177786 -0.101886 -0.196828
-0.0861714 -0.0296865 0.383135
0.157588 0.0212774 -0.274221
-0.0747474 0.107667 0.0571771
-0.0177498 -0.0806509 0.362107
-0.0301458 0.13124 0.405057
-0.16192 -0.0806509 -0.325127
-0.0747474 0.000853097 0.317133
-0.0748168 -0.101886 0.162367
-0.0777518 -0.0296865 0.261809
-0.144399 0.0961825 -0.0394069
-0.144399 -0.0453755 0.0525051
-0.140152 -0.0776808 -0.0122852
-0.140152 -0.0254842 -0.145039
-0.0776616 0.0335184 -0.386478
-0.171452 -0.101886 0.0906055
-0.0656047 -0.0806509 0.0843731
0.021842 0.124519 0.433197
0.059578 0.0831208 -0.433197
-0.140152 0.140668 0.261943
-0.117614 0.0212774 0.15325
0.186869 -0.0738897 0.151752
0.186869 0.0813753 -0.395689
0.0593934 0.0574261 -0.386478
-0.179754 -0.119205 -0.410023
0.122051 0.0175441 2.60672e-07
0.0815418 -0.0806509 0.194839
-0.117448 -0.0296865 -0.163993
-0.140152 0.0210076 -0.00475273
-0.140152 -0.0623796 0.313729
0.0357596 -0.0659757 0.38648
0.00152418 -0.0470455 0.38648
-0.140152 -0.00782018 0.0751262
0.0203826 -0.0806509 0.359508
0.186869 0.0053848 -0.297444
-0.0590755 -0.0806509 -0.249492
0.167821 -0.0806509 0.22359
-0.144399 -0.0730029 -0.0172354
0.049272 -0.0806509 0.237958
-0.0118617 -0.0296865 0.365922
-0.0775179 -0.0296865 -0.0941126
-0.0956939 -0.0296865 0.122233
-0.186869 0.11785 -0.127192
0.0435673 -0.0296865 -0.0667855
-0.0148374 -0.0296865 0.194325
-0.0552702 -0.0586842 -0.386478
0.159172 -0.0296865 0.115328
0.122973 -0.0806509 -0.399114
0.0857885 -0.0806509 -0.0261067
0.0017763 -0.0296865 0.0643966
0.155139 -0.0296865 -0.0356604
-0.138113 0.0212774 -0.351202
-0.106927 0.0129224 0.433197
-0.186869 -0.0970894 -0.317119
-0.126707 0.165592 0.139706
-0.164516 -0.0806509 -0.240415
-0.144399 -0.00165543 0.41222
-0.124707 -0.0296865 -0.058688
-0.110977 -0.0296865 -0.0388486
0.0396277 -0.101886 0.0880402
0.0568841 0.00372104 2.60672e-07
0.0175621 0.0212774 0.26823
0.147203 0.0212774 0.159578
-0.0747474 0.141536 -0.364144
-0.112426 -0.0296865 0.197192
-0.134035 0.1317 0.422246
-0.082972 -0.0296865 0.343103
-0.028214 -0.0806509 -0.0136592
0.186869 -0.0162564 -0.122084
0.00120454 -0.0296865 0.152481
-0.161856 -0.0806509 -0.169622
-0.117604 0.0212774 0.0999255
-0.0902976 0.0282768 0.38648
0.121985 -0.0296865 0.341441
-0.144399 -0.062047 0.0230843
0.100721 -0.0806509 -0.209093
-0.0747474 0.082921 0.163722
0.0957926 -0.0806509 -0.246062
0.186869 -0.0766896 0.246886
-0.186869 0.073163 -0.103766
-0.186869 0.0532497 -0.428873
-0.0751252 0.0212774 0.220707
-0.0420853 -0.0806509 0.168185
-0.140152 0.00583739 0.027494
-0.127433 0.0212774 -0.0557562
-0.144399 -0.00397213 -0.0192997
0.0685947 -0.0296865 -0.0829932
-0.144399 -0.0322825 -0.333188
0.0685493 0.0212774 -0.3334
-0.140152 0.0474911 0.0455552
0.14083 0.1317 -0.410789
-0.144399 0.0865485 -0.392098
-0.102908 -0.0296865 0.0484469
0.185007 -0.0806509 -0.0447597
-0.0786111 -0.0296865 0.368968
-0.0334186 -0.00986476 0.38648
-0.0747474 0.0104178 0.260936
0.0714469 -0.0296865 0.336503
0.159901 0.0212774 -0.212496
0.121692 -0.0806509 -0.0688389
0.14396 -0.0296865 0.201612
-0.128603 -0.101886 -0.0826835
-0.0335137 -0.101886 0.215625
-0.0597763 -0.0806509 0.0346353
0.0838455 -0.0806509 0.253709
-0.0839465 -0.0296865 0.243098
0.0120831 -0.0806509 -0.339958
0.175751 -0.000184393 2.60672e-07
-0.140152 0.0978178 0.359725
0.0675571 -0.0296865 -0.258377
0.163146 0.0212774 -0.258838
-0.0496569 -0.0806509 0.394486
-0.173463 0.065592 -0.433197
-0.0411549 -0.0806509 0.17017
0.186869 -0.0177574 -0.276038
-0.0747474 0.0677313 -0.25134
-0.0674504 -0.0802343 -0.433197
-0.166529 -0.101886 -0.199174
-0.108513 -0.0806509 -0.367871
0.147735 0.0212774 -0.286825
-0.163894 -0.0806509 -0.395357
0.114433 -0.0296865 0.283548
-0.186869 -0.0626784 0.384853
0.120018 0.0212774 0.116057
-0.120769 -0.0296865 -0.0167822
-0.147187 -0.0806509 -0.135189
0.0674608 -0.0806509 0.38131
0.186869 -0.0319703 0.376024
0.166789 -0.0806509 -0.216163
0.175437 -0.0806509 0.144401
0.15902 -0.0806509 0.417368
0.0526929 -0.0296865 0.122033
-0.144399 -0.0612966 -0.22268
-0.16166 -0.0806509 0.0461326
-0.0747474 0.156553 0.100104
0.0289698 -0.0806509 -0.115863
0.103568 -0.0296865 -0.0100439
0.186869 -0.0758784 0.209628
0.0345561 -0.0296865 0.0427466
0.0161887 -0.0755747 -0.386478
-0.140152 0.0580778 0.0346929
0.0742224 -0.0296865 0.197937
0.00851284 -0.101886 0.374251
-0.0641311 -0.0296865 -0.158785
-0.116273 -0.0296865 0.0555807
-0.0798493 0.165592 0.296644
-0.186869 0.0312347 0.309175
-0.0954943 -0.101886 -0.358855
0.170703 -0.0806509 0.120375
-0.0156138 -0.0296865 -0.114063
0.0545109 0.0212774 -0.276436
0.109658 -0.0806509 -0.00100429
-0.140152 0.087923 0.302615
-0.00638433 -0.0664798 -0.386478
0.0848198 -0.0296865 -0.0839622
-0.186869 -0.0122415 -0.178755
0.168078 -0.0296865 -0.103411
-0.140152 0.00192919 0.0864085
-0.100734 -0.0296865 -0.178282
-0.140152 -0.0172253 0.15475
-0.0999519 0.0212774 -0.0231974
0.066283 -0.0806509 0.275381
0.186869 0.00238805 -0.310714
-0.186869 0.117389 -0.280818
0.0944562 -0.0296865 -0.0804303
0.164919 -0.00877112 0.38648
0.0207293 0.12324 0.392538
-0.144399 0.0992637 0.072285
-0.140152 0.108639 0.107634
0.0184641 -0.0296865 0.0933776
0.0893307 -0.0296865 -0.337948
0.0208931 -0.0296865 -0.00850194
-0.0178886 0.0129398 -0.386478
-0.135012 -0.0296865 -0.374327
0.0469819 -0.0296865 0.153808
0.0156834 -0.0806509 0.145712
0.113022 -0.101886 0.143923
0.143709 -0.0312158 0.433197
0.136725 -0.0806509 0.39767
-0.186869 0.0652893 0.380765
-0.0787968 -0.101886 0.150958
0.141441 -0.0296865 -0.361607
-0.0683695 0.000799343 2.60672e-07
-0.140152 0.00056256 0.0976577
0.0480522 -0.0296865 -0.03433
-0.186869 0.0212179 0.398148
0.0854272 -0.101886 -0.424994
-0.120727 0.00678173 -0.386478
0.127995 -0.0806509 0.328388
-0.114021 0.156047 -0.386478
-0.0340768 -0.0296865 0.200002
-0.144399 0.048957 0.0358739
0.153377 -0.0296865 -0.238787
-0.186869 0.0504068 0.171974
0.100007 -0.101886 -0.230186
-0.0703515 -0.0806509 -0.0236891
-0.132002 -0.0296865 0.324326
-0.117579 -0.0296865 0.146061
-0.140152 0.0186372 -0.172415
-0.16088 -0.101886 0.22396
-0.0733967 -0.0806509 0.157973
-0.140152 0.00501201 -0.185357
0.180104 -0.0296865 0.124046
-0.119295 0.127974 0.38648
-0.139487 -0.0296865 0.298244
0.186869 -0.0735952 0.340441
-0.140152 0.0679883 0.0806584
-0.0209635 -0.0296865 -0.0940952
0.072486 0.0217278 -0.433197
0.0619769 0.0212774 -0.15614
0.088287 -0.0806509 0.160348
0.0529808 -0.0296865 0.322007
0.105743 -0.0296865 -0.0623836
0.0544446 -0.0806509 -0.113474
0.129661 0.0212774 -0.112624
0.178932 0.0212774 -0.353584
0.180764 -0.0296865 0.180152
-0.172179 0.0684669 -0.433197
-0.0302002 0.0212774 -0.167016
-0.144399 0.00165112 -0.348111
-0.00842079 -0.0296865 0.316872
-0.169402 0.1317 0.431581
-0.085854 -0.0806509 0.329289
-0.100362 -0.0296865 -0.142425
0.00227321 -0.0806509 0.351534
-0.140152 -0.00715297 -0.204312
0.0553238 -0.0806509 0.169023
-0.178879 -0.101886 0.299294
0.0690117 -0.0296865 0.149006
-0.0870345 0.00469127 0.38648
-0.144399 -0.0500705 -0.270115
0.0182032 -0.0806509 -0.112536
-0.165452 -0.0806509 -0.0808099
0.133721 0.0113209 2.60672e-07
-0.0409415 0.127317 0.396463
-0.11796 -0.0806509 -0.15982
0.0423158 0.0212774 0.129111
0.023256 -0.0806509 0.340273
0.186869 -0.0644926 -0.150432
0.0983988 -0.0296865 0.0972168
-0.158397 -0.0806509 -0.226353
0.136945 -0.0479186 0.38648
0.02219 -0.101886 -0.340883
-0.144399 -0.0458799 0.419981
0.0926359 0.00799904 -0.433197
-0.117113 -0.0296865 0.176817
0.0549307 -0.0926609 -0.433197
0.0833084 -0.0806509 0.400359
0.108944 0.0212774 -0.170891
-0.0606138 -0.0806509 0.0448735
0.062748 -0.0806509 0.313965
-0.0747474 0.0544112 0.180581
0.184285 -0.0296865 -0.13315
-0.118116 -0.101886 -0.195627
0.0164099 0.0212774 -0.0946105
-0.186869 0.08774 -0.217116
-0.00254553 -0.0806509 0.136624
0.180891 0.0445447 -0.433197
0.106989 -0.0565786 2.60672e-07
0.153186 -0.0296865 0.346759
0.129783 0.0212774 -0.208796
-0.0789389 -0.0296865 -0.0272956
-0.148323 -0.0041643 -0.433197
-0.144399 -0.00233515 0.12383
0.118588 -0.0296865 -0.183662
-0.0746423 -0.0172012 0.433197
-0.140152 -0.0562831 -0.0708131
0.121162 -0.0296865 0.0790849
-0.0293385 -0.0296865 0.14864
-0.186869 -0.0857454 -0.124454
-0.186869 -0.0992253 -0.292705
0.186869 0.0404494 0.429636
-0.184506 -0.165592 -0.416622
-0.000720613 -0.0806509 0.348226
0.0296236 -0.0296865 0.05531
-0.186869 0.094592 -0.0242492
-0.0351147 -0.0806509 -0.335811
-0.0706629 -0.0296865 0.115483
-0.0682779 -0.0296865 0.350047
-0.0599078 -0.0296865 0.179739
-0.186869 -0.0266191 0.0783399
-0.186869 0.0630961 -0.272511
-0.140152 -0.0702926 0.045651
0.174733 -0.0296865 0.0648513
-0.144399 0.108128 0.34193
-0.140152 -0.0175061 0.021665
0.1207 -0.0806509 -0.278507
-0.185848 -0.0806509 -0.313247
0.125754 -0.0296865 0.283649
-0.186869 -0.03127 0.00382714
-0.101754 0.158343 2.60672e-07
-0.108338 -0.0256091 0.433197
-0.0134894 -0.0296865 -0.189488
0.120196 0.0560534 -0.433197
-0.186869 0.0451979 -0.0660609
0.17673 -0.0296865 0.240631
0.0132832 -0.0806509 0.0736574
0.125161 0.00716283 0.433197
-0.0225583 0.0379992 0.38648
0.0815485 -0.0806509 0.0594056
0.186869 -0.0852575 -0.252785
-0.144399 -0.0505053 0.402734
-0.171883 -0.0806509 -0.270023
0.0499336 0.0212774 0.197613
-0.0747474 0.0594055 0.360445
-0.144399 -0.0361694 -0.0421759
-0.186869 0.0587911 0.0842854
0.15606 0.0212774 0.147154
0.153265 -0.0296865 0.0721072
-0.186869 0.0315491 -0.251941
0.186869 0.0131866 -0.0432166
-0.0482367 -0.0806509 0.330682
-0.167046 -0.0806509 -0.265422
-0.0477357 -0.0296865 -0.0555761
-0.14649 -0.101886 -0.231638
0.178439 -0.101886 -0.270745
-0.0489091 0.0212774 -0.180756
-0.140152 0.0677985 -0.299352
-0.0140952 -0.0806509 0.327791
-0.116002 -0.0806509 -0.0601192
-0.080293 -0.0296865 0.11419
0.080039 0.0212774 0.261692
-0.140152 -0.0274478 0.364498
-0.186869 0.0365405 0.380557
0.177888 -0.101886 0.00811441
-0.103785 -0.0806509 -0.274816
-0.115796 -0.0151962 0.38648
0.0491066 -0.0806509 -0.403435
-0.0747474 0.0882557 0.352525
0.159634 0.0340979 0.38648
0.100398 -0.0806509 -0.314551
-0.0501807 0.0212774 0.34328
-0.150078 0.1317 -0.298764
0.186869 0.00973578 -0.414364
-0.150533 0.1317 -0.0614569
-0.186869 -0.043136 -0.337376
-0.0747474 -0.0225237 -0.225688
-0.140152 -0.00561632 0.194085
0.163818 -0.0296865 -0.230113
0.15017 -0.0296865 0.366256
0.143145 0.0212774 -0.136652
-0.0660009 -0.0806509 -0.0546142
-0.00977488 -0.0806509 0.0606988
0.0925209 -0.0296865 -0.0680195
-0.144399 0.05088 0.2543
0.0328123 -0.0806509 0.00676522
-0.140152 0.0338329 0.338908
0.186869 -0.047359 -0.0670309
-0.160679 -0.0806509 0.069742
-0.0304621 0.102495 -0.433197
-0.0983762 -0.101886 -0.246976
-0.144399 -0.0150139 -0.041015
-0.0034034 -0.0806509 0.162019
-0.124364 -0.0806509 -0.281919
-0.159675 -0.0806509 -0.00117886
0.119242 -0.0106995 2.60672e-07
-0.144399 0.115229 0.429367
0.126772 -0.0806509 0.133249
0.0274587 -0.0296865 -0.21977
-0.130584 -0.0995047 0.433197
-0.16331 -0.0967769 -0.433197
0.106912 -0.101886 -0.123182
0.031727 0.0212774 -0.353732
0.112738 -0.0296865 -0.254215
-0.139226 -0.0806509 -0.164937
-0.144399 0.0255605 0.239563
-0.134532 -0.0806509 -0.131566
-0.0441964 -0.0806509 -0.318443
0.0147279 -0.0296865 0.226859
-0.0747474 -0.0074877 -0.227147
-0.0406774 0.0371081 -0.433197
0.145901 -0.0806509 0.109988
-0.16147 0.1317 -0.305563
-0.133989 -0.0764357 -0.433197
-0.00900704 -0.0806509 0.317331
-0.0857179 -0.0806509 0.0685505
-0.0747474 -0.0163546 -0.0516024
-0.144193 -0.101886 -0.0391353
-0.0618569 -0.0296865 0.280002
0.0351702 -0.0296865 0.301876
-0.123478 -0.0296865 0.216676
-0.140152 -0.0527157 0.262327
-0.140152 -0.0128271 0.331618
0.141524 -0.0806509 0.246825
0.0925446 -0.0296865 0.132386
0.151173 0.106051 -0.386708
-0.144399 -0.0798097 0.350184
0.126793 0.0631499 0.433197
-0.00151906 -0.0569035 2.60672e-07
0.174873 -0.0806509 0.0511669
-0.0747474 0.0887835 0.194927
0.0431103 -0.0296865 -0.136854
0.0952241 -0.0296865 0.139212
-0.131196 0.165592 0.251592
0.181274 0.0212774 -0.269373
-0.101057 0.165592 0.360756
0.0870092 -0.0591901 2.60672e-07
0.0718517 -0.0806509 0.230082
-0.144399 -0.0193163 0.381633
0.186869 0.00842323 -0.220992
0.0676376 -0.0296865 0.21436
-0.0747474 0.151519 -0.0354929
-0.144399 0.0463841 0.170002
0.086064 -0.0806509 -0.348178
-0.0532965 -0.0169355 0.433197
-0.186869 0.115555 -0.0696176
-0.0863339 0.0288175 -0.386478
-0.186869 0.0603716 0.374897
0.0306982 0.1317 0.429927
-0.144399 -0.0584397 0.394757
-0.113247 -0.0806509 0.240197
0.186869 -0.0619452 0.03016
0.0444188 -0.101886 0.178013
-0.0482929 -0.0806509 0.0436853
0.169301 0.038443 0.433197
0.169661 -0.0806509 -0.37347
0.00538308 0.0212774 -0.173586
0.150893 -0.0403809 -0.386478
-0.186869 0.0716156 -0.359765
-0.186869 -0.0891075 0.352105
-0.165946 -0.101886 -0.263553
-0.0523467 -0.0689555 0.38648
0.131602 -0.0296865 0.194193
-0.186869 -0.0896703 0.0372557
0.132684 -0.0806509 -0.122863
0.142021 -0.0296865 0.24225
0.12768 -0.0296865 -0.379285
-0.099262 -0.0806509 -0.212507
-0.148436 0.118155 -0.433197
0.0237402 -0.0806509 -0.184229
0.00332867 -0.0296865 -0.188036
0.0781353 -0.0806509 -0.402709
0.134367 -0.101886 0.193822
-0.186869 0.123164 0.0423941
-0.151349 -0.0806509 0.394428
0.051016 -0.101886 -0.419685
-0.186869 0.0888737 -0.0821722
-0.144399 -0.0157295 0.271199
-0.103347 -0.0806509 0.214124
0.0517995 -0.0850976 -0.433197
-0.140152 0.155183 0.142978
-0.0906743 -0.101886 -0.335621
0.0316107 -0.0806509 -0.232755
0.0839327 -0.0806509 -0.144942
0.179406 -0.00905332 -0.433197
-0.162851 -0.101886 -0.404047
0.00653752 -0.0296865 0.0975783
-0.172951 -0.125693 -0.433197
-0.144399 0.092886 0.0674941
0.0364446 -0.0806509 -0.124746
0.112828 0.0212774 -0.331764
0.0992561 0.0883338 -0.386478
-0.064452 -0.0806509 -0.174279
-0.0329591 -0.0296865 -0.0550749
-0.140152 0.0266413 0.316938
-0.080726 -0.0296865 -0.220133
0.186869 -0.069906 -0.1281
0.180362 -0.101886 -0.422679
0.0704186 -0.0806509 -0.128665
-0.140152 -0.044996 0.115676
-0.163981 -0.0806509 0.224324
-0.00531896 0.113229 -0.433197
-0.144399 0.107123 0.119867
0.182509 -0.0296865 -0.231462
0.12271 0.02704 -0.386478
0.182778 -0.0296865 0.025243
0.10145 -0.0296865 -0.246053
-0.140152 -0.0325986 -0.246522
0.0840857 -0.101886 -0.349554
0.115271 -0.0806509 0.228795
0.130508 -0.0454599 0.38648
0.0737891 -0.101886 0.162074
0.0947446 0.118761 0.433197
0.0417305 -0.101886 0.226246
-0.169538 -0.101886 0.149082
0.166486 -0.0806509 -0.0384427
-0.0747474 0.109173 -0.311144
0.0724185 0.131078 -0.404125
-0.110413 -0.101886 0.0580051
-0.00646305 -0.0296865 -0.0453409
-0.00424322 -0.101886 0.0795195
-0.0747474 0.126658 0.21151
-0.0169467 -0.0806509 0.409705
-0.143446 -0.101886 0.00590128
-0.0372561 -0.0296865 -0.0347862
-0.140152 0.00826971 -0.141682
0.0776588 0.0212774 0.0508689
0.118108 -0.0296865 -0.103724
0.0560406 -0.0806509 -0.413356
0.0387306 -0.0806509 0.291124
0.186869 -0.0267239 -0.402358
0.113764 0.0212774 -0.267994
-0.186869 0.115569 0.285234
-0.0486071 0.0225053 0.38648
0.0330195 -0.0806509 0.0195152
-0.144697 0.107987 0.433197
0.169509 -0.101886 0.217668
0.00035844 -0.0296865 0.297635
0.00320999 -0.0602707 -0.386478
-0.00591601 -0.101886 -0.35263
0.183904 -0.0296865 -0.288972
-0.140152 -0.00359469 -0.0573542
0.106139 -0.0806509 0.0885748
0.140581 -0.0296865 0.0318673
0.027779 -0.0296865 -0.313199
-0.0794499 -0.101886 -0.0855271
-0.0548872 -0.0806509 0.423263
-0.102401 0.111231 -0.387279
0.124072 -0.0296865 -0.0433706
-0.161896 -0.101886 -0.170989
0.00344269 -0.0806509 -0.0652997
0.102805 -0.0296865 -0.369182
-0.0163895 -0.0296865 -0.218457
0.0588879 -0.101886 0.115723
0.0199043 0.0212774 -0.0330677
-0.0235942 -0.0806509 0.198077
0.0282827 0.0586854 -0.433197
-0.118725 0.0212774 0.011278
-0.0617163 -0.0806509 -0.402285
0.155958 -0.0806509 -0.209089
-0.033081 -0.0806509 -0.223029
-0.140152 -0.0357397 -0.142413
-0.144399 0.126762 -0.265843
0.11205 0.0212774 -0.3433
-0.00415378 -0.101886 -0.421515
0.123796 -0.0806509 0.139228
-0.102771 0.163396 2.60672e-07
-0.186869 0.0309653 -0.425326
-0.0596548 -0.0806509 0.0980684
0.0847834 -0.0806509 -0.142136
-0.1706 0.1317 0.0963722
-0.0247508 -0.0296865 0.224054
-0.0747474 0.156163 0.145678
-0.0620885 -0.0806509 0.105424
-0.186869 -0.0688791 -0.304876
0.021373 -0.00777532 0.38648
0.150477 -0.101886 0.133812
0.166172 -0.102173 0.433197
0.15235 0.0507652 -0.433197
0.0044984 -0.0806509 -0.279771
-0.113851 0.00868948 2.60672e-07
0.140829 0.124374 0.393549
0.0812692 0.0212774 0.267777
0.0541989 -0.0296865 -0.201089
-0.186869 0.0609317 -0.117848
-0.186869 -0.0338418 0.0033327
0.0797166 0.0212774 -0.0943761
-0.0724031 -0.101886 -0.14029
-0.0522272 -0.101886 0.38153
0.121195 0.0212774 0.0464002
-0.0867553 0.114631 2.60672e-07
-0.16601 -0.0806509 -0.205184
-0.0641824 -0.0296865 -0.0807266
-0.14871 -0.0806509 -0.31951
0.112566 -0.0296865 -0.00252453
-0.186869 0.0753403 -0.222529
-0.149216 -0.101886 -0.0571907
-0.133045 -0.0806509 -0.158257
-0.115347 -0.0806509 0.192211
-0.140152 0.00420997 0.0787302
-0.00780096 0.0212774 -0.246079
-0.0218365 -0.0806509 -0.244387
-0.0355221 -0.0468244 0.38648
-0.0262454 -0.0661419 -0.386478
-0.186869 -0.0855506 0.293923
0.0514899 -0.0806509 0.283228
-0.0693471 -0.0296865 0.304785
-0.140152 0.0392307 0.138899
-0.122786 -0.0296865 0.258199
0.161495 0.0212774 -0.107124
-0.0115995 -0.00135164 -0.386478
-0.0844175 -0.0118128 -0.386478
-0.133423 0.165592 -0.0952172
-0.155861 -0.0806509 -0.209657
-0.186869 0.0784983 0.391937
-0.161727 -0.0806509 -0.376366
0.0632082 -0.0296865 0.114728
0.186869 -0.0344984 0.0724344
0.131239 -0.101886 0.147236
0.0102279 -0.0806509 -0.0136845
-0.0756555 -0.0296865 0.0171693
0.00586983 -0.0825104 -0.433197
0.186869 -0.049238 -0.119945
-0.0747474 0.0891761 0.308629
-0.0544352 0.0212774 0.00872901
-0.10088 -0.0806509 -0.362515
-0.140152 -0.0530364 -0.228144
0.124972 -0.0806509 0.334746
-0.144399 0.0785448 -0.104009
0.047852 0.0212774 -0.381892
0.0861654 0.0212774 -0.0867484
-0.186869 -0.0981224 0.352724
-0.0110481 -0.0806509 -0.428738
-0.0747474 0.078662 0.220019
0.00634252 -0.0806509 0.0715199
-0.0831704 0.0117542 0.433197
0.172668 -0.0296865 0.0420289
0.0838545 0.0143275 0.433197
-0.138599 0.1317 -0.428521
0.170577 -0.0806509 -0.0920283
-0.140152 -0.059457 -0.186758
-0.137478 -0.0892656 -0.433197
-0.11884 -0.0296865 0.294612
-0.186869 0.00139709 0.163646
-0.00249586 0.0212774 0.0710058
-0.186869 -0.018184 -0.425129
-0.181338 -0.0806509 -0.213376
-0.0473199 -0.0806509 0.20128
0.144899 -0.101886 0.240409
-0.135557 0.102039 -0.386478
-0.186869 0.003596 -0.428778
0.144733 -0.0957568 -0.433197
0.0178756 0.0212774 0.301414
-0.0404681 -0.0574668 -0.386478
-0.107942 -0.0296865 -0.0164464
-0.186869 0.114316 0.230166
-0.0119051 -0.0415544 0.38648
-0.139373 -0.0806509 0.227468
-0.16811 -0.0806509 0.427366
0.124038 -0.0806509 0.326756
0.0765016 -0.0296865 -0.222803
0.0723498 0.0137046 -0.386478
-0.00990331 -0.0462518 2.60672e-07
-0.130952 0.0047832 0.433197
-0.00324154 -0.0734667 2.60672e-07
-0.00182947 -0.0806509 0.218856
-0.108348 -0.00652 0.38648
0.0363134 -0.0296865 -0.256312
0.011063 -0.0806509 -0.263994
0.05735 -0.0806509 0.219066
-0.0658414 -0.0458084 2.60672e-07
-0.0789886 -0.101886 0.111265
0.100288 -0.0296865 0.340289
-0.186869 0.011754 0.2019
0.122421 0.0212774 0.371626
0.186869 0.0497746 0.401006
-0.0747474 0.0999357 -0.359179
-0.0365967 -0.0806509 -0.15451
-0.0665911 -0.101886 -0.392294
-0.0393194 0.0212774 -0.278288
-0.140152 0.10744 -0.0804544
-0.0974701 0.0503645 0.38648
-0.0747474 0.0574465 -0.0100883
0.00868283 -0.101886 0.368392
-0.144399 -0.0686247 0.0906466
-0.0850282 0.165592 0.15108
-0.156265 -0.0806509 -0.337204
-0.175679 -0.0806509 0.267066
-0.140152 -0.0121316 -0.363166
-0.0950975 -0.0296865 0.110634
0.0642671 -0.0806509 0.139686
-0.0332009 -0.0257643 -0.433197
-0.0645181 -0.101886 0.0636068
-0.0548215 -0.0806509 0.00501998
-0.0747474 0.142717 0.104992
-0.144399 0.0780933 0.36496
0.0429424 -0.0806509 0.00605239
0.125197 -0.0806509 -0.303838
-0.0443049 -0.0359363 -0.433197
-0.130525 0.0212774 0.20745
0.117931 -0.0101277 -0.433197
-0.140152 0.00653104 0.0359899
0.186869 -0.0706056 0.321436
0.122438 -0.101886 0.378439
-0.137414 -0.0296865 -0.27832
0.175778 -0.0806509 -0.0711522
0.177557 -0.0296865 -0.242453
0.0916041 -0.0121316 0.433197
0.0791454 -0.0296865 0.202819
-0.087003 -0.0296865 -0.223089
0.184971 0.0212774 -0.144538
-0.144399 0.056984 -0.117621
-0.140152 0.0175068 0.372472
0.186869 -0.0955435 0.236946
0.169243 -0.0806509 -0.186776
0.0724848 -0.101886 -0.164513
0.0446737 0.0839271 -0.433197
0.00606117 -0.0806509 0.405824
-0.110669 -0.0296865 -0.174374
-0.186869 0.0894505 -0.408007
-0.0747474 0.163996 0.200915
-0.0747474 0.0470943 0.195902
-0.101062 -0.0296865 0.254975
-0.0747474 0.142337 0.12217
0.0559164 0.0212774 0.053287
-0.125428 -0.0806509 0.0732379
0.0501443 -0.0632624 2.60672e-07
-0.0874302 0.0186396 -0.386478
0.110049 -0.0296865 -0.175084
-0.0511658 -0.0806509 0.0856249
0.0231298 0.117109 -0.433197
-0.144399 0.0109697 -0.397853
-0.0747474 -0.0166442 -0.224481
-0.175575 0.1317 0.0909325
0.172171 -0.103869 -0.407978
-0.107697 0.0212774 0.0655892
-0.178808 -0.0806509 0.163154
-0.0747474 0.128092 0.0788944
-0.103639 0.0212774 0.323563
-0.144399 -0.0323998 0.192063
-0.0747474 0.0462923 -0.226019
0.0625811 0.0212774 0.00787288
-0.0466828 -0.0645133 -0.433197
-0.0747474 0.160823 0.235278
-0.144399 0.0784873 -0.198231
-0.144399 0.111881 0.426166
0.134166 -0.0806509 -0.371034
-0.124831 0.165592 0.0852355
-0.0906913 0.165592 0.287855
-0.144399 0.0505172 -0.0397965
-0.0774021 -0.0806509 -0.417372
-0.063821 -0.0806509 -0.21669
0.155096 -0.0296865 -0.356678
-0.0747474 -0.00377601 0.152656
0.107901 -0.0806509 -0.0150909
-0.186869 0.087438 0.0785301
0.116295 -0.101886 0.27628
-0.0737143 0.0606366 -0.433197
-0.0935388 0.165592 -0.195967
-0.0574129 0.0759271 -0.433197
0.134094 0.0212774 -0.0923036
-0.140152 0.0535007 -0.327425
0.174744 -0.0295205 0.433197
0.186869 -0.0908508 -0.0289037
-0.128058 0.0212774 0.0891007
-0.127899 -0.0296865 -0.104392
-0.0855029 -0.0806509 0.299069
0.186869 0.10076 0.392099
0.115654 0.0212774 0.30012
0.181625 0.0642507 -0.386478
-0.140152 0.0888692 -0.00873397
0.0619454 -0.101886 -0.175637
-0.144399 -0.0523058 -0.258897
-0.0249871 -0.0806509 -0.0190494
-0.0608534 -0.0806509 -0.303113
0.10341 -0.0806509 -0.173317
-0.0558189 -0.101886 0.00392395
-0.03878 -0.0806509 0.257838
0.0221315 -0.0702897 -0.386478
-0.130336 -0.0806509 -0.153352
0.00124886 0.0834028 0.38648
-0.161347 -0.0806509 -0.327433
-0.0140323 0.0212774 0.260731
0.186869 -0.0743472 0.143337
0.0689818 0.0212774 -0.307887
-0.13631 -0.0599886 -0.386478
-0.144399 0.0849677 -0.393742
-0.0404188 -0.0296865 -0.249461
0.138156 -0.0806509 -0.341533
-0.186869 -0.0445633 -0.104465
-0.0864437 0.165592 -0.162999
0.182737 -0.028369 -0.386478
-0.126447 -0.0228516 0.38648
0.162088 0.0600238 0.433197
-0.106934 -0.101886 -0.0837136
-0.0465978 -0.0296865 -0.00156733
0.0792182 -0.0296865 0.177266
-0.144399 0.128998 0.157807
-0.0877718 0.0212774 -0.0660708
0.0711054 0.0212774 -0.152475
-0.140152 -0.0344144 0.0393489
-0.0839073 -0.0229685 -0.386478
-0.12738 0.0212774 -0.194671
-0.00583412 -0.0806509 0.0433138
-0.0792992 0.0212774 0.342384
-0.141829 -0.101886 -0.427655
0.0639753 -0.0760085 0.38648
0.186869 -0.0102846 -0.383771
0.179599 0.0212774 -0.208834
-0.0467005 0.00383331 2.60672e-07
-0.186869 0.12699 0.12269
0.109227 -0.0806509 0.26162
-0.0747474 0.0185247 0.0884914
-0.0910123 0.165592 -0.211338
0.0326844 0.035982 0.38648
0.103171 -0.101886 0.156134
-0.130837 -0.101886 -0.125422
0.174191 -0.101886 -0.333276
0.181854 -0.164702 -0.433197
-0.144386 0.0867437 -0.433197
-0.0747474 0.0201556 0.0735665
-0.144399 0.0993385 -0.302374
0.00319169 -0.0806509 -0.397357
0.0155865 -0.0806509 -0.307527
-0.110206 -0.0806509 0.0233813
0.165094 -0.0296865 -0.334556
0.0854739 -0.0806509 0.381003
-0.0747474 -0.00642971 0.31227
-0.137454 0.0272448 -0.386478
0.0315398 -0.0806509 0.374684
-0.0905155 0.107737 0.38648
-0.084533 0.0212774 0.219302
-0.178327 -0.0806509 -0.234874
0.044969 -0.0806509 0.153449
-0.127983 0.165592 -0.245007
0.111388 -0.101886 -0.156722
0.0718909 -0.0455799 2.60672e-07
-0.168202 -0.152998 -0.429113
0.05309 -0.0806509 -0.13057
0.0579252 -0.101886 0.403695
0.168525 -0.0806509 0.0593282
-0.186869 0.0206822 0.0187381
0.0739283 0.0212774 -0.0232537
0.0685915 0.0140306 -0.386478
-0.144399 0.00118432 -0.386163
-0.0747474 0.0802363 -0.280946
0.0285476 -0.101886 0.277541
-0.186869 -0.0115386 0.134745
0.17073 0.0212774 0.218566
-0.115464 0.0212774 0.197277
-0.00034076 -0.0806509 -0.207507
-0.0816948 0.083745 2.60672e-07
0.0178083 -0.0296865 -0.38455
-0.105268 -0.0296865 0.075024
-0.0667278 -0.0296865 -0.306799
-0.0476562 -0.0296865 0.0337703
0.155141 -0.0806509 -0.0917446
0.063532 0.1317 0.412648
-0.0744848 -0.0296865 -0.151972
-0.119838 0.0212774 0.220036
0.102364 -0.101886 0.345154
0.181877 -0.0296865 0.31715
-0.120921 -0.0806509 -0.147353
-0.185266 -0.0806509 0.376688
0.0651888 -0.0296865 0.146186
-0.186869 -0.0652614 -0.399195
0.186869 0.0949338 -0.410134
-0.180783 -0.0806509 0.299909
0.161846 -0.0806509 0.042841
-0.186869 -0.0463289 0.0533437
-0.186869 0.035293 0.0228845
0.174257 0.00761982 0.38648
-0.186869 -0.0431322 0.0415015
0.0239648 -0.0806509 0.0959982
0.123174 -0.0806509 0.0354948
-0.140152 0.0107681 -0.17961
-0.144399 0.0523421 0.283308
0.132061 -0.0725194 -0.433197
-0.0747474 0.00574593 0.321956
0.0351402 -0.0296865 -0.245623
0.144791 -0.0296865 -0.140115
0.156282 -0.0806509 0.369156
-0.156888 -0.0400034 -0.433197
-0.0784843 -0.0806509 0.186603
-0.140152 0.11599 0.168372
-0.144399 -0.0308196 0.432141
0.0963274 -0.0806509 -0.0887461
0.04911 0.0353816 0.433197
-0.140152 -0.0405904 0.0951052
-0.144399 0.048152 -0.0127698
0.00994435 -0.0296865 0.0421987
0.135837 0.0390344 -0.386478
0.121771 -0.101886 -0.334249
-0.144399 -0.0540409 -0.276045
0.110366 -0.101886 -0.36818
0.147101 0.0212774 -0.27908
-0.0773092 0.0212774 -0.00440937
-0.144399 0.0457323 0.402204
0.115561 -0.0296865 0.356177
0.0845 -0.0296865 0.25175
-0.186869 0.0876525 -0.0387158
0.124941 -0.0296865 0.217046
-0.0978953 -0.0296865 0.25044
0.0696838 -0.0296865 -0.105391
-0.00962653 -0.101886 0.0778551
0.164828 0.0212774 -0.256692
-0.023266 0.0212774 0.0583372
-0.128251 -0.0296865 0.189842
0.14194 -0.0806509 0.0583076
0.127143 0.00599516 -0.386478
-0.169423 -0.0328726 0.433197
0.147621 -0.0806509 -0.0385391
-0.186869 0.102573 -0.309458
0.0350967 -0.101886 0.375149
0.103025 -0.0296865 0.0431603
-0.0747474 0.163236 -0.287663
0.186869 -0.0227036 -0.00172145
0.0958697 -0.043403 0.38648
-0.144399 0.0991876 0.333302
-0.0403737 -0.0806509 -0.0634158
-0.186869 -0.0191436 -0.232347
-0.0747474 -0.016365 0.296809
0.170039 -0.0296865 -0.249508
-0.14277 -0.101886 0.0468235
-0.0906992 -0.0296865 0.130112
0.0789646 -0.0296865 0.0993238
-0.0864189 0.0385475 2.60672e-07
-0.0747474 0.048252 -0.303473
-0.13019 -0.0296865 0.0306048
0.174506 -0.0296865 0.238753
-0.127187 -0.0806509 -0.0748196
-0.0838822 0.0212774 -0.232601
-0.140152 -0.047068 -0.161104
-0.0747474 0.0455711 0.134666
-0.0779437 -0.0296865 0.140192
-0.144399 0.074335 -0.0592317
-0.133956 0.0211326 2.60672e-07
0.131398 -0.0211264 -0.433197
-0.140152 -0.0642199 -0.198205
0.134164 0.0212774 -0.0483969
0.168729 0.0212774 0.242801
-0.00798865 -0.101886 0.0821296
-0.144399 0.0312595 -0.164488
0.181551 -0.0763708 -0.386478
0.17055 -0.0296865 -0.343145
-0.00261642 -0.101886 0.154206
-0.0747474 0.0998981 -0.228003
-0.0747474 0.0784553 -0.133508
-0.186869 0.119869 -0.296731
-0.00271603 -0.0296865 0.166849
0.0333733 -0.101886 -0.339151
-0.00272868 0.0692824 0.38648
0.0584155 -0.0806509 -0.2296
0.00554961 -0.0296865 0.321818
0.117249 -0.0608805 0.38648
-0.0747474 0.122868 -0.0234573
-0.153057 -0.0806509 0.19467
0.112983 -0.0806509 0.315547
-0.144399 -0.0502535 -0.0268641
0.0705691 -0.101886 -0.3137
0.161142 -0.101886 0.160079
0.0345692 0.0212774 0.19813
-0.144399 -0.00705652 -0.394546
-0.00505889 -0.0806509 -0.277434
-0.00677634 0.0212774 0.0151105
-0.0761937 -0.0296865 -0.250101
-0.140152 0.00572908 0.0308424
-0.129314 -0.0296865 0.360333
0.00419747 -0.0806509 0.2869
0.00226771 -0.101886 0.0817591
-0.186869 0.00993863 -0.328404
-0.136977 -0.0806509 0.181175
-0.186869 0.111682 0.247699
0.134123 -0.0806509 0.066704
0.141753 -0.0806509 -0.332305
-0.107783 -0.101886 0.298462
-0.144399 0.0695395 0.131239
0.0824621 0.00268086 2.60672e-07
0.167571 -0.0806509 -0.403288
-0.0747474 -0.014327 0.223976
-0.140152 -0.0627236 -0.109895
0.117588 0.0212774 -0.0261905
-0.0534007 0.0212774 -0.251961
-0.0961649 0.165592 -0.286548
0.120376 -0.0296865 0.367398
0.0729233 -0.0296865 0.326204
0.0811452 -0.0698635 2.60672e-07
0.0533744 -0.101886 0.38972
0.051188 -0.0296865 -0.385442
0.149248 -0.0296865 -0.258899
0.186869 -0.0846414 -0.312404
0.0688381 -0.0806509 -0.159807
-0.0618398 0.0212774 -0.20666
0.0974936 0.00942079 0.433197
-0.0605339 -0.0806509 0.343763
-0.0843106 0.0212774 0.0766509
-0.140152 0.160571 -0.260635
-0.186869 -0.0835457 -0.337889
-0.161116 -0.101886 0.157337
-0.0162403 -0.101886 0.0131364
0.00580793 0.0530284 -0.433197
0.172623 0.0212774 0.0604157
0.0641919 -0.0296865 -0.385419
0.161776 0.00954327 0.433197
0.12234 -0.0296865 -0.0315515
-0.0747474 -0.0187256 0.0843958
-0.127352 -0.0296865 0.261443
-0.124883 -0.0296865 -0.00456764
0.0561619 0.0363309 0.433197
-0.160152 -0.0806509 0.34936
-0.135716 0.0212774 0.291925
