ply
format ascii 1.0
comment Created by Open3D
element vertex 593
property double x
property double y
property double z
end_header
-0.138819 -0.271805 -0.180522
-0.136659 -0.30556 0.178309
-0.136138 -0.252361 -0.180283
-0.141309 -0.285016 0.175363
-0.115299 -0.250661 -0.180735
-0.133387 -0.234642 -0.16187
-0.138746 -0.267363 0.173987
-0.133099 -0.23058 -0.180012
-0.114844 -0.220211 -0.180695
-0.135842 -0.247094 0.172807
-0.135634 -0.24566 0.185007
-0.130218 -0.210844 -0.179755
-0.129506 -0.205788 -0.161417
0.267901 -0.30963 -0.246184
-0.114565 -0.201452 -0.180672
-0.130541 -0.227244 0.170077
-0.127304 -0.190938 -0.179494
0.273319 -0.294072 -0.235885
-0.131552 -0.217785 0.187631
-0.12656 -0.185678 -0.161073
-0.12841 -0.206404 0.168369
-0.114251 -0.180329 -0.180645
0.263216 -0.310149 0.237707
0.273753 -0.272005 -0.242783
-0.129266 -0.202446 0.1891
0.264842 -0.290643 0.242854
0.273397 -0.2544 -0.235884
-0.123589 -0.165389 -0.160726
-0.123049 -0.161874 -0.179114
-0.12624 -0.185487 0.166673
0.265008 -0.270361 0.24293
-0.125467 -0.176226 0.185399
0.273755 -0.232376 -0.242783
-0.120926 -0.147203 -0.160416
0.272898 -0.254865 0.22878
-0.12364 -0.167261 0.165223
0.254641 -0.217397 -0.246097
-0.120071 -0.141536 -0.178849
0.273476 -0.214722 -0.235884
0.273005 -0.234499 0.228826
0.252697 -0.195824 -0.246084
-0.0857792 -0.133705 -0.180607
0.254524 -0.219626 0.242547
-0.120918 -0.146275 0.163828
-0.121243 -0.147384 0.184995
-0.117884 -0.126447 -0.162401
0.273757 -0.189144 -0.242783
0.27356 -0.213984 0.224657
-0.113378 -0.121554 -0.18057
0.265067 -0.209389 0.242956
-0.135332 -0.117461 -0.141368
0.250761 -0.174332 -0.246071
-0.138351 -0.115663 -0.120801
-0.138406 -0.116607 -0.101806
-0.137556 -0.117729 -0.0822821
0.254622 -0.199495 0.242591
-0.0879265 -0.117574 -0.202174
-0.138138 -0.116337 -0.060288
-0.137578 -0.117421 -0.0400912
0.273771 -0.171132 -0.242783
-0.070333 -0.117664 -0.208476
-0.138429 -0.115832 -0.0199884
-0.137949 -0.116788 -0.00171284
-0.137289 -0.11792 0.0195872
0.272917 -0.193489 0.224378
-0.138328 -0.116137 0.0378802
-0.137676 -0.117277 0.0599025
-0.117986 -0.125202 0.162541
-0.118138 -0.126184 0.183861
-0.0333208 -0.117998 -0.21696
-0.127729 -0.105553 -0.172696
-0.138304 -0.115537 0.0789448
-0.137222 -0.116634 0.0991316
-0.135833 -0.117803 0.119861
-0.135531 -0.116184 0.14037
-0.117872 -0.101793 -0.185549
-0.140884 -0.100635 -0.135255
-0.00182962 -0.114435 -0.223838
-0.0938771 -0.102162 -0.202485
-0.143752 -0.100233 -0.0813411
-0.143643 -0.10238 -0.0318695
-0.134205 -0.111949 0.158865
-0.110763 -0.116989 0.197849
0.248192 -0.145798 -0.246054
0.273814 -0.149521 -0.242783
-0.0510025 -0.105128 -0.217475
-0.143615 -0.0963909 -0.117064
-0.144407 -0.0971696 -0.0959176
-0.143871 -0.102105 0.0196322
-0.142093 -0.104889 0.0798811
0.0344242 -0.113808 -0.228546
-0.0684489 -0.100388 -0.213199
-0.145208 -0.0961026 -0.0622114
0.0611785 -0.114464 -0.230986
-0.146092 -0.0956081 -0.0123533
-0.141096 -0.101568 0.11986
-0.126892 -0.105925 0.181442
0.0913571 -0.115383 -0.233573
-0.145949 -0.0952495 0.0400013
-0.14533 -0.0960766 0.0591372
0.120837 -0.116009 -0.236353
-0.13101 -0.0866536 -0.170745
-0.144045 -0.0952372 0.0984309
-0.140115 -0.0973389 0.140646
-0.111458 -0.10324 0.200544
0.273849 -0.131511 -0.242783
0.146966 -0.116022 -0.239316
-0.0154536 -0.0964984 -0.226645
0.246274 -0.12449 -0.246041
0.170853 -0.11559 -0.242435
0.0758219 -0.104427 -0.236491
-0.142653 -0.0816564 -0.142452
0.196515 -0.115205 -0.245713
0.103794 -0.104642 -0.239309
0.0120988 -0.0942481 -0.231455
-0.050848 -0.0873283 -0.219913
-0.111997 -0.0811902 -0.191998
-0.148824 -0.0805648 -0.0873623
-0.150055 -0.0822037 -0.0364053
-0.136914 -0.0906081 0.160202
0.133949 -0.104913 -0.24231
0.029927 -0.0934453 -0.233961
-0.0877953 -0.0810659 -0.20687
-0.146524 -0.077304 -0.122272
-0.150621 -0.0816576 0.0195623
-0.15091 -0.0763631 -0.0661943
-0.149582 -0.0809306 0.0680298
-0.128246 -0.0869772 0.180591
0.154475 -0.10073 -0.245436
-0.152654 -0.0753934 -0.0171746
-0.152582 -0.0760531 0.00324602
-0.151672 -0.0772449 0.0375423
-0.145679 -0.0805206 0.120195
0.189468 -0.101027 -0.248829
-0.0677679 -0.0755972 -0.215571
-0.149549 -0.0766335 0.0900232
0.251463 -0.103764 -0.252792
0.0619708 -0.0853157 -0.239303
-0.0273722 -0.0768004 -0.226836
-0.143966 -0.0761235 0.138415
0.232849 -0.0984641 -0.25255
0.171706 -0.0927001 -0.248655
0.0875592 -0.0848006 -0.242153
-0.0475307 -0.0723913 -0.222276
-0.1334 -0.06562 -0.170991
0.00992513 -0.0748504 -0.234087
-0.139397 -0.0719517 0.158696
-0.117902 -0.0749095 0.193294
0.110963 -0.0808607 -0.245149
-0.110191 -0.0624664 -0.194176
-0.143372 -0.060642 -0.151705
-0.153201 -0.0612736 -0.0954937
-0.15627 -0.0624678 -0.0408253
0.147132 -0.0808352 -0.248414
0.0700199 -0.0743675 -0.242094
0.0434762 -0.0721571 -0.2393
-0.0894927 -0.0615589 -0.206947
-0.157352 -0.0614419 0.0142795
0.195434 -0.0815654 -0.252063
-0.0112082 -0.0649987 -0.231677
-0.149364 -0.0560592 -0.132014
-0.156076 -0.0568665 -0.0771784
-0.157293 -0.0572964 -0.0558181
-0.15591 -0.0604117 0.065021
-0.150173 -0.0621942 0.11771
0.131765 -0.073281 -0.248263
-0.159096 -0.0556229 -0.0218977
-0.158333 -0.0570311 0.0346804
-0.0708396 -0.0555331 -0.215671
-0.158245 -0.0550336 0.0532134
-0.155022 -0.0561798 0.092744
0.170442 -0.0697729 -0.251738
-0.0259199 -0.0560244 -0.229318
-0.147636 -0.0552303 0.139174
0.112226 -0.0625792 -0.248071
-0.0450237 -0.0521945 -0.224672
-0.126147 -0.04748 -0.181666
0.153448 -0.0621692 -0.251517
-0.14104 -0.0509509 0.160655
-0.145047 -0.0421412 -0.156464
-0.157068 -0.0423431 -0.105706
0.0650585 -0.0506949 -0.244846
0.0219021 -0.0482465 -0.239296
-0.0875078 -0.0423235 -0.209202
-0.109114 -0.0412754 -0.196406
-0.162953 -0.0406917 -0.0501941
-0.164134 -0.0415825 0.00395291
-0.131638 -0.0465958 0.178457
0.13205 -0.0514187 -0.251238
0.0912826 -0.0492067 -0.247866
0.038463 -0.046366 -0.241987
-0.152752 -0.0374799 -0.137138
-0.162672 -0.0402108 0.0591411
-0.155813 -0.0415199 0.114592
0.1998 -0.0517799 -0.255303
-0.161644 -0.0355522 -0.0856727
-0.163414 -0.0357505 -0.0671642
-0.165362 -0.0362102 -0.031429
-0.165373 -0.0370789 0.0239029
-0.0739489 -0.0356345 -0.215772
-0.162589 -0.0356174 0.07796
-0.152822 -0.0369082 0.133284
0.173927 -0.0439265 -0.254884
-2.78354e-05 -0.0362555 -0.236724
-0.0235686 -0.0352513 -0.231795
0.109054 -0.037988 -0.250939
-0.147077 -0.0323226 0.15404
-0.114027 -0.0342841 0.198893
0.154656 -0.0366751 -0.254572
0.0710247 -0.0335123 -0.247667
0.0465448 -0.0325972 -0.244723
0.0273496 -0.0318852 -0.24195
-0.128984 -0.0265222 -0.18191
-0.0442442 -0.0267354 -0.227107
-0.168945 -0.0251403 0.0378797
-0.141936 -0.0274606 0.166031
-0.0173433 -0.0249822 -0.234259
-0.105285 -0.0224872 -0.200781
-0.146474 -0.0215493 -0.161151
-0.162746 -0.0215504 -0.106893
-0.168788 -0.0218399 -0.0567303
-0.17084 -0.0222614 -0.00613216
-0.126218 -0.0255603 0.187987
0.133021 -0.0264905 -0.254221
0.0910531 -0.0253179 -0.250705
-0.081822 -0.0206815 -0.213676
-0.163205 -0.0210942 0.104968
0.00492865 -0.0202478 -0.239294
-0.1561 -0.0169132 -0.14219
-0.167082 -0.0170552 -0.0869891
-0.171647 -0.0173279 -0.0359299
-0.173265 -0.0153044 0.0130036
-0.170869 -0.0156528 0.0579082
-0.168545 -0.0158516 0.0803452
-0.160657 -0.0163063 0.123109
-0.120084 -0.0149509 0.195
-0.173636 -0.0107291 0.0435579
-0.155503 -0.0114587 0.143172
0.169883 -0.0113299 -0.2579
0.106495 -0.0105963 -0.253791
0.0490664 -0.00994098 -0.247452
0.0701267 -0.0072707 -0.250433
0.0278993 -0.00692948 -0.2446
-0.0427418 -0.0063721 -0.229533
-0.0569451 -0.00626409 -0.224902
-0.128126 -0.00576167 -0.18636
-0.147445 -0.00648315 0.162616
-0.137311 -0.00660731 0.177896
0.140535 -0.00156937 -0.257331
0.0942074 -0.00149315 -0.253592
0.00872439 -0.00135495 -0.241887
-0.0758162 -0.0012244 -0.218198
-0.105552 -0.00118192 -0.203095
-0.148195 -0.0011289 -0.165834
-0.166665 -0.00112259 -0.116843
-0.175428 -0.0011361 -0.0610267
-0.178505 -0.00115854 -0.00652571
-0.170896 -0.001223 0.0953375
-0.0185081 0.00393481 -0.23678
-0.159244 0.0033592 -0.147147
-0.171839 0.00337118 -0.097367
-0.175007 0.00338562 -0.0773258
-0.178815 0.00342211 -0.0406606
-0.180197 0.00349625 0.0126966
-0.177002 0.00358865 0.0628399
-0.174516 0.00363134 0.0826444
-0.166135 0.00373475 0.122774
0.117261 0.0107124 -0.256879
0.0348179 0.00977328 -0.247312
-0.180494 0.00826196 0.043008
-0.163336 0.00879318 0.135659
-0.104738 0.00974161 0.20804
0.0535268 0.0128363 -0.250217
-0.120313 0.0122426 0.197959
-0.0409558 0.0140382 -0.231961
-0.0623096 0.0136809 -0.225006
-0.131669 0.0126084 -0.18664
-0.15115 0.0141977 0.163249
0.15969 0.023999 -0.260746
0.0702962 0.0217953 -0.253204
-0.0016374 0.0200623 -0.241852
-0.0950526 0.0179278 -0.211837
-0.177218 0.0181797 0.0946451
-0.147257 0.0191614 -0.172418
-0.171164 0.0189086 -0.122223
-0.182049 0.0190873 -0.065262
-0.186121 0.0193892 -0.016685
-0.136667 0.0225388 0.184344
0.0944123 0.0283489 -0.256436
-0.0161865 0.0249708 -0.23929
-0.0820296 0.0230627 -0.218379
-0.183837 0.0225021 0.062102
-0.17377 0.0233401 0.115628
0.135446 0.0327459 -0.260198
0.0413635 0.0295224 -0.250058
0.0234777 0.0289195 -0.247201
-0.164609 0.0233398 -0.145704
-0.17747 0.0233611 -0.100921
-0.185938 0.0236531 -0.0453164
-0.188271 0.0241002 0.00446056
-0.187771 0.0243316 0.0245348
-0.168686 0.0286803 0.135299
0.0575269 0.0386531 -0.252997
-0.0393627 0.0344966 -0.234398
-0.061828 0.0335698 -0.227389
-0.155427 0.0346576 0.163496
-0.0100451 0.0383764 -0.241823
-0.119885 0.0336298 -0.199337
-0.135651 0.0330409 -0.186955
-0.190048 0.0337711 0.0436962
-0.116052 0.0397433 0.203849
0.113962 0.0472238 -0.259713
-0.0910732 0.0395875 -0.216327
-0.186392 0.0393133 0.0843947
-0.146056 0.0431285 0.17831
0.029657 0.0485159 -0.249906
0.0133511 0.0476034 -0.247102
-0.175105 0.0386047 -0.127419
-0.187517 0.0387841 -0.0760149
-0.194041 0.0394427 -0.0171829
-0.179981 0.0426139 0.114814
-0.191325 0.0433803 0.0635657
0.0472931 0.0551625 -0.252831
-0.157041 0.0434254 -0.166836
-0.16896 0.0430465 -0.146348
-0.182517 0.0429418 -0.106546
-0.192098 0.0432993 -0.0565839
-0.19441 0.0435481 -0.0363065
-0.19633 0.0442118 0.0036587
-0.195852 0.0446356 0.0235047
-0.028065 0.0530631 -0.239288
-0.109996 0.0480517 -0.207883
-0.0547807 0.0538714 -0.232093
-0.0680872 0.0530069 -0.227489
-0.176707 0.0529943 0.13329
-0.167001 0.0541352 0.153352
-0.115914 0.0590101 0.207079
0.0666901 0.0650509 -0.255898
0.0962414 0.0702026 -0.259313
-0.127543 0.0539391 -0.197554
-0.144287 0.0529535 -0.183224
-0.0101879 0.0647682 -0.244349
-0.0879455 0.0589269 -0.220872
-0.193232 0.057784 0.0833789
-0.157429 0.0629181 0.171001
0.0181689 0.0697106 -0.249756
-0.200535 0.0582334 0.0338154
-0.181165 0.0579468 -0.126305
-0.19467 0.0581002 -0.0756674
-0.20204 0.0590606 -0.0153973
-0.190461 0.0632872 0.103429
-0.20037 0.0633776 0.0539611
-0.0261348 0.0738845 -0.241769
-0.157653 0.0632801 -0.171298
-0.171464 0.0625361 -0.151104
-0.198864 0.0625081 -0.0609196
-0.201594 0.0628197 -0.041053
-0.204328 0.0638244 0.0028217
-0.185095 0.069217 0.125499
-0.145991 0.0747616 0.187334
-0.133172 0.0763254 0.198817
-0.00243241 0.0786801 -0.246947
-0.0468047 0.0745673 -0.236867
-0.0694711 0.0725215 -0.229875
-0.108698 0.0691425 -0.21237
-0.189919 0.0642454 -0.105928
-0.176359 0.073173 0.14751
0.0893828 0.0904133 -0.259158
0.0537388 0.0925512 -0.255647
-0.0893461 0.0779375 -0.22322
-0.127216 0.074486 -0.202001
-0.165496 0.0825034 0.168714
0.0275576 0.0925477 -0.252511
-0.201757 0.0778926 0.0788143
-0.208527 0.0778142 0.0326046
-0.208945 0.0778624 -0.027344
-0.199148 0.0835641 0.0985117
-0.146095 0.093326 0.193289
0.0999291 0.109489 -0.259396
0.00381887 0.0980224 -0.24957
-0.024904 0.0946837 -0.244252
-0.035836 0.0934312 -0.241736
-0.185939 0.0790318 -0.131554
-0.20128 0.078979 -0.0819442
-0.208341 0.0830855 0.0525361
-0.192168 0.0877197 0.123986
-0.126286 0.0989963 0.209591
-0.0556082 0.0936746 -0.236894
-0.148035 0.0838473 -0.187935
-0.162604 0.0826173 -0.171825
-0.211838 0.0825533 -0.00971213
-0.21215 0.0832312 0.00915866
-0.178959 0.092947 0.154335
-0.108267 0.0901166 -0.216884
-0.177082 0.0837184 -0.151897
-0.194795 0.0829991 -0.111398
-0.206953 0.0833844 -0.0610776
0.0559007 0.112772 -0.255689
-0.12766 0.0925769 -0.206472
-0.165721 0.103134 0.177299
0.0231487 0.114035 -0.25244
-0.0175455 0.108577 -0.246799
-0.0925555 0.0989713 -0.22559
-0.209727 0.0976029 0.077098
-0.150134 0.113911 0.196613
0.0787606 0.130457 -0.256132
-0.0019899 0.118638 -0.249494
-0.0451369 0.112515 -0.241704
-0.217449 0.0988439 0.0284751
-0.205669 0.103958 0.102666
-0.188255 0.108635 0.148404
-0.189946 0.0976722 -0.136586
-0.216768 0.098359 -0.0324611
-0.215513 0.102651 0.0564155
-0.132756 0.122499 0.211442
-0.0650502 0.114674 -0.236923
-0.14608 0.103872 -0.196531
-0.208137 0.0993524 -0.0859644
0.0335898 0.132186 -0.252609
-0.160954 0.104399 -0.182499
-0.18034 0.102538 -0.156662
-0.220268 0.10317 -0.0107018
-0.220692 0.103997 0.00788593
-0.201399 0.112668 0.12379
-0.177876 0.118625 0.169263
-0.11278 0.112668 -0.219274
-0.200371 0.103374 -0.116923
-0.214215 0.103637 -0.0655046
-0.217431 0.104054 -0.0463342
-0.0226554 0.128657 -0.246748
-0.0884152 0.118514 -0.230117
-0.126015 0.113094 -0.213045
-0.159353 0.127921 0.193363
-0.146189 0.133361 0.205354
0.0034703 0.138245 -0.249565
-0.0393732 0.133632 -0.244157
-0.219559 0.118412 0.0692834
-0.224949 0.117553 0.0297922
-0.21532 0.122799 0.094496
-0.197451 0.128777 0.14528
-0.0629507 0.134659 -0.239283
-0.147527 0.123456 -0.200966
-0.194723 0.117959 -0.141669
-0.224369 0.118274 -0.0374325
-0.224275 0.123458 0.0544054
-0.187655 0.136569 0.16562
-0.169216 0.122686 -0.181103
-0.215978 0.119232 -0.0858321
-0.228156 0.122633 0.0140576
-0.208639 0.132687 0.124687
-0.0185575 0.150242 -0.246789
-0.0829902 0.138454 -0.234673
-0.107992 0.134118 -0.225888
-0.18478 0.122981 -0.161514
-0.228142 0.123047 -0.0161195
-0.155252 0.150079 0.205172
-0.130044 0.132722 -0.215398
-0.205686 0.123321 -0.122297
-0.222143 0.123432 -0.0656726
-0.170878 0.148789 0.19139
-0.0411479 0.153634 -0.244145
-0.0560215 0.153243 -0.241668
-0.201117 0.147639 0.151145
-0.229505 0.138221 0.0590457
-0.221145 0.142666 0.101392
-0.212552 0.146136 0.127569
-0.233299 0.137637 0.0282248
-0.226273 0.142677 0.0831566
-0.14812 0.142921 -0.207473
-0.19153 0.158256 0.171491
-0.0811626 0.157968 -0.236973
-0.104745 0.153201 -0.230326
-0.202537 0.137542 -0.140829
-0.231668 0.137654 -0.0422339
-0.164326 0.168933 0.20484
-0.116687 0.15315 -0.226056
-0.167795 0.14401 -0.191619
-0.222113 0.13856 -0.0917583
-0.176206 0.168087 0.193556
-0.183384 0.14383 -0.174035
-0.236019 0.142596 -0.0169556
-0.236981 0.143755 0.00318764
-0.19591 0.144274 -0.156653
-0.213337 0.142675 -0.121701
-0.229924 0.142721 -0.0658519
-0.0585015 0.172596 -0.241659
-0.207416 0.167841 0.152464
-0.226173 0.162525 0.10866
-0.237489 0.158432 0.0596836
-0.0770119 0.178119 -0.239281
-0.0971643 0.173461 -0.234762
-0.14125 0.163786 -0.217953
-0.240958 0.157666 0.0316194
-0.235353 0.162512 0.0780167
-0.200187 0.177962 0.168396
-0.167753 0.188981 0.20839
-0.219002 0.173065 0.134082
-0.157837 0.164785 -0.207949
-0.202717 0.157531 -0.153433
-0.241549 0.157578 -0.0236213
-0.173609 0.163968 -0.194156
-0.239323 0.158419 -0.0470959
-0.188779 0.189662 0.187644
-0.188785 0.163517 -0.176693
-0.22903 0.159365 -0.0956554
-0.244314 0.16253 -0.00452934
-0.218805 0.163695 -0.126983
-0.235844 0.163216 -0.0762452
-0.21205 0.188215 0.154815
-0.11861 0.184507 -0.230504
-0.234206 0.182852 0.106294
-0.141354 0.183453 -0.222253
-0.245574 0.177673 0.0553546
-0.23856 0.18282 0.0935663
-0.206702 0.197799 0.166703
-0.178927 0.208592 0.203362
-0.159889 0.183474 -0.212265
-0.248898 0.179266 0.0347253
-0.202679 0.177509 -0.16379
-0.178334 0.183812 -0.196575
-0.247916 0.177501 -0.0370613
-0.110253 0.202631 -0.234845
-0.19306 0.183133 -0.179197
-0.235366 0.177917 -0.0972599
-0.251747 0.182626 0.010325
-0.251556 0.182562 -0.0142887
-0.217727 0.207726 0.153684
-0.220813 0.182893 -0.13565
-0.232227 0.203142 0.125522
-0.128165 0.204499 -0.230626
-0.230024 0.183853 -0.116822
-0.243365 0.183496 -0.0763244
-0.247592 0.184035 -0.0563924
-0.237329 0.202847 0.114535
-0.204475 0.218568 0.176604
-0.185096 0.229304 0.201851
-0.149711 0.203062 -0.222469
-0.245891 0.202514 0.0916586
-0.171615 0.237209 0.214574
-0.25405 0.198037 0.0484643
-0.256109 0.197616 0.0288113
-0.252103 0.202698 0.0685351
-0.169541 0.204411 -0.2106
-0.202375 0.197576 -0.17197
-0.217048 0.227567 0.162296
-0.191973 0.203617 -0.187319
-0.25491 0.197519 -0.0396422
-0.241029 0.198053 -0.100764
-0.25902 0.202611 0.00474931
-0.234796 0.223327 0.131633
-0.204703 0.238357 0.182053
-0.258593 0.202599 -0.0171969
-0.189 0.248051 0.201933
-0.172676 0.255027 0.21679
-0.136204 0.224361 -0.230729
-0.221103 0.204224 -0.145948
-0.230881 0.202811 -0.127287
-0.247722 0.220559 0.102953
-0.24876 0.20336 -0.0820883
-0.253933 0.203798 -0.0606205
-0.155345 0.223053 -0.222614
-0.25517 0.222518 0.0836462
-0.261867 0.218141 0.0443131
-0.231894 0.239269 0.144054
-0.21532 0.248041 0.171728
-0.260355 0.222857 0.0638637
-0.184289 0.223686 -0.201088
-0.206942 0.218637 -0.172488
-0.205262 0.25808 0.187284
-0.157619 0.235271 -0.222673
-0.262737 0.217559 -0.0340057
-0.250589 0.237691 0.10863
-0.188395 0.271399 0.208206
-0.242943 0.218272 -0.111492
-0.261626 0.218603 -0.0463633
-0.266279 0.222683 0.00587295
-0.225468 0.222839 -0.146657
-0.266047 0.222601 -0.013778
-0.236945 0.222823 -0.126463
-0.252506 0.222916 -0.0914013
-0.258155 0.222936 -0.0724301
-0.232493 0.258217 0.15158
-0.245562 0.25269 0.127068
-0.262868 0.242939 0.0814425
-0.223151 0.268426 0.168904
-0.179319 0.243598 -0.209
-0.269412 0.237963 0.0425917
-0.208593 0.278969 0.190503
-0.202612 0.239485 -0.184198
-0.267953 0.242876 0.0618966
-0.215441 0.238455 -0.167428
-0.271603 0.238924 0.0233518
-0.255926 0.257652 0.110183
