ply
format ascii 1.0
comment Created by Open3D
element vertex 1104
property double x
property double y
property double z
end_header
0.0888041 -0.107736 -0.351726
0.0889094 -0.106461 -0.364478
0.0777543 -0.107922 -0.353067
0.0700884 -0.108141 -0.353103
0.0623916 -0.10836 -0.35314
0.0882572 -0.105499 -0.3372
0.0879119 -0.10202 -0.373399
-0.0653429 -0.109117 -0.344258
-0.0753907 -0.108889 -0.349531
-0.0837177 -0.109119 -0.349569
-0.0898354 -0.108016 -0.362788
0.0540453 -0.101405 -0.351351
0.04657 -0.0978317 -0.352249
-0.0513311 -0.100776 -0.347812
-0.089858 -0.103579 -0.327723
-0.0907942 -0.0998798 -0.36927
0.0896669 -0.0950717 -0.328934
0.0925283 -0.0909202 -0.376246
0.038576 -0.090683 -0.351736
-0.0915969 -0.0961083 -0.324041
-0.0933542 -0.0921405 -0.372441
0.0308717 -0.0871278 -0.352133
-0.0349993 -0.0890036 -0.347651
0.092553 -0.0840819 -0.325533
0.0937232 -0.0799017 -0.380132
-0.0265189 -0.0811924 -0.348441
-0.0968952 -0.0846066 -0.321912
-0.0958893 -0.08068 -0.375627
0.0956745 -0.0767288 -0.322884
0.0188529 -0.0762821 -0.351627
0.0981538 -0.0690062 -0.382514
0.0111071 -0.0726772 -0.352114
-0.0145102 -0.0734328 -0.348092
-0.0979835 -0.0769077 -0.319628
0.0874731 -0.110098 0.327766
0.0786453 -0.111211 0.342996
0.0664758 -0.11143 0.342959
-0.065252 -0.114029 0.346266
-0.0985072 -0.0692831 -0.378612
0.0868836 -0.106355 0.364916
0.0540641 -0.105675 0.343898
-0.0785936 -0.108215 0.348303
0.0985604 -0.0656588 -0.319365
-0.0921165 -0.107264 0.328315
0.0990544 -0.0617377 -0.38548
0.00308666 -0.0653699 -0.351961
-0.00283855 -0.0657617 -0.347061
-0.0530562 -0.101617 0.348288
-0.0908914 -0.103399 0.369252
-0.0998673 -0.0653268 -0.315675
-0.10107 -0.0616637 -0.381674
0.0923921 -0.0943025 0.36846
0.0354408 -0.0939276 0.344775
-0.0402622 -0.095242 0.347876
-0.0915867 -0.0972732 0.371729
0.0952721 -0.0856859 0.317648
0.101459 -0.0545353 -0.315825
-0.0966117 -0.0886241 0.321868
0.099962 -0.0509946 -0.388468
0.0130427 -0.054278 -0.346739
-0.0128963 -0.0543861 -0.352064
0.0232077 -0.0819432 0.344188
-0.0216872 -0.0827738 0.349349
-0.0279575 -0.0828507 0.349213
0.120448 -0.0457211 -0.420999
0.124229 -0.0445436 -0.445693
0.124777 -0.043929 -0.458996
0.116688 -0.043725 -0.465814
0.106452 -0.0438663 -0.46569
0.0961502 -0.0440085 -0.465565
0.0857809 -0.0441517 -0.465439
0.0753441 -0.0442958 -0.465312
0.0648388 -0.0444408 -0.465185
0.0542646 -0.0445868 -0.465057
0.0470897 -0.044696 -0.464748
0.0362156 -0.0448665 -0.46417
0.0252582 -0.0450383 -0.463586
0.0142166 -0.0452115 -0.462999
0.00680843 -0.0453276 -0.462605
-0.00437549 -0.045503 -0.462011
-0.0156462 -0.0456797 -0.461412
-0.102195 -0.0537031 -0.310789
-0.103568 -0.0503413 -0.384826
0.0974948 -0.0762416 0.374464
0.0960022 -0.0736843 0.313534
0.0105638 -0.0760733 0.345247
-0.0150398 -0.0764979 0.347861
0.123971 -0.0450362 -0.35606
0.124804 -0.0443198 -0.372765
0.125384 -0.0436634 -0.388126
0.125946 -0.0430261 -0.403038
0.127024 -0.0418057 -0.431595
-0.00541675 -0.0419002 -0.467806
-0.0127439 -0.0419935 -0.467725
-0.023796 -0.0421343 -0.467602
-0.0349225 -0.0422761 -0.467479
-0.0461241 -0.0424188 -0.467355
-0.053634 -0.0425144 -0.467272
-0.0649625 -0.0426587 -0.467147
-0.0725809 -0.0427576 -0.467018
-0.0840144 -0.0429014 -0.466937
-0.0955509 -0.0430484 -0.466808
-0.103286 -0.0431469 -0.466723
-0.114954 -0.0432955 -0.466594
-0.122778 -0.0433952 -0.466508
0.123048 -0.0457333 -0.245761
0.124836 -0.0447876 -0.269558
0.125471 -0.04406 -0.288083
0.126086 -0.0433557 -0.306015
0.126682 -0.0426735 -0.323384
0.127161 -0.0420282 -0.339838
0.127842 -0.0388149 -0.422264
0.128041 -0.0374008 -0.45857
0.124065 -0.0370852 -0.467837
0.114262 -0.0371555 -0.468876
0.107483 -0.0372318 -0.468881
0.0972621 -0.037347 -0.468887
0.0869778 -0.0374628 -0.468894
0.121911 -0.046592 -0.109911
0.124875 -0.0453575 -0.143817
0.125578 -0.0445416 -0.166589
0.126256 -0.0437546 -0.188557
0.126912 -0.0429945 -0.209772
0.127319 -0.042297 -0.229297
0.127701 -0.0404515 -0.281162
0.127938 -0.0393081 -0.313294
0.128134 -0.0372388 -0.371514
0.128119 -0.0367636 -0.384901
0.128105 -0.0363003 -0.397952
0.128091 -0.0358486 -0.410677
0.128051 -0.0345585 -0.44702
0.0766252 -0.0343121 -0.468888
0.0662121 -0.0344192 -0.468895
0.0557339 -0.034527 -0.468902
0.0451898 -0.0346354 -0.468909
0.0345793 -0.0347445 -0.468915
0.0274685 -0.0348177 -0.46892
0.0167458 -0.0349279 -0.468927
0.00595498 -0.0350389 -0.468934
-0.052774 -0.0356429 -0.468971
-0.0640118 -0.0357585 -0.468978
-0.0761074 -0.0359353 -0.46751
-0.0829042 -0.0359528 -0.468991
-0.0943386 -0.0360704 -0.468998
-0.105848 -0.0361888 -0.469005
-0.113563 -0.0362681 -0.46901
-0.125392 -0.0364014 -0.46869
0.102542 -0.0581061 0.380985
0.102763 -0.0557856 0.308819
0.124924 -0.0460671 0.0127453
0.12571 -0.0451389 -0.0159161
0.126467 -0.0442472 -0.0434543
0.127196 -0.0433896 -0.0699351
0.127513 -0.0426271 -0.093578
0.127656 -0.0419171 -0.115639
0.127794 -0.0412303 -0.136977
0.128057 -0.039922 -0.177621
0.128246 -0.0370446 -0.267133
0.128211 -0.0360207 -0.299014
0.128178 -0.0350519 -0.32918
0.128147 -0.0341338 -0.357766
0.128074 -0.0320362 -0.423078
0.128061 -0.0316472 -0.43519
-0.00491026 -0.0318034 -0.468928
-0.0158394 -0.0319051 -0.468935
-0.0231644 -0.0319732 -0.46894
-0.0342109 -0.032076 -0.468947
-0.0453286 -0.0321795 -0.468954
0.102472 -0.0520022 0.381403
0.124986 -0.0469748 0.213042
0.125879 -0.0458991 0.175877
0.126736 -0.0448709 0.140357
0.127554 -0.0438878 0.106393
0.127758 -0.043042 0.0770285
0.127914 -0.0422346 0.0489848
0.128209 -0.0407075 -0.00405729
0.128348 -0.0399846 -0.0291649
0.128477 -0.0392877 -0.0533707
0.128361 -0.0362355 -0.159588
0.128319 -0.0351434 -0.197593
0.1283 -0.0346217 -0.215749
0.128262 -0.0336234 -0.250491
0.128192 -0.03179 -0.314292
0.12816 -0.0309463 -0.343652
0.126652 -0.0274636 -0.46525
0.11425 -0.0274639 -0.46884
0.126105 -0.046899 0.428271
0.127087 -0.0456867 0.380759
0.127895 -0.0445568 0.336442
0.128074 -0.0435794 0.297958
0.128246 -0.042644 0.261128
0.12841 -0.0417479 0.225846
0.128567 -0.0408887 0.192016
0.128707 -0.040066 0.159616
0.128674 -0.0393007 0.129436
0.128554 -0.0365114 0.0194242
0.128449 -0.0340918 -0.0760062
0.128425 -0.0335361 -0.0979197
0.12838 -0.0324775 -0.139671
0.128337 -0.0314837 -0.178868
0.128277 -0.030102 -0.233362
0.128223 -0.0288365 -0.283275
0.128142 -0.0269482 -0.357746
0.128124 -0.0266001 -0.371477
0.12811 -0.0262606 -0.384866
0.128096 -0.0259297 -0.397919
0.128082 -0.025607 -0.410646
0.128043 -0.0246854 -0.446995
0.107467 -0.024283 -0.468832
0.0972458 -0.0243581 -0.468839
0.0869609 -0.0244336 -0.468845
0.0766121 -0.0245096 -0.468852
0.0661986 -0.0245861 -0.468859
0.0557199 -0.0246631 -0.468865
0.0451753 -0.0247406 -0.468872
0.0345643 -0.0248185 -0.468878
0.0274532 -0.0248708 -0.468883
0.01673 -0.0249496 -0.46889
0.00593874 -0.0250288 -0.468897
-0.0527931 -0.0254603 -0.468934
-0.0640314 -0.0255429 -0.468941
-0.0761243 -0.025669 -0.467479
-0.0829249 -0.0256817 -0.468952
-0.0943598 -0.0257657 -0.46896
-0.10587 -0.0258503 -0.468967
-0.113585 -0.0259069 -0.468971
-0.125418 -0.0260023 -0.468647
0.129021 -0.0411314 0.451207
0.128975 -0.0402041 0.40901
0.128931 -0.0393177 0.368673
0.12881 -0.0368786 0.257671
0.128638 -0.0334228 0.100407
0.128608 -0.0328079 0.0724256
0.128578 -0.0322153 0.0454555
0.128523 -0.0310919 -0.00566363
0.128496 -0.0305592 -0.0299093
0.128471 -0.0300443 -0.0533379
0.128399 -0.0285989 -0.119115
0.128314 -0.026875 -0.197567
0.128294 -0.026476 -0.215724
0.128256 -0.0257125 -0.250468
0.128238 -0.0253471 -0.267099
0.128203 -0.0246465 -0.298981
0.12817 -0.0239836 -0.329149
0.128066 -0.0219201 -0.423051
0.128053 -0.021654 -0.435164
-0.00492707 -0.0217611 -0.468891
-0.0158567 -0.0218307 -0.468898
-0.0231821 -0.0218774 -0.468902
-0.0342291 -0.0219477 -0.468909
-0.0453472 -0.0220185 -0.468916
0.128885 -0.0325517 0.330101
0.128845 -0.0318643 0.293133
0.128769 -0.0305731 0.223691
0.128733 -0.029966 0.191039
0.128699 -0.0293825 0.159658
0.128666 -0.0288213 0.129477
0.128547 -0.0267757 0.01946
0.128443 -0.0250012 -0.0759748
0.128419 -0.0245938 -0.0978893
0.128352 -0.0234473 -0.159546
0.128272 -0.0220753 -0.233338
0.128217 -0.0211472 -0.283252
0.128181 -0.0205708 -0.314251
0.128149 -0.0200249 -0.343611
0.129009 -0.0284768 0.451287
0.128967 -0.0278345 0.409063
0.128923 -0.0272208 0.368724
0.128881 -0.0266336 0.330125
0.128802 -0.025532 0.257717
0.128631 -0.0231394 0.100444
0.128601 -0.0227138 0.072462
0.128572 -0.0223034 0.0454904
0.128516 -0.0215257 -0.00563085
0.12849 -0.0211569 -0.0298778
0.128465 -0.0208004 -0.0533074
0.12828 -0.0198082 -0.118559
0.128196 -0.0195002 -0.138828
0.128036 -0.0189119 -0.177531
0.127918 -0.0170815 -0.297845
0.128161 -0.0166046 -0.329115
0.128131 -0.0161696 -0.357706
0.128116 -0.0159606 -0.371447
0.128102 -0.0157569 -0.384837
0.128088 -0.0155583 -0.39789
0.128074 -0.0153647 -0.410618
0.128036 -0.0148116 -0.446969
0.128023 -0.014636 -0.458511
0.124039 -0.014513 -0.467754
0.114235 -0.0145405 -0.468791
0.107455 -0.0145704 -0.468795
0.0972335 -0.0146155 -0.468802
0.0869482 -0.0146608 -0.468808
0.0765989 -0.0147064 -0.468815
0.0661849 -0.0147523 -0.468822
0.0557058 -0.0147985 -0.468828
0.0451608 -0.014845 -0.468835
0.0345494 -0.0148918 -0.468842
0.0274379 -0.0149231 -0.468846
0.0167142 -0.0149704 -0.468853
0.00592244 -0.0150179 -0.468859
-0.0528122 -0.0152769 -0.468896
-0.0640511 -0.0153264 -0.468903
-0.0761414 -0.015402 -0.467447
-0.0829457 -0.0154097 -0.468914
-0.0943813 -0.0154601 -0.468921
-0.105892 -0.0155108 -0.468928
-0.113608 -0.0155449 -0.468933
-0.125443 -0.0156022 -0.468603
0.129003 -0.0221492 0.451329
0.128876 -0.0216565 0.409668
0.128438 -0.0203088 0.295677
0.128216 -0.0194968 0.22701
0.128111 -0.0191147 0.194695
0.12801 -0.0187473 0.163622
0.127913 -0.0183937 0.133721
0.127559 -0.0171034 0.0246065
0.127094 -0.0162629 -0.0465455
0.126895 -0.016004 -0.0684769
0.126703 -0.0157532 -0.089721
0.126516 -0.0155102 -0.110305
0.126333 -0.0152746 -0.130257
0.126156 -0.0150462 -0.149612
0.125984 -0.0148244 -0.168396
0.125654 -0.0144 -0.204352
0.125497 -0.0141968 -0.221568
0.125194 -0.013807 -0.254584
0.125049 -0.0136201 -0.270421
0.128059 -0.0118035 -0.423024
0.128046 -0.0116602 -0.435137
-0.00494382 -0.011718 -0.468854
-0.015874 -0.0117555 -0.468861
-0.0231997 -0.0117806 -0.468865
-0.0342473 -0.0118185 -0.468872
-0.045366 -0.0118566 -0.468879
0.127646 -0.0155418 0.417929
0.124883 -0.0153565 0.395208
0.124236 -0.0150595 0.359886
0.123613 -0.0147737 0.325905
0.122436 -0.0142335 0.26167
0.12188 -0.013978 0.231283
0.121341 -0.0137315 0.201975
0.123696 -0.0128554 0.0990237
0.124194 -0.0125982 0.0687459
0.124672 -0.012351 0.0396556
0.125132 -0.0121134 0.0116822
0.125575 -0.0118848 -0.015236
0.127207 -0.0103802 -0.192722
0.12734 -0.0100699 -0.229387
0.127404 -0.00992162 -0.246909
0.127525 -0.00963776 -0.28045
0.128176 -0.00935059 -0.314228
0.12814 -0.00910253 -0.343579
0.128991 -0.00949296 0.451413
0.130866 -0.00881045 0.317408
0.130839 -0.00862397 0.28064
0.130813 -0.00844523 0.245396
0.130788 -0.00827375 0.211583
0.130764 -0.00810909 0.179116
0.130741 -0.00795086 0.147916
0.130719 -0.00779869 0.117911
0.130698 -0.00765223 0.0890318
0.130677 -0.00751117 0.0612179
0.130603 -0.00699537 -0.0404874
0.130586 -0.0068773 -0.0637685
0.130569 -0.00676315 -0.0862761
0.130553 -0.00665273 -0.108049
0.130537 -0.00654585 -0.129122
0.130523 -0.00644236 -0.149529
0.130508 -0.00634208 -0.169302
0.13048 -0.00615061 -0.207055
0.130442 -0.00588415 -0.259596
0.130309 -0.00572137 -0.291724
0.12811 -0.00568969 -0.298608
0.128157 -0.00553495 -0.329099
0.128123 -0.00539005 -0.357675
0.128108 -0.00532036 -0.371417
0.128094 -0.00525245 -0.384808
0.12808 -0.00518626 -0.397861
0.128067 -0.00512171 -0.41059
0.128028 -0.00493736 -0.446943
0.128016 -0.00487883 -0.458486
0.124029 -0.00483787 -0.467718
0.114224 -0.00484705 -0.468754
0.107444 -0.00485701 -0.468759
0.0972212 -0.00487203 -0.468765
0.0869353 -0.00488715 -0.468771
0.0765856 -0.00490235 -0.468778
0.0661711 -0.00491765 -0.468784
0.0556915 -0.00493305 -0.468791
0.045146 -0.00494855 -0.468797
0.0345342 -0.00496414 -0.468804
0.0274223 -0.00497459 -0.468809
0.0166982 -0.00499035 -0.468815
0.00590602 -0.0050062 -0.468822
-0.0528313 -0.00509251 -0.468858
-0.0640707 -0.00510903 -0.468865
-0.0761583 -0.00513418 -0.467415
-0.0829665 -0.0051368 -0.468875
-0.0944026 -0.0051536 -0.468882
-0.105914 -0.00517052 -0.468889
-0.11363 -0.00518186 -0.468894
-0.125469 -0.00520098 -0.46856
0.13205 -0.00305623 0.388366
0.132008 -0.00298884 0.348498
0.131788 -0.00263961 0.141896
0.131756 -0.00258918 0.112066
0.131696 -0.00249391 0.0557004
0.131668 -0.00244885 0.0290452
0.13164 -0.00240539 0.00333583
0.131614 -0.00236345 -0.0214769
0.131432 -0.00207412 -0.192643
0.131394 -0.00201252 -0.22908
0.131375 -0.00198308 -0.2465
0.13134 -0.0019267 -0.279853
0.128165 -0.0018702 -0.314187
0.128139 -0.00182053 -0.343573
0.128051 -0.00168628 -0.422997
0.128038 -0.0016658 -0.435111
-0.00496075 -0.00167409 -0.468816
-0.0158913 -0.00167944 -0.468823
-0.0232174 -0.00168303 -0.468828
-0.0342655 -0.00168844 -0.468834
-0.0453847 -0.00169389 -0.468841
0.128978 0.00316448 0.451497
0.132047 0.00305627 0.388389
0.132004 0.00298888 0.348521
0.131964 0.0029244 0.310373
0.131925 0.00286264 0.273837
0.131887 0.00280343 0.238812
0.131851 0.00274663 0.205206
0.131817 0.00269208 0.172935
0.131784 0.00263965 0.141921
0.131752 0.00258923 0.112092
0.131721 0.0025407 0.0833807
0.131581 0.00696898 -0.0453993
0.131556 0.00685156 -0.0685548
0.131532 0.00673803 -0.0909421
0.131509 0.0066282 -0.1126
0.131487 0.00652189 -0.133564
0.131465 0.00641894 -0.153867
0.131444 0.00631918 -0.173538
0.131405 0.0061287 -0.211102
0.131349 0.00586357 -0.263384
0.131023 0.00570563 -0.294614
0.125456 0.00566857 -0.303537
0.128143 0.00553522 -0.329046
0.128115 0.00539017 -0.357648
0.1281 0.0053205 -0.371387
0.128086 0.00525259 -0.384779
0.128072 0.00518639 -0.397833
0.128059 0.00512184 -0.410562
0.128021 0.00493748 -0.446917
0.128008 0.00487894 -0.458461
0.124018 0.00483804 -0.467682
0.114212 0.00484723 -0.468718
0.107432 0.00485719 -0.468722
0.0972089 0.00487221 -0.468728
0.0869226 0.00488733 -0.468735
0.0765723 0.00490254 -0.468741
0.0661575 0.00491784 -0.468747
0.0556773 0.00493324 -0.468754
0.0451313 0.00494874 -0.46876
0.0345189 0.00496433 -0.468767
0.0274068 0.00497478 -0.468771
0.0166822 0.00499054 -0.468778
0.00588945 0.0050064 -0.468784
-0.0528504 0.00509271 -0.46882
-0.0640904 0.00510922 -0.468827
-0.0761753 0.00513434 -0.467383
-0.0829872 0.005137 -0.468837
-0.0944241 0.00515381 -0.468844
-0.105936 0.00517072 -0.46885
-0.113653 0.00518206 -0.468855
-0.125494 0.00520122 -0.468517
0.128966 0.0158231 0.451581
0.125972 0.0156409 0.429161
0.128154 0.0151672 0.373766
0.128746 0.0148041 0.330989
0.129311 0.014458 0.290213
0.129849 0.0141277 0.2513
0.130304 0.0138153 0.214484
0.130464 0.0135308 0.180877
0.130617 0.0132577 0.148627
0.130765 0.0129955 0.117653
0.130906 0.0127435 0.0878804
0.131043 0.012501 0.0592405
0.131158 0.0122683 0.0317516
0.131263 0.0120444 0.00530398
0.131284 0.0118323 -0.0197877
0.13138 0.0103726 -0.192412
0.131379 0.0100631 -0.229018
0.131364 0.00991577 -0.246452
0.131328 0.00963387 -0.279806
0.128126 0.00910305 -0.343522
0.128043 0.00843158 -0.422969
0.12803 0.00832918 -0.435084
-0.00497785 0.00837075 -0.468778
-0.015909 0.00839752 -0.468785
-0.0232354 0.00841546 -0.468789
-0.0342839 0.00844252 -0.468796
-0.0454037 0.00846975 -0.468803
0.113565 0.0219291 0.428259
0.107276 0.0219507 0.42826
0.0946593 0.0219941 0.428262
0.081993 0.0220377 0.428264
0.108617 0.0193745 0.210985
0.127277 0.017433 0.0523704
0.128103 0.0167686 -0.00351942
0.128494 0.0164551 -0.029897
0.128859 0.0161537 -0.0552535
0.129145 0.0158671 -0.0793793
0.129422 0.0155906 -0.102664
0.129689 0.0153235 -0.125151
0.129947 0.0150654 -0.14688
0.130073 0.0148229 -0.167334
0.130297 0.0143615 -0.206251
0.130435 0.01373 -0.259566
0.130492 0.0133404 -0.292465
0.128427 0.0132598 -0.299876
0.128137 0.0129158 -0.329021
0.128108 0.0125774 -0.35762
0.128954 0.0284828 0.451665
0.125679 0.0281847 0.431125
0.113389 0.0282126 0.429387
0.107095 0.0282404 0.429389
0.0944706 0.0282962 0.429393
0.081796 0.0283523 0.429397
0.069071 0.0284086 0.429402
0.0562954 0.0284651 0.429406
0.0434689 0.0285218 0.429411
0.0370364 0.0285503 0.429413
0.0241329 0.0286073 0.429417
0.0111777 0.0286646 0.429422
-0.00182983 0.0287222 0.429428
0.114518 0.0198871 -0.11737
0.12414 0.0189023 -0.179296
0.126809 0.0181625 -0.227134
0.127146 0.0178764 -0.245833
0.128091 0.0159621 -0.371353
0.128077 0.0157583 -0.384748
0.128066 0.0155596 -0.397811
0.128051 0.015366 -0.410534
0.128013 0.0148129 -0.446891
0.128001 0.0146373 -0.458436
0.124007 0.0145148 -0.467647
0.1142 0.0145423 -0.468681
0.10742 0.0145722 -0.468685
0.0971966 0.0146173 -0.468692
0.0869098 0.0146626 -0.468698
0.0765591 0.0147083 -0.468704
0.0661437 0.0147542 -0.46871
0.055663 0.0148004 -0.468716
0.0451166 0.0148469 -0.468723
0.0345037 0.0148937 -0.468729
0.0273912 0.014925 -0.468733
0.0166661 0.0149723 -0.46874
0.00587288 0.0150199 -0.468747
-0.05287 0.0152788 -0.468781
-0.0641106 0.0153284 -0.468788
-0.076231 0.0154049 -0.467278
-0.0830079 0.0154117 -0.468799
-0.0944454 0.0154621 -0.468805
-0.105958 0.0155129 -0.468812
-0.113675 0.0155469 -0.468816
-0.12552 0.0156045 -0.468473
-0.00861147 0.035163 0.430581
-0.0217062 0.0352338 0.430587
-0.0282734 0.0352693 0.430591
-0.0414475 0.0353406 0.430597
-0.0480547 0.0353763 0.430601
-0.0613091 0.035448 0.430608
0.128116 0.0200274 -0.343487
0.128035 0.01855 -0.422942
0.128023 0.0183247 -0.435058
-0.00499496 0.0184164 -0.46874
-0.0159267 0.0184754 -0.468747
-0.0232536 0.0185148 -0.468751
-0.0343027 0.0185744 -0.468757
-0.0454231 0.0186343 -0.468764
0.128942 0.0411438 0.451749
0.125386 0.0407564 0.433093
0.113036 0.0408034 0.431646
0.106734 0.0408437 0.43165
0.0940928 0.0409246 0.431659
0.0814012 0.0410057 0.431668
0.0686591 0.0410872 0.431677
0.0622691 0.0411281 0.431681
0.0494506 0.0412101 0.431691
0.036581 0.0412924 0.4317
0.0236598 0.0413751 0.43171
0.0171799 0.0414165 0.431714
0.004181 0.0414997 0.431723
0.128128 0.0239875 -0.328984
0.128099 0.023359 -0.357585
0.128085 0.0230569 -0.371331
0.128071 0.0227625 -0.384726
-0.121441 0.0225067 -0.468795
0.055651 0.0475334 0.432829
0.0427985 0.0476283 0.43284
0.0363529 0.0476759 0.432846
0.0234231 0.0477714 0.432857
0.0169387 0.0478192 0.432863
0.00393078 0.0479153 0.432874
-0.00259289 0.0479635 0.43288
-0.0156795 0.0480602 0.432893
-0.0288192 0.0481572 0.432905
-0.0420118 0.0482547 0.432917
-0.0486281 0.0483035 0.432924
-0.0619012 0.0484016 0.432936
0.128055 0.0259337 -0.397772
0.128043 0.0256109 -0.410504
0.128005 0.0246889 -0.446866
0.127994 0.0243962 -0.458411
0.123996 0.0241923 -0.467611
0.114189 0.0242383 -0.468645
0.107408 0.0242881 -0.468649
0.0971843 0.0243632 -0.468655
0.086897 0.0244388 -0.468661
0.0765458 0.0245148 -0.468667
0.0661299 0.0245914 -0.468673
0.0556489 0.0246684 -0.468679
0.0451019 0.0247459 -0.468686
0.0344884 0.0248239 -0.468692
0.0273755 0.0248761 -0.468696
0.0166498 0.0249549 -0.468702
0.00585589 0.0250343 -0.468708
-0.0528895 0.0254659 -0.468743
-0.0641305 0.0255485 -0.46875
-0.0767582 0.0257039 -0.466287
-0.0830288 0.0256873 -0.46876
-0.0944668 0.0257714 -0.468766
-0.10598 0.025856 -0.468773
0.128929 0.053806 0.451834
0.125093 0.0533559 0.435064
0.112683 0.0534263 0.433911
0.106372 0.0534792 0.433917
0.093714 0.0535852 0.433931
0.087366 0.0536384 0.433938
0.074632 0.053745 0.433951
0.128106 0.0309526 -0.343449
0.128027 0.0286691 -0.422913
0.128015 0.0283209 -0.435031
-0.00501224 0.028463 -0.468702
-0.0159445 0.028554 -0.468709
-0.0232715 0.028615 -0.468713
-0.0343211 0.028707 -0.468719
-0.045442 0.0287997 -0.468726
0.0616361 0.0602264 0.435109
0.0487915 0.0603467 0.435126
0.04235 0.060407 0.435134
0.0294282 0.0605281 0.435151
0.0164546 0.0606496 0.435167
0.00342885 0.0607716 0.435183
-0.00310361 0.0608328 0.435191
-0.0162084 0.0609555 0.435208
-0.0227805 0.0610171 0.435216
-0.0359648 0.0611405 0.435233
-0.0425769 0.0612025 0.435241
-0.0558415 0.0613267 0.435257
-0.06916 0.0614514 0.435274
0.128046 0.0341469 -0.357385
0.128077 0.0336995 -0.371303
0.128063 0.0332694 -0.384694
0.128049 0.0328502 -0.397749
-0.0760609 0.0325097 -0.467598
-0.0830427 0.0325382 -0.468735
-0.0944811 0.0326447 -0.46874
-0.105994 0.0327519 -0.468747
-0.113712 0.0328237 -0.468751
-0.125563 0.0329455 -0.468401
0.128917 0.0664695 0.451923
0.124777 0.0659887 0.437181
0.112328 0.0660815 0.436182
0.0996782 0.0662125 0.4362
0.0869775 0.0663441 0.436219
0.0742263 0.0664762 0.436237
-0.0296397 0.0675521 0.436385
-0.0428599 0.067689 0.436404
-0.0561337 0.0678265 0.436423
-0.0627909 0.0678955 0.436433
0.126409 0.0384832 -0.336968
0.127569 0.03592 -0.408817
0.12793 0.0345744 -0.446607
0.127986 0.0341556 -0.458385
0.123985 0.0338705 -0.467575
0.114177 0.033935 -0.468608
0.107396 0.0340047 -0.468612
0.097172 0.0341099 -0.468618
0.0868843 0.0342157 -0.468624
0.0765325 0.0343222 -0.46863
0.0661106 0.0344299 -0.468621
0.05562 0.0345387 -0.468604
0.0450628 0.0346481 -0.468586
0.0344386 0.0347583 -0.468569
0.0273182 0.0348321 -0.468557
0.0165806 0.0349434 -0.468539
0.00577423 0.0350554 -0.468522
-0.0530504 0.0356651 -0.468425
-0.0643086 0.0357818 -0.468407
0.128917 0.0727998 0.451918
0.10572 0.0725206 0.438007
0.093028 0.0726654 0.438045
0.0866632 0.072738 0.438064
0.0738953 0.0728836 0.438102
0.0674922 0.0729566 0.438122
0.0546474 0.0731031 0.43816
0.0417508 0.0732502 0.438199
0.0288023 0.0733979 0.438238
0.0223084 0.073472 0.438257
0.00928134 0.0736206 0.438296
-0.00379848 0.0737697 0.438335
-0.0169315 0.0739195 0.438374
-0.0766964 0.0746012 0.438554
-0.0835647 0.0747029 0.439175
-0.0864271 0.0741785 0.42486
0.126624 0.0385198 -0.430206
-0.00565857 0.0385717 -0.46727
-0.0129818 0.0386569 -0.467207
-0.0240273 0.0387852 -0.467113
-0.0351464 0.0389145 -0.467017
-0.0426005 0.0390011 -0.466953
0.117644 0.0788774 0.442669
-0.0250939 0.0807353 0.445184
-0.03843 0.0809134 0.445526
-0.051825 0.0810923 0.44587
-0.0585447 0.081182 0.446042
-0.0896479 0.0822414 0.462074
-0.0887267 0.0799794 0.40883
-0.0882846 0.0788944 0.383291
-0.0878547 0.0778384 0.358437
-0.087436 0.0768104 0.334238
-0.0870281 0.0758091 0.31067
-0.0866309 0.0748337 0.287709
0.122494 0.0415132 -0.439831
0.021196 0.0417997 -0.462457
0.00997216 0.0419763 -0.461537
-0.0800941 0.0506326 -0.282904
-0.0799978 0.0502074 -0.292936
-0.0799032 0.0497893 -0.3028
-0.0798101 0.049378 -0.312501
-0.0796286 0.0485756 -0.331431
-0.0795399 0.0481841 -0.340667
-0.0794527 0.0477988 -0.349755
-0.079367 0.0474197 -0.358699
-0.0792826 0.0470465 -0.367503
-0.0791175 0.0463176 -0.3847
-0.0790369 0.0459615 -0.393101
-0.0788794 0.0452655 -0.40952
-0.0788024 0.0449253 -0.417545
-0.0786519 0.0442601 -0.433237
-0.0785057 0.0436143 -0.448472
-0.0783638 0.0429871 -0.463268
-0.0906812 0.0429086 -0.4687
-0.0983322 0.0430024 -0.468704
-0.109871 0.0431437 -0.46871
-0.117606 0.0432384 -0.468715
-0.0919666 0.0880912 0.44542
-0.0914713 0.0868728 0.418876
-0.0909895 0.0856876 0.393056
-0.0905206 0.0845344 0.367931
-0.0900642 0.0834117 0.343474
-0.0896197 0.0823185 0.319657
-0.0887648 0.0802159 0.273849
-0.0883536 0.0792044 0.251811
-0.0879526 0.078218 0.230323
-0.0875613 0.0772559 0.209362
-0.0871796 0.0763172 0.188912
-0.0868072 0.075401 0.168952
-0.0864436 0.0745066 0.149466
-0.0860885 0.0736331 0.130436
-0.0857416 0.0727799 0.111848
-0.0854027 0.0719463 0.0936857
-0.0850713 0.0711315 0.0759344
-0.0847475 0.0703349 0.0585809
-0.0844309 0.069556 0.0416119
-0.0842336 0.0688105 0.025339
-0.0840691 0.0680849 0.00949299
-0.0839081 0.0673744 -0.0060221
-0.0837503 0.0666787 -0.0212171
-0.0835958 0.0659971 -0.0361013
-0.0834444 0.0653293 -0.0506845
-0.0832961 0.0646749 -0.0649753
-0.0831507 0.0640335 -0.0789827
-0.0830082 0.0634047 -0.0927149
-0.0828684 0.0627881 -0.10618
-0.0827313 0.0621834 -0.119386
-0.0825968 0.0615902 -0.13234
-0.082465 0.0610083 -0.145049
-0.0823356 0.0604372 -0.15752
-0.0822085 0.0598767 -0.16976
-0.0820837 0.0593265 -0.181775
-0.0819612 0.0587864 -0.193571
-0.081841 0.058256 -0.205155
-0.0817229 0.057735 -0.216531
-0.081607 0.0572234 -0.227705
-0.081493 0.0567206 -0.238683
-0.0813811 0.0562267 -0.24947
-0.081271 0.0557413 -0.260071
-0.0811628 0.0552642 -0.27049
-0.0947851 0.0951696 0.455881
-0.0942477 0.0938457 0.429039
-0.0937249 0.0925581 0.402932
-0.0932165 0.0913054 0.377533
-0.0927216 0.0900861 0.352812
-0.0922396 0.088899 0.328742
-0.0917703 0.0877428 0.305298
-0.0908671 0.0855182 0.260194
-0.0904326 0.0844477 0.238489
-0.0900087 0.0834037 0.217321
-0.0884134 0.0794736 0.137635
-0.0880377 0.0785482 0.118873
-0.0876707 0.0776442 0.100543
-0.0873121 0.0767607 0.08263
-0.0866188 0.0750527 0.0479999
-0.0856347 0.0726287 -0.00114894
-0.0820229 0.0589748 -0.278552
-0.0819101 0.0584775 -0.28866
-0.0817991 0.0579885 -0.2986
-0.0816899 0.0575076 -0.308375
-0.0810712 0.054782 -0.363782
-0.0809737 0.0543526 -0.37251
-0.0807832 0.0535138 -0.389561
-0.0806902 0.053104 -0.397891
-0.0975611 0.101004 0.441167
-0.0968249 0.0995752 0.414124
-0.09611 0.0981865 0.387839
-0.0948853 0.0955511 0.337917
-0.0943795 0.0943017 0.314228
-0.0938867 0.0930846 0.291152
-0.0934063 0.0918985 0.268663
-0.0924813 0.0896147 0.225361
-0.0920354 0.0885147 0.204506
-0.0916003 0.0874415 0.184156
-0.0911756 0.0863939 0.164294
-0.0891962 0.0815113 0.0717205
-0.0884657 0.0797094 0.0375558
-0.0881125 0.078838 0.0210339
-0.0874285 0.0771511 -0.0109499
-0.0870975 0.0763345 -0.0264335
-0.0867734 0.0755349 -0.0415931
-0.086456 0.0747519 -0.0564384
-0.0861451 0.073985 -0.070979
-0.0858405 0.0732337 -0.0852245
-0.0852494 0.0717759 -0.112864
-0.0849626 0.0710686 -0.126276
-0.0846815 0.070375 -0.139426
-0.0844785 0.0697055 -0.152139
-0.0843309 0.0690562 -0.164484
-0.084186 0.0684189 -0.176601
-0.0840438 0.0677932 -0.188496
-0.0836324 0.0659829 -0.222912
-0.0835 0.0654008 -0.23398
-0.08337 0.0648289 -0.244853
-0.0832423 0.0642668 -0.255538
-0.0831167 0.0637145 -0.266039
-0.0824066 0.0605899 -0.325443
-0.0822949 0.0600987 -0.334782
-0.0821851 0.0596154 -0.34397
-0.082077 0.0591398 -0.353012
-0.081366 0.0560119 -0.412479
-0.0812706 0.0555919 -0.420465
-0.0811765 0.0551781 -0.428332
-0.0809926 0.0543687 -0.443719
-0.0808139 0.0535828 -0.458662
-0.0831622 0.0531021 -0.468513
-0.0945233 0.0532671 -0.468664
-0.106038 0.053442 -0.46867
-0.113757 0.0535592 -0.468674
-0.125614 0.0537585 -0.468314
-0.100696 0.106842 0.428099
-0.0998416 0.105323 0.401129
-0.0990243 0.10385 0.37496
-0.0982324 0.102418 0.349523
-0.0974772 0.101027 0.32483
-0.0967853 0.0996834 0.300944
-0.0961129 0.098375 0.277689
-0.0954638 0.0971016 0.255057
-0.0949733 0.0958888 0.233464
-0.0940282 0.093552 0.191858
-0.0931281 0.0913263 0.152232
-0.092694 0.0902527 0.133118
-0.09227 0.0892041 0.114448
-0.0918555 0.0881795 0.0962059
-0.0914506 0.0871782 0.0783792
-0.0910549 0.0861994 0.0609523
-0.0899181 0.0833905 0.0109411
-0.087532 0.0774976 -0.0939757
-0.0849183 0.0710429 -0.208895
-0.101496 0.108033 0.338583
-0.100399 0.106509 0.31315
-0.0996031 0.105086 0.289329
-0.0988428 0.103703 0.266183
-0.098099 0.102355 0.243628
-0.0974029 0.101048 0.221744
-0.09675 0.0997795 0.200492
-0.0961155 0.0985425 0.179775
-0.0955161 0.0973397 0.159625
-0.0941547 0.0939698 0.103076
-0.0937218 0.0928977 0.0850869
-0.0932985 0.0918498 0.0675031
-0.0928847 0.0908253 0.050312
-0.0924799 0.0898234 0.0334998
-0.0916967 0.0878845 0.000964284
-0.0913176 0.0869461 -0.0147824
-0.0909464 0.0860275 -0.0301965
-0.0905833 0.0851281 -0.045288
-0.0902275 0.0842474 -0.0600674
-0.0898789 0.0833847 -0.0745441
-0.0895375 0.0825394 -0.0887272
-0.0892029 0.0817112 -0.102626
-0.0888749 0.0808993 -0.116248
-0.0885533 0.0801035 -0.129603
-0.0882376 0.079323 -0.142698
-0.087928 0.0785577 -0.155541
-0.0876243 0.077807 -0.168138
-0.0861891 0.0742588 -0.227677
-0.0859176 0.0735876 -0.238939
-0.085651 0.0729285 -0.249999
-0.084879 0.0710201 -0.282023
-0.0846717 0.070412 -0.292237
-0.084538 0.0698246 -0.302124
-0.0844063 0.0692469 -0.311847
-0.084277 0.0686787 -0.321411
-0.0841496 0.0681198 -0.330819
-0.0840243 0.0675698 -0.340075
-0.0836605 0.065972 -0.366969
-0.083543 0.0654561 -0.375653
-0.0834273 0.0649481 -0.384202
-0.0833134 0.064448 -0.392619
-0.0830909 0.0634706 -0.409072
-0.0828747 0.0625223 -0.425032
-0.102224 0.109118 0.257042
-0.100921 0.107593 0.233042
-0.100136 0.106215 0.211233
-0.0993946 0.104876 0.190051
-0.0986814 0.103573 0.169425
-0.0979801 0.1023 0.149289
-0.0973366 0.101067 0.129766
-0.0955632 0.0975532 0.0741154
-0.0942687 0.0943456 0.0232208
-0.0888931 0.0810249 -0.188138
-0.0885881 0.0802694 -0.200126
-0.0882889 0.0795278 -0.211893
-0.0868711 0.0760162 -0.267611
-0.0846897 0.0704309 -0.356254
-0.0835059 0.0652379 -0.438916
-0.0832899 0.0642898 -0.454007
-0.0837999 0.0634653 -0.467334
-0.0945456 0.0635798 -0.468624
-0.10606 0.0637885 -0.468631
-0.113779 0.0639284 -0.468635
-0.125639 0.0641666 -0.46827
-0.101632 0.108637 0.160463
-0.100634 0.10725 0.139733
-0.0999041 0.105952 0.120256
-0.0992121 0.104689 0.101303
-0.0985369 0.103456 0.0827981
-0.0978798 0.102252 0.0647312
-0.0972771 0.101084 0.0471922
-0.0961199 0.0988273 0.0133111
-0.0956054 0.0977455 -0.00294411
-0.0951854 0.0967038 -0.0186199
-0.0947743 0.095684 -0.0339652
-0.0943717 0.0946854 -0.0489904
-0.0939775 0.0937076 -0.0637048
-0.0935912 0.0927497 -0.0781187
-0.0928419 0.0908914 -0.10608
-0.0924785 0.08999 -0.119645
-0.0921222 0.0891062 -0.132943
-0.0917728 0.0882396 -0.145982
-0.0898113 0.0833747 -0.219188
-0.0895052 0.0826155 -0.230611
-0.0880547 0.0790181 -0.284742
-0.0877797 0.0783359 -0.295008
-0.0875093 0.0776654 -0.305098
-0.0857385 0.0732748 -0.371164
-0.0855014 0.0726877 -0.379998
-0.101104 0.108206 0.0740397
-0.100379 0.106944 0.0560472
-0.0984067 0.103351 0.00478983
-0.0933551 0.0922385 -0.154033
-0.0929991 0.0913551 -0.166673
-0.09265 0.0904885 -0.179072
-0.0923074 0.0896381 -0.191239
-0.0919713 0.0888036 -0.203179
-0.0909991 0.0863907 -0.237701
-0.0906868 0.0856153 -0.248796
-0.0903799 0.0848537 -0.259693
-0.0900786 0.0841055 -0.270398
-0.0886478 0.0805542 -0.32121
-0.088376 0.0798796 -0.330861
-0.0881089 0.0792162 -0.340353
-0.087846 0.0785637 -0.349688
-0.0875873 0.0779219 -0.358871
-0.0865941 0.0754563 -0.394148
-0.0863555 0.0748641 -0.402621
-0.0858894 0.0737071 -0.419175
-0.0854374 0.0725854 -0.435225
-0.102975 0.110499 0.0324453
-0.101746 0.109133 0.014008
-0.100826 0.107861 -0.00321639
-0.100153 0.106668 -0.0194335
-0.0995146 0.105505 -0.0352437
-0.0988996 0.104369 -0.0506873
-0.0982889 0.103255 -0.0658247
-0.0971746 0.101112 -0.0949748
-0.0966417 0.100075 -0.109083
-0.0961236 0.0990604 -0.122894
-0.0956788 0.0980783 -0.136272
-0.0864758 0.0752179 -0.448017
-0.0860272 0.0741036 -0.463213
-0.0945667 0.0738932 -0.468586
-0.106082 0.0741358 -0.468592
-0.113802 0.0742984 -0.468596
-0.125665 0.0745756 -0.468227
-0.100585 0.107552 -0.0731471
-0.0976504 0.102137 -0.143461
-0.0971301 0.101125 -0.156606
-0.0966205 0.100133 -0.169491
-0.0961251 0.0991617 -0.182117
-0.0957107 0.0982233 -0.19433
-0.0949829 0.0964141 -0.217895
-0.0946289 0.0955343 -0.229355
-0.0942813 0.0946704 -0.240608
-0.09394 0.093822 -0.251659
-0.0936048 0.0929887 -0.262514
-0.0929518 0.0913657 -0.283655
-0.0926338 0.0905752 -0.293951
-0.0923213 0.0897983 -0.30407
-0.092014 0.0890346 -0.314018
-0.091712 0.0882838 -0.323798
-0.091415 0.0875456 -0.333414
-0.090275 0.0847121 -0.370322
-0.0900015 0.0840322 -0.379179
-0.0897323 0.083363 -0.387895
-0.102892 0.110789 -0.0932257
-0.10184 0.109548 -0.108538
-0.100987 0.108373 -0.123076
-0.0924765 0.0902392 -0.348788
-0.0921794 0.0895006 -0.357996
-0.0907647 0.0859818 -0.401864
-0.090495 0.0853109 -0.410227
-0.0902295 0.0846505 -0.41846
-0.0897104 0.0833598 -0.43455
-0.104081 0.111684 -0.139667
-0.102384 0.110325 -0.155584
-0.101385 0.109144 -0.169547
-0.10076 0.108066 -0.182382
-0.0996062 0.105985 -0.207162
-0.0990625 0.104978 -0.21916
-0.098526 0.103989 -0.230939
-0.0980146 0.103022 -0.242464
-0.0965841 0.100235 -0.275682
-0.0961278 0.0993401 -0.286351
-0.0957668 0.0984786 -0.296643
-0.0954279 0.0976352 -0.306725
-0.0906997 0.0858684 -0.447374
-0.0904417 0.0852264 -0.455047
-0.0901876 0.084594 -0.462606
-0.0984186 0.0842995 -0.468549
-0.10996 0.0845766 -0.468555
-0.117696 0.0847624 -0.468559
-0.0999866 0.106777 -0.248245
-0.0994565 0.105795 -0.259485
-0.0970178 0.101157 -0.312563
-0.096568 0.10028 -0.322599
-0.0957918 0.0985917 -0.341951
-0.0954655 0.0977793 -0.351278
-0.0948287 0.0961938 -0.369478
-0.094518 0.0954202 -0.378359
-0.0939114 0.0939098 -0.395699
-0.0936152 0.0931723 -0.404164
-0.100909 0.108506 -0.275952
-0.100354 0.107523 -0.286755
-0.0945857 0.0956346 -0.417742
-0.0939992 0.0941737 -0.433873
-0.0934305 0.0927569 -0.449518
-0.10199 0.110204 -0.302036
-0.101243 0.109184 -0.312787
-0.100706 0.108226 -0.322934
-0.0987121 0.104569 -0.361674
-0.0982487 0.103696 -0.370925
-0.0978108 0.102842 -0.379988
-0.0943628 0.0951218 -0.461997
-0.0950705 0.0946128 -0.467676
-0.106126 0.0948333 -0.468514
-0.113846 0.0950413 -0.468518
-0.125716 0.095397 -0.46814
-0.102455 0.110855 -0.336988
-0.101591 0.109829 -0.347387
-0.0990729 0.105308 -0.39356
-0.0981742 0.103614 -0.410884
-0.0977525 0.10279 -0.419307
-0.104633 0.112692 -0.358204
-0.0989631 0.105169 -0.431964
-0.0985187 0.104344 -0.440105
-0.0981049 0.103537 -0.448077
-0.0992953 0.105848 -0.460045
-0.102792 0.105173 -0.4676
-0.114836 0.105616 -0.466799
-0.122777 0.105884 -0.466508
-0.104345 0.112747 -0.429326
-0.105743 0.113502 -0.455423
