ply
format ascii 1.0
comment Created by Open3D
element vertex 1681
property double x
property double y
property double z
end_header
-0.0924552 0.145821 0.340241
0.226708 0.145821 -0.00641807
0.13288 0.102614 0.00063261
0.210861 0.148351 -0.194427
0.21328 0.145821 0.313875
0.158723 0.156622 -0.382053
0.238937 0.145821 0.281971
0.262054 0.155808 0.250703
-0.0720631 0.156622 -0.173544
0.218481 0.124282 -0.278389
0.256079 0.156622 -0.273513
0.108015 0.148818 0.0960165
0.188006 0.145357 -0.308168
0.191734 0.156622 0.161085
-0.194427 0.146592 -0.22774
0.023736 0.145821 0.249342
-0.185748 0.145821 -0.126277
0.0649494 0.156622 0.359319
-0.189519 -0.113416 -0.313396
-0.201809 -0.102614 0.337105
0.113119 0.145821 -0.150968
-0.155175 0.156622 -0.220399
0.226831 -0.135577 0.329933
-0.209349 -0.113416 -0.352377
-0.15142 0.145821 -0.124192
-0.0616203 0.145821 -0.166807
0.145573 0.145821 -0.360997
0.0648092 0.149345 0.202503
0.0849008 0.148054 0.194427
-0.0917704 0.145821 -0.337075
-0.146855 0.145821 0.368256
0.258151 0.145821 0.035038
0.235076 0.145821 -0.000126846
-0.0648092 0.146811 0.258843
-0.194427 0.0273588 0.355839
0.218986 0.156622 0.364028
-0.199191 0.11568 -0.282402
-0.220872 0.144903 -0.313244
-0.109741 0.145821 0.352008
-0.189437 0.150067 -0.345648
-0.226831 0.0102672 -0.315554
-0.224585 0.102614 -0.263315
-0.228305 0.103814 -0.367251
-0.126845 0.145821 -0.301308
0.211703 0.145821 0.139442
-0.224131 -0.0369053 0.334462
-0.203484 0.118902 -0.293385
-0.226831 0.142497 -0.272386
0.186983 0.095983 -0.313244
-0.00547036 0.145821 0.0515851
0.161461 0.156622 0.334916
0.0997737 0.109802 0.00540064
0.0982261 0.148356 0.151221
-0.113713 0.145821 0.100684
0.0575518 0.156622 0.288487
-0.180144 0.12556 0.301449
0.207226 0.142364 0.00540064
-0.123655 0.156622 0.19431
-0.255239 0.156622 -0.0488336
-0.203014 0.126178 -0.35645
-0.0116545 0.156622 0.37894
-0.0769995 0.145821 -0.214117
-0.20496 0.0124539 -0.315944
-0.167716 0.125056 -0.329154
0.0917369 0.156622 -0.0362695
0.0648092 0.155328 -0.118642
0.237633 0.10544 0.229798
0.0680516 0.122224 -0.35645
0.135123 0.102614 -0.358236
0.217788 -0.0414849 0.35645
0.0699735 0.156622 0.283435
-0.228092 0.156622 -0.0646406
0.224898 -0.140757 0.313244
0.19303 0.0168793 0.35645
0.194427 0.149002 0.260995
-0.167414 0.104101 -0.31418
0.243908 0.145821 -0.105779
-0.156221 0.115795 0.367251
0.217763 0.156622 0.30964
-0.117995 0.150461 -0.0648092
0.172824 0.146773 -0.119066
-0.0643645 0.156622 -0.381367
0.205362 -0.0501462 -0.35375
-0.01574 0.137216 -0.35645
0.183626 -0.126302 0.333731
0.172824 0.154737 -0.0913349
0.0216031 0.153964 -0.237549
-0.210609 -0.0810114 -0.318073
-0.21603 0.146696 0.0888779
-0.226831 0.0874437 -0.31717
-0.159126 0.141194 -0.35645
-0.221425 0.156622 0.330592
0.226831 0.111443 -0.327913
0.196632 0.145821 -0.385727
0.129618 0.147336 -0.0893164
0.230475 0.145821 0.36111
0.0781182 0.156622 -0.340545
0.0923569 0.15039 0.145276
-0.261235 0.156189 0.255696
0.107723 0.145821 0.384855
0.115156 0.145821 -0.260236
0.204306 -0.146903 0.35645
-0.218739 0.156622 0.112749
0.0437048 0.156622 -0.211133
-0.132109 0.13005 -0.35645
0.147827 0.145821 -0.386061
-0.241527 0.145821 -0.201326
0.219491 0.0567557 0.35645
0.0979598 0.145821 0.163261
-0.226831 0.139712 0.125846
0.229069 0.145821 0.0485142
0.164793 0.145821 -0.120971
0.217309 -0.0674973 0.313244
0.205575 -0.0967954 -0.313244
-0.02794 0.156622 -0.222336
0.210656 0.156622 0.0230582
0.21603 0.155243 -0.0583285
0.0648092 0.151043 0.312173
0.224131 0.0522165 0.334885
0.0168583 0.145821 -0.287749
-0.158158 0.156622 0.121001
-0.0432061 0.150901 -0.140774
-0.151221 0.150189 -0.268483
0.137267 0.152386 -0.0648092
-0.189581 0.156622 -0.162751
0.21603 0.155348 0.176081
-0.21603 0.147997 -0.299531
0.108015 0.152344 0.298141
-0.0246565 0.156622 -0.283558
0.106278 0.154376 0.304179
0.261035 0.14617 0.194035
0.0647367 0.156622 0.0575012
-0.184375 0.145821 -0.0581668
0.183626 -0.0341469 0.313466
0.163537 0.156622 -0.304027
0.0101261 0.145821 0.295423
-0.0609881 0.102614 -0.367135
-0.183626 -0.0777222 0.326104
-0.226831 -0.141565 -0.349942
-0.21603 0.148878 -0.22449
-0.191951 0.145821 0.306029
0.172824 0.147193 -0.287975
0.0864118 0.150365 0.0948579
-0.0856803 0.156622 0.298827
0.121393 0.155654 0.251011
-0.0432061 0.15467 -0.260021
-0.104173 0.156622 0.315365
0.161296 0.145821 0.299594
0.135967 0.119525 0.345626
0.0648092 0.15371 0.26517
0.127911 0.156622 -0.0509374
0.0276215 0.156622 0.292075
0.206392 0.148508 0.031241
-0.0350964 0.156622 0.0818983
-0.212366 0.145821 0.273722
0.219483 0.145821 0.265565
-0.0365318 0.145821 -0.233971
-0.117285 0.145821 -0.249744
0.108015 0.15268 -0.121791
0.0432061 0.155803 0.154557
0.00775678 0.156622 -0.0156588
-0.188179 0.145821 -0.207438
0.196771 0.145821 -0.188203
0.0644956 0.102614 -0.361958
0.106516 0.148158 -0.236134
0.254931 0.156622 -0.268021
0.182014 0.145821 -0.0196479
0.232744 0.102614 -0.0967802
-0.114426 0.156622 -0.347295
0.0831315 0.145821 0.199598
0.0864118 0.149096 0.139946
-0.231586 0.145821 -0.0648664
-0.237633 0.12397 -0.0826849
0.206935 0.145821 0.314003
0.0648092 0.154108 0.309846
0.140832 0.145821 0.157999
-0.202699 0.102614 -0.362248
-0.00821833 0.156622 -0.359837
0.104417 0.156622 0.0578689
0.226831 0.138988 0.114329
0.232367 0.156622 0.236655
0.236815 0.134601 0.366433
-0.19877 -0.136232 -0.35645
-0.219294 0.145821 -0.0877413
0.234033 0.145821 -0.220656
0.0395027 0.145821 -0.0284222
-0.0467971 0.112306 0.00540064
0.232061 0.145821 -0.144341
-0.00941138 0.156622 0.298105
0.231384 0.145821 -0.261201
-0.237633 0.122843 0.0780292
-0.140922 0.145821 0.0530487
-0.204963 0.146021 0.194427
0.0147169 0.156622 0.369868
0.183626 0.0968045 0.332865
0.0256358 0.156622 0.144393
0.0821818 0.156622 0.262635
0.132796 0.146623 -0.0432061
-0.0310391 0.148905 -0.0216031
0.0884444 0.156622 -0.158823
0.0338826 0.145821 0.0687228
0.0977299 0.145821 -0.330004
0.204235 0.117842 0.292635
0.185351 -0.0810114 -0.346933
0.19996 0.156622 0.172524
-0.20231 0.145821 0.203324
0.231596 0.145821 0.177244
-0.194427 0.156214 -0.0623058
0.166385 0.152518 -0.194427
0.219557 -0.0918127 0.319553
-0.183626 -0.123951 -0.325733
0.241327 0.156622 -0.285526
-0.183626 -0.0690836 0.321571
0.117719 0.156622 0.323803
0.107826 0.156622 -0.173022
0.102286 0.145821 -0.0728847
-0.154497 0.156622 -0.247608
-0.231297 0.145821 -0.0662971
0.24885 0.145821 -0.0899
0.0134146 0.145821 0.0548292
-0.119949 0.156622 0.213456
-0.0472286 0.156622 -0.0525444
-0.226831 0.145428 -0.059099
-0.0216031 0.14879 -0.304776
0.163974 0.145821 -0.190467
-0.0188497 0.145821 -0.242206
-0.224835 -0.0114678 -0.345648
-0.0624794 0.145821 0.0903728
-0.207605 0.156622 0.178169
-0.0469112 0.156622 -0.381534
-0.194427 0.15122 -0.0547206
0.19106 0.156622 0.0613397
0.0942884 0.156622 0.0760634
0.194427 0.152666 0.143412
-0.225548 -0.0617537 0.324045
-0.226831 0.084222 -0.320608
-0.0382306 0.156622 -0.291423
-0.21603 0.146983 0.065971
-0.175303 0.145821 -0.375613
-0.155629 0.145821 0.0818099
-0.0941914 0.155217 -0.151221
-0.203537 0.106283 -0.35645
-0.0388323 0.156622 -0.252483
0.0247468 0.145821 -0.128802
0.171341 0.145821 -0.37654
-0.113761 0.156622 -0.35926
-0.0623199 0.156622 0.328424
0.0814707 0.145821 0.384689
-0.183626 -0.0950472 -0.322621
-0.0691029 0.145821 -0.0592673
-0.0864123 0.155947 -0.129208
-0.10993 0.145821 0.38116
0.215381 0.149519 0.0216031
0.155327 0.145821 -0.229426
-0.20737 -0.156622 -0.315422
0.186726 0.150998 -0.223731
0.235239 0.145821 0.200731
-0.215988 0.143624 -0.313244
0.226831 0.126993 0.228037
0.020302 0.156622 0.231085
0.162593 0.145821 -0.00251391
0.223985 -0.133308 -0.313244
0.0648092 0.145866 -0.0462394
-0.103949 0.156622 -0.160671
-0.223311 -0.114769 -0.313244
-0.226831 0.108136 0.352057
-0.237037 0.145821 -0.356741
-0.230722 0.156622 0.0215891
-0.237633 0.120431 0.237607
-0.0956475 0.145821 0.298507
-0.188647 0.156622 -0.204279
-0.0370583 0.145821 -0.344866
0.102291 0.156622 -0.200491
-0.21603 0.152897 -0.341539
0.132489 0.156622 0.365051
0.151494 0.145821 0.358824
-0.260548 0.145993 0.000778921
0.0898524 0.156622 -0.131993
0.132172 0.129552 -0.367251
-0.0705506 0.145821 0.264754
0.147217 0.155482 -0.194427
-0.0233977 0.156622 0.193426
-0.00326698 0.145821 0.132874
0.0717756 0.156622 0.185124
0.188766 0.143437 0.292827
0.209442 0.145821 -0.00480358
0.171727 0.156622 -0.268988
0.146973 0.145821 -0.375267
-0.22618 0.156622 0.3556
0.209528 0.135019 0.112951
-0.1483 0.145821 -0.00842023
0.0774762 0.145821 -0.00388502
-0.188855 0.130543 0.35645
-0.170371 0.14332 0.311223
0.0648092 0.148837 -0.253977
-0.0766427 0.145821 -0.20499
0.182226 0.145821 -0.286457
-0.196549 0.156622 0.20637
-0.225667 0.145821 -0.00321315
-0.242827 0.145821 0.165994
0.0216031 0.149876 -0.067054
-0.237633 0.144541 -0.116433
-0.186717 0.149461 -0.194427
0.0695893 0.145821 -0.106752
0.186719 0.145821 -0.326194
-0.0809663 0.15494 0.39275
0.0734632 0.156622 -0.365376
0.172675 0.156622 0.198499
0.133001 0.156622 0.12021
0.221588 0.0364408 -0.35645
0.0591484 0.150219 0.0216031
-0.180862 0.156622 -0.338395
0.0537258 0.145821 0.226909
-0.175401 0.146308 0.345648
-0.0759886 0.145821 -0.217712
-0.147484 0.156622 0.207979
-0.106408 0.156622 -0.0680979
-0.214661 0.145821 0.248154
0.0216031 0.154608 -0.128447
-0.226831 0.140687 0.19486
0.203547 0.0564915 0.35375
-0.168217 0.156622 -0.214811
-0.151989 0.154243 0.393285
-0.0415954 0.145821 0.137411
-0.0605488 0.145821 0.244574
-0.114327 0.133029 -0.35645
0.232556 0.102614 0.0981922
-0.0216031 0.148498 -0.242017
-0.215683 0.00103937 -0.35375
0.0421028 0.145821 0.31131
-0.060388 0.156622 0.0973207
0.196015 0.113338 0.285578
-0.14737 0.156622 -0.326335
-0.184214 -0.114153 0.35645
0.183626 -0.122958 0.327102
0.21342 0.156622 0.208842
-0.237633 0.103226 -0.36289
-0.0276684 0.147034 0.194427
0.237633 0.109723 -0.174286
0.051202 0.125966 -0.367251
-0.226831 0.143332 0.0431107
0.114424 0.156622 0.125448
0.0548383 0.156622 -0.222393
-0.226831 0.117642 0.262839
-0.0170412 0.156622 -0.354448
-0.203737 0.145821 0.236635
-0.21603 0.147216 0.184145
0.0648092 0.15182 0.151851
-0.0792433 0.145821 -0.278445
-0.224131 -0.0266012 -0.337288
0.263705 0.14825 0.292524
-0.0806639 0.145821 -0.0196702
-0.220201 -0.000236049 -0.313244
-0.0432061 0.156026 0.24747
-0.0818637 0.145821 0.00806598
0.213423 0.145821 0.363161
-0.178378 0.15484 -0.21603
0.226831 0.142167 0.252526
0.0538319 0.145821 0.201044
0.0216031 0.151496 -0.167425
-0.122123 0.156622 0.117439
0.237633 0.1147 0.218367
-0.240152 0.156622 -0.0252957
-0.00874617 0.131527 -0.367251
-0.23299 0.145821 0.326786
0.053446 0.145821 0.0409146
0.237633 0.142977 0.291181
0.0875916 0.156622 0.219271
0.221332 0.145821 -0.130471
-0.0942672 0.150918 -0.345648
0.0915343 0.150432 -0.194427
0.175472 0.145821 -0.00897568
0.108241 0.156622 -0.184812
0.226831 0.0147356 -0.322709
0.21603 0.15014 0.207787
-0.131891 0.146813 0.151221
-0.183745 0.156622 -0.135145
0.0547413 0.145821 -0.384468
0.0218454 0.145821 0.0769821
-0.0892015 0.102892 -0.367251
0.219713 0.078686 -0.313244
0.19447 0.145821 0.0783969
-0.143201 0.152423 0.280839
-0.18622 -0.00750338 0.324045
0.0182467 0.156622 -0.0373916
-0.142568 0.156622 -0.136892
-0.0216031 0.148564 0.0797654
0.128963 0.145821 0.150916
0.208778 0.156622 -0.371344
0.263939 0.153858 0.188225
-0.183626 -0.0196901 -0.351786
0.231823 0.102614 -0.016643
0.237633 0.112786 0.354984
-0.0216031 0.150108 -0.219557
0.177025 0.15622 -0.0606084
0.0632425 0.156622 -0.0979647
0.0509305 0.145821 -0.373209
0.177612 0.145821 -0.0322255
-0.0648092 0.149227 -0.296135
0.0216031 0.151887 -0.221476
-0.226831 -0.150503 0.355992
-0.264422 0.152693 0.373425
-0.0853912 0.145821 -0.0586546
0.0432061 0.14789 -0.0816464
-0.237633 0.131513 -0.0119799
-0.204441 0.152691 -0.345648
0.226831 0.124712 -0.331044
-0.0185045 0.145821 -0.183355
0.0774624 0.156622 0.247639
-0.0648092 0.14607 0.312206
-0.0235192 0.156622 -0.124302
0.186326 -0.0501284 -0.333044
-0.226831 -0.0255028 -0.315985
0.2068 -0.0810114 0.316196
0.0864118 0.156185 -0.0667241
0.226831 0.14447 -0.294742
0.183324 0.105629 -0.35645
-0.134244 0.156622 -0.1423
-0.0281178 0.145821 -0.0411117
0.226831 0.106966 -0.217702
0.251948 0.156622 0.208057
0.217283 0.145821 0.204067
0.196006 0.00421133 -0.35375
0.0951072 0.145821 -0.340687
-0.140391 0.145821 -0.125938
0.0461265 0.145821 0.183552
0.0427905 0.145821 0.0940563
0.00800663 0.156622 0.271993
0.154886 0.1561 -0.324045
-0.0466314 0.145821 0.29604
0.226831 0.1191 0.0797139
-0.0432061 0.152388 -0.306588
-0.109884 0.156622 -0.0306305
-0.115324 0.156622 -0.257108
-0.232289 0.134336 0.367251
0.0123601 0.145821 -0.372731
-0.226831 0.13412 0.265629
0.237633 0.122515 -0.193996
0.134748 0.156622 -0.022853
-0.0208558 0.145878 0.172824
0.227798 0.145821 0.366231
0.142914 0.156622 -0.0255072
-0.237633 0.117349 0.0448387
-0.0710978 0.156622 -0.223299
-0.238016 0.156622 0.154168
0.21603 0.147999 0.149748
0.143697 0.156622 0.343556
0.0199066 0.145821 0.369326
0.160591 0.156622 0.147245
0.0801984 0.104846 0.367251
-0.211838 0.156622 0.121952
0.225514 0.118788 -0.35645
-0.140227 0.156622 0.0158421
0.183878 0.14618 -0.172824
0.177238 0.145821 0.369512
0.114882 0.145821 0.218075
0.147961 0.145821 -0.359653
-0.192425 0.11715 0.289168
0.186326 0.0254347 0.326401
0.073064 0.14654 -0.172824
-0.213973 0.156622 0.0266958
0.130676 0.126209 0.00540064
-0.237633 0.128962 0.110625
-0.226831 -0.0958224 0.3156
0.0389697 0.145821 -0.302881
-0.202653 0.12812 -0.294216
-0.21603 0.150762 -0.108756
-0.071379 0.156622 0.0476877
0.0828731 0.122304 0.35645
-0.235307 0.102614 0.0421778
0.202491 -0.122394 0.313244
-0.15953 0.145821 -0.117884
0.172824 0.149087 0.239052
-0.213303 0.145821 0.332135
-0.223162 0.156622 -0.33785
0.237633 0.129181 -0.312841
-0.237633 0.134007 -0.238155
-0.21603 0.149388 0.0973833
0.0261631 0.156622 0.0180037
-0.142398 0.145821 0.227933
0.0485845 0.156622 -0.131736
0.21316 -0.15623 0.313244
0.201917 0.0918127 -0.31393
0.0338393 0.156622 -0.354812
0.20465 0.145821 0.060671
0.243939 0.156622 -0.0122088
0.0289322 0.156622 -0.0845796
0.183626 -0.154192 -0.332924
-0.194783 0.1482 0.215674
0.226831 0.144255 0.0569107
-0.128305 0.152168 -0.0432061
-0.10722 0.149284 -0.172824
0.175143 0.10334 -0.321726
-0.115975 0.156622 0.0480006
0.250287 0.145821 0.097974
-0.102571 0.156622 -0.0990763
-0.263238 0.147641 0.199893
0.0432061 0.155435 0.0657086
0.226958 0.102614 -0.165228
-0.108328 0.155948 0.129305
-0.200719 0.119588 0.280874
0.0612951 0.156622 -0.0299234
0.26384 0.148426 -0.139198
0.133335 0.124847 0.367251
0.203603 0.122408 -0.27799
0.226831 0.136952 -0.0946153
-0.110759 0.145821 -0.00619751
-0.155335 0.145821 -0.266999
-0.0208353 0.145821 -0.358779
-0.226831 0.127986 0.21597
-0.189118 0.0730365 -0.35645
-0.21603 0.146873 0.205707
0.195859 0.145821 0.320766
-0.152834 0.156622 0.0502896
0.225938 -0.0101956 0.313244
-0.194427 0.151892 -0.304066
-0.198326 -0.0920695 -0.313244
0.203248 0.153753 0.332866
-0.0308765 0.156622 -0.318678
0.131912 0.103415 -0.35645
-0.191626 0.150609 0.151221
-0.15695 0.136834 0.00540064
0.167749 0.145821 0.0323687
0.173649 0.151154 0.130443
0.148636 0.103443 0.348234
-0.0459266 0.145821 -0.0953189
-0.133762 0.145821 0.00955683
-0.256868 0.156622 0.367983
-0.226831 -0.123773 0.339624
-0.25864 0.156622 0.112058
-0.257778 0.145821 0.0940764
-0.0616076 0.145821 -0.339934
0.264097 0.148966 -0.285522
-0.131708 0.156622 -0.0771035
0.006377 0.156622 -0.122126
-0.179793 0.156622 -0.0822172
-0.124828 0.156622 0.233053
0.136453 0.149288 -0.108015
0.0879191 0.145867 -0.322538
-0.158508 0.105209 -0.35645
0.232552 0.156622 -0.277748
-0.257896 0.145821 0.366865
-0.25421 0.156622 0.322673
0.116739 0.146963 0.246357
-0.226831 0.12134 -0.193441
0.0432061 0.146691 0.0348505
-0.226831 0.140637 0.265722
-0.226831 0.113059 0.331688
0.0864118 0.14829 0.141754
0.226831 0.145128 -0.252991
0.117422 0.156622 0.155445
-0.202202 0.153286 -0.208255
-0.21603 0.149385 -0.314135
-0.103031 0.150383 0.232649
0.111707 0.145821 -0.35733
-0.0432061 0.152084 0.324537
0.141816 0.149082 -0.324045
0.226831 0.143385 0.278769
-0.112813 0.145821 0.220653
0.108015 0.151907 -0.270848
0.189874 0.147626 -0.220583
-0.0468112 0.156622 -0.377241
-0.201358 0.145821 -0.0427417
-0.00232424 0.156622 0.355121
-0.00711097 0.156622 -0.255895
-0.234024 0.145821 -0.218199
-0.165938 0.145562 -0.315656
0.11772 0.156273 -0.0648092
0.21603 0.147303 -0.280539
0.15767 0.1531 0.114464
0.20553 -0.051315 -0.315944
0.228818 0.145821 -9.24319e-05
0.175842 0.145821 -0.172211
0.159798 0.156622 -0.208861
-0.0284814 0.109175 -0.00540064
-0.0477127 0.156622 0.141734
0.256496 0.156622 0.345944
0.0437319 0.156622 -0.386524
0.224676 -0.0285703 0.35645
0.177036 0.154529 -0.151221
0.115863 0.122367 -0.35645
0.0864118 0.147907 -0.0697013
-0.151379 0.151539 0.129618
-0.0612819 0.156622 0.239632
0.0916348 0.149412 -0.345648
0.0777871 0.153492 0.159846
0.0577486 0.156622 0.0590646
0.0823242 0.156622 0.206036
0.0145849 0.156622 0.185232
-0.203439 -0.0918127 0.331953
0.183212 0.156622 -0.289712
-0.00153752 0.156622 0.375929
0.12569 0.145821 0.0590625
-0.0146304 0.145821 -0.0444667
-0.226831 -0.138864 0.350296
0.103247 0.156622 0.0767325
-0.226687 0.138609 0.00540064
0.0216031 0.148841 0.0342917
0.0915677 0.145821 0.240646
-0.226831 0.12732 -0.190981
-0.20049 0.105465 -0.29638
0.0505169 0.135752 0.367251
0.116731 0.155603 0.302442
-0.123121 0.147083 0.252739
0.226831 0.116765 0.205207
-0.207921 0.156622 0.224583
-0.229787 0.156622 -0.127385
-0.124337 0.156622 -0.00117848
0.123167 0.151482 0.0799612
-0.0425892 0.150113 0.0216031
-0.0185255 0.102614 -0.0043485
0.0842669 0.156622 -0.28041
-0.190216 -0.0810114 -0.341163
0.139425 0.131671 0.367251
-0.0216031 0.156588 0.299154
-0.108015 0.154772 -0.260856
0.237597 0.145821 -0.10078
-0.0311352 0.156622 -0.277945
0.186326 0.0629593 0.329059
0.00860758 0.156622 0.225268
0.192496 0.155091 0.0451367
-0.221699 0.156622 -0.243612
-0.0669763 0.145821 -0.0720888
-0.237633 0.140004 0.0672336
0.130203 0.145821 0.131666
-0.174167 0.145821 0.0259868
0.183626 0.0677315 0.350119
0.217067 0.134559 0.35645
-0.115957 0.14986 -0.324045
-0.20175 -0.0923441 0.313244
0.18427 0.145821 0.312296
-0.14279 0.156622 0.0928486
0.186326 0.0518718 0.334309
0.140975 0.156622 -0.112619
0.136232 0.156622 0.284872
0.226831 0.111087 0.214816
-0.0511437 0.156622 0.266344
0.150814 0.156622 -0.0794725
-0.206815 -0.0260015 -0.315944
0.058665 0.125116 -0.35645
0.0339151 0.102614 0.362081
0.0446697 0.145821 -0.367239
-0.21603 -0.0334838 -0.355658
-0.062843 0.156622 0.08369
-0.146675 0.156622 -0.375919
-0.125077 0.145821 0.0379073
-0.25195 0.156622 0.243428
-0.211392 0.156622 -0.323163
-0.257353 0.145821 -0.243981
0.159773 0.156622 0.221037
0.0216031 0.147236 -0.131963
-0.226751 -0.102614 0.317559
-0.189026 -0.113036 0.326589
0.0689379 0.145821 0.382228
0.226519 0.156622 -0.170431
0.237633 0.116929 0.0311583
0.212264 0.156622 0.101852
-0.0429909 0.153815 -0.0216031
0.115951 0.146068 0.0432061
-0.194427 0.149633 0.0648421
-0.0429631 0.145821 0.0766772
0.211283 0.132326 0.313244
0.223443 -0.155378 -0.313244
-0.194703 0.0686804 0.35375
0.229018 0.102614 -0.114652
0.237633 0.129719 0.256905
0.153528 0.125588 0.328065
-0.0949174 0.145821 -0.00300117
0.179209 0.156622 0.23767
0.0980768 0.152929 0.0216031
-0.0387936 0.106947 -0.00540064
-0.157675 0.156622 -0.285744
-0.264512 0.152173 -0.130853
-0.208411 0.145821 0.320696
-0.136072 0.156622 0.340946
0.20109 0.135112 -0.280503
0.185753 0.118309 -0.367251
0.193552 -0.148051 -0.313244
0.237633 0.143839 0.208055
-0.150718 0.155778 0.391711
0.0404373 0.145821 -0.126247
-0.105386 0.156622 0.129361
-0.215367 0.147458 0.0222661
0.18592 0.145821 0.0253166
0.20913 0.156622 -0.368747
0.0901971 0.156622 -0.327284
0.198697 0.145821 -0.0651792
0.0996345 0.156622 0.156979
-0.194427 0.147318 -0.261282
0.208428 0.145821 0.158519
-0.0216031 0.153491 -0.163772
-0.22746 0.102614 0.168642
-0.0934919 0.145821 -0.139906
0.195606 0.145821 0.194137
0.21344 -0.0606609 0.315944
-0.241384 0.156622 0.340288
-0.219025 -0.0170593 0.35645
0.184547 0.156622 -0.10521
0.172824 0.147392 0.298864
-0.0136144 0.103783 -0.367251
-0.0563256 0.156622 0.0052454
-0.191904 0.136833 0.35645
-0.133406 0.145821 -0.197441
0.0698802 0.11029 -0.367251
0.209653 -0.0918127 0.337233
0.230839 0.145821 -0.257106
-0.163018 0.156622 0.016673
0.251733 0.156622 -0.126741
0.0897905 0.154608 -0.194427
0.218528 -0.0782673 -0.313244
0.0993123 0.145821 0.0273948
-0.148953 0.153729 -0.172824
0.245656 0.145821 -0.232493
0.226831 0.105984 -0.246362
-0.144928 0.156622 0.198771
0.115558 0.145821 -0.320021
0.224131 0.0744169 -0.327481
0.00136888 0.145821 -0.201017
-0.157867 0.120586 0.339003
-0.0469911 0.145821 -0.0523728
-0.237633 0.144628 0.277826
-0.172824 0.150775 -0.113527
-0.0232369 0.145821 0.10662
0.0522742 0.156622 -0.0317394
-0.0533967 0.145821 -0.120015
-0.235926 0.102614 -0.0257863
-0.0216031 0.148911 0.306368
-0.186326 0.0156888 0.338306
0.237633 0.137517 -0.252912
0.19575 0.110101 0.00540064
-0.0586685 0.145821 -0.177676
0.166441 0.156622 -0.315523
-0.09156 0.115617 -0.00540064
-0.2492 0.145821 -0.294003
-0.0865833 0.143224 0.00540064
0.175023 0.107373 -0.35645
0.108015 0.146279 -0.0681199
-0.100958 0.156622 0.0192741
-0.0920186 0.145821 -0.288165
-0.0774794 0.145821 0.141263
0.224131 0.00282446 0.341377
-0.0315612 0.156622 -0.185957
0.226735 -0.0305575 0.324045
-0.0248739 0.156622 0.278224
-0.176915 0.145821 -0.305663
0.134328 0.156622 0.23008
0.237633 0.138141 -0.0932125
-0.128752 0.153301 0.21603
0.146351 0.147628 0.0216031
0.224131 0.0819414 0.336523
-0.148779 0.147631 -0.129618
0.233538 0.156622 0.104918
-0.0310992 0.145821 -0.102106
-0.0707747 0.145821 -0.0924994
-0.0992798 0.149192 0.228898
-0.108015 0.151179 0.0817253
0.223936 0.0321626 0.313244
0.0864118 0.154771 -0.0779526
-0.19462 -0.113416 -0.342066
-0.0432061 0.153508 -0.280099
-0.106473 0.156282 0.194427
-0.234019 0.145821 -0.124877
-0.194427 0.154808 -0.270881
0.0679772 0.156622 -0.296769
0.226831 -0.143389 0.331227
0.122892 0.156622 0.258515
-0.0982286 0.156622 -0.175813
0.21603 0.150651 0.338853
-0.0112569 0.114939 -0.367251
0.0981277 0.145821 0.218915
0.18426 0.082267 0.35645
-0.0333759 0.145821 -0.0798541
-0.216882 0.145821 -0.373275
-0.00721602 0.156622 -0.247675
-0.0905857 0.128184 -0.00540064
0.195463 0.151219 -0.325081
-0.208735 0.0177661 0.315944
-0.00233556 0.145821 -0.0972548
-0.253454 0.156622 -0.351271
-0.0407709 0.156622 0.322756
0.121798 0.156622 0.128978
0.218198 0.156622 0.18083
-0.0432061 0.156197 -0.203842
-0.142896 0.156622 -0.295006
-0.209803 0.145821 0.109298
-0.135327 0.145821 0.0633784
0.0168608 0.156622 0.24213
0.183626 0.030455 0.34747
0.174305 0.145821 0.174171
-0.16091 0.145821 -0.326849
-0.0752518 0.156622 0.211743
0.120315 0.156619 0.345648
-0.217458 0.131413 0.264135
0.119127 0.152506 0.394086
0.156288 0.145821 -0.272332
0.0742802 0.156622 -0.378872
0.161371 0.145821 0.380584
-0.166511 0.145821 -0.0562206
0.000433575 0.145821 -0.365036
0.194427 0.150014 -0.262954
0.226831 0.106128 -0.338518
0.0300603 0.12681 0.367251
-0.127843 0.102614 0.358165
0.134655 0.145821 -0.0892945
0.183626 0.113562 -0.349641
0.250725 0.145821 -0.0492047
0.0644318 0.145821 0.195502
-0.20672 0.145821 -0.133257
-0.23321 0.145821 0.159734
-0.162318 0.156622 0.341189
0.00854105 0.145821 0.359315
0.0345268 0.13842 -0.00540064
-0.157984 0.113945 -0.00540064
0.0324668 0.145821 0.228945
0.0854619 0.131581 0.00540064
-0.237633 0.130565 -0.314582
-0.172824 0.154879 -0.287422
0.217937 -0.0951533 -0.35645
-0.207365 0.145821 0.183551
0.208 0.121612 0.288869
-0.0351129 0.145821 -0.386397
0.0757116 0.156622 0.101124
0.226831 -0.0201515 -0.347642
0.0347616 0.15428 0.172824
0.0300676 0.156622 -0.379619
0.12596 0.145821 -0.367221
-0.0969494 0.156622 -0.274038
-0.186326 0.0571575 0.326092
-0.173193 0.145821 -0.221137
0.139712 0.156622 -0.316204
-0.159183 0.118702 0.337687
-0.0611453 0.153213 0.0216031
0.0683907 0.156622 -0.0268736
0.17675 0.145821 0.272484
0.0932805 0.156622 -0.0518567
0.258703 0.145821 0.305707
0.226831 0.121126 -0.276452
-0.148324 0.145821 -0.258702
-0.172824 0.148704 0.110683
0.157002 0.154652 0.172824
-0.219675 -0.113416 0.335408
-0.151221 0.154786 0.272433
0.092554 0.114283 0.00540064
0.197505 -0.0149377 -0.315944
-0.0430368 0.14702 0.194427
-0.117588 0.145821 0.302732
-0.0565833 0.145821 0.216152
0.172694 0.155363 -0.302442
-0.020309 0.156622 -0.0397071
-0.200515 0.145821 -0.139061
0.200959 0.145821 0.339073
0.0145066 0.145821 0.154613
-0.247493 0.145821 -0.082074
0.169506 0.156622 -0.127844
0.0355368 0.156622 0.155972
0.0948436 0.156622 0.224614
0.201113 0.154604 0.209344
-0.110088 0.145821 -0.134877
-0.193687 0.145821 0.363459
0.183626 0.0274992 0.347027
-0.133197 0.156622 -0.327958
-0.128388 0.148478 0.258006
-0.005053 0.156622 0.179472
-0.18756 0.156622 0.351666
-0.151936 0.155835 0.0216031
-0.212998 0.145821 -0.270684
-0.108015 0.154373 -0.283315
-0.0876228 0.156622 0.0962985
0.200416 -0.156622 0.323781
-0.0962545 0.146395 -0.194427
0.0865676 0.156622 -0.204813
0.195853 -0.105265 0.351049
-0.0204663 0.141223 -0.367251
0.197113 0.102614 0.293077
0.0593714 0.145821 0.224035
0.193047 0.156622 0.141413
-0.129618 0.154546 -0.264594
0.226831 0.11302 -0.213436
0.0432061 0.14733 -0.145641
0.199472 0.145821 0.0347016
-0.0980746 0.145821 -0.280474
0.0789129 0.145821 0.153291
-0.16176 0.145821 -0.363101
-0.118682 0.156622 0.195436
-0.194573 0.0411036 -0.315944
0.0648092 0.15622 -0.288986
0.0648092 0.150354 -0.0307541
-0.170024 0.110376 -0.311569
-0.183564 0.145821 -0.049073
-0.0864123 0.149923 -0.320325
0.0216031 0.148953 0.0846347
0.203858 0.0990391 -0.35645
-0.143666 0.137157 0.35645
-0.0011692 0.156622 0.172435
-0.186326 -0.0439216 0.325704
-0.183626 0.0569289 0.35308
-0.204693 0.156622 -0.133068
-0.183626 -0.0742183 0.31672
-0.17022 0.156622 0.348193
-0.199042 0.145821 0.166305
-0.194592 0.02609 -0.35375
-0.112176 0.144114 -0.367251
-0.237633 0.122821 -0.105847
0.0447306 0.145821 0.379906
-0.21311 0.145821 0.0813759
0.15658 0.156622 0.371443
0.0935073 0.152837 0.0503015
0.218177 0.0442699 0.313244
0.140042 0.129026 -0.341552
-0.196225 -0.143016 -0.313244
0.0432061 0.153533 -0.169448
-0.197338 0.145821 -0.0428605
-0.222604 0.135019 -0.109335
0.204427 0.131016 -0.367251
-0.149488 0.152433 -0.151221
-0.258413 0.145821 -0.339505
0.168463 0.146145 -0.21603
0.205881 0.145821 -0.0945397
-0.264446 0.152637 -0.175717
0.190745 0.156622 -0.125077
0.070203 0.112998 -0.35645
0.0302869 0.156622 0.00306936
0.195738 -0.102614 0.338115
0.237633 0.112879 -0.0183489
0.216634 0.156622 -0.275295
0.181904 0.141045 -0.367251
-0.234585 0.145821 0.351275
0.186326 -0.0402213 -0.335132
0.182636 0.155011 0.227821
0.00735791 0.156622 0.272286
-0.186326 0.0876053 0.328407
-0.0432061 0.146081 0.070808
-0.237633 0.109791 0.0475138
-0.0875034 0.128762 -0.367251
-0.225752 0.118213 -0.313244
0.203763 0.156622 -0.173464
-0.0184575 0.156622 -0.131398
-0.182625 0.145821 -0.335486
-0.106847 0.145821 0.103502
-0.130334 0.153929 -0.21603
0.106219 0.113575 -0.00540064
-0.183626 0.135423 -0.32233
0.224413 -0.119746 -0.35645
0.060575 0.156622 0.305027
-0.0983074 0.145821 -0.0873224
-0.185257 -0.0696855 -0.313244
-0.183626 -0.0309031 -0.355647
-0.233077 0.145821 0.324386
-0.154636 0.156622 0.184969
0.081338 0.156622 0.237789
0.223179 0.145821 -0.139323
-0.162975 0.145821 0.158679
0.231244 0.145821 -0.164634
0.196425 -0.0918127 0.328363
-0.231154 0.145821 -0.355462
0.112671 0.146744 -0.391816
-0.159301 0.1435 -0.322293
0.199524 0.145821 0.0027527
-0.189026 -0.0910441 0.329835
-0.245514 0.145821 0.00459185
0.0411678 0.145821 -0.030946
0.179729 0.156622 0.322075
0.200607 0.156622 0.382666
-0.131728 0.145821 -0.339421
0.101232 0.145821 -0.10683
0.19438 0.0219502 0.35645
-0.246455 0.145821 -0.318651
-0.264615 0.151051 0.240608
0.138861 0.156622 -0.031085
-0.0831814 0.145821 0.231451
-0.216193 0.145821 0.339792
0.076906 0.156622 0.248304
0.224131 0.00666318 -0.329328
-0.108015 0.155145 -0.0806366
0.231267 0.156622 0.320407
-0.119825 0.156622 -0.344392
0.165543 0.145821 -0.225412
-0.0369633 0.110533 0.367251
0.206093 -0.0702096 -0.31441
-0.220772 0.145821 0.130787
0.0514593 0.154651 0.194427
0.223434 -0.121725 0.35645
-0.125577 0.156622 -0.202984
-0.183626 -0.072362 -0.336723
-0.0320798 0.156622 -0.242119
0.209314 0.0481399 -0.315944
-0.227385 0.121366 -0.367251
-0.0995798 0.145821 -0.0671242
0.104113 0.135184 -0.00540064
-0.0948268 0.145821 0.211687
-0.21603 0.152197 -0.307567
0.0648208 0.156622 0.163253
0.237633 0.131948 -0.226879
-0.174385 0.156622 -0.0805331
-0.176209 0.12169 -0.00540064
-0.214847 0.156622 0.131234
0.0864118 0.146553 -0.30618
-0.166749 0.145821 -0.285227
-0.220474 0.145821 -0.242521
-0.212898 0.145821 -0.340815
0.248053 0.156622 0.244764
0.18158 0.156622 0.0221967
0.0530558 0.156622 0.0958115
-0.00466073 0.145821 -0.224047
-0.199433 0.145821 -0.328722
-0.152762 0.145821 -0.0862244
0.117166 0.145821 0.271183
0.148263 0.149566 0.151221
-0.237633 0.129169 0.0961533
0.193105 -0.0754077 -0.313244
0.00914375 0.111565 0.35645
0.196173 -0.0810114 0.338076
0.263171 0.154889 0.0654389
0.0691235 0.145821 -0.13926
0.184829 -0.0505759 0.345648
0.128702 0.145821 -0.047793
0.255389 0.156622 -0.199088
-0.0674904 0.148765 0.172824
-0.257564 0.145821 0.202148
-0.172824 0.152468 0.288871
0.224131 0.0382073 -0.33151
-0.229718 0.156622 -0.328681
-0.0616653 0.156622 0.260958
-0.158479 0.145821 -0.277191
0.0705237 0.14849 0.345648
-0.167824 0.156622 -0.284674
-0.123667 0.145821 -0.386339
-0.22298 -0.156622 -0.336435
0.0915065 0.155903 0.146126
-0.264192 0.149194 -0.33073
-0.113577 0.156622 -0.128908
-0.0136397 0.145821 -0.295732
0.172824 0.151831 0.271996
-0.0129957 0.156622 -0.212332
-0.198605 0.143044 0.282989
0.0432061 0.147294 0.251639
-0.226831 0.133812 -0.327871
-0.0973104 0.153778 -0.194427
-0.126385 0.145821 -0.00375501
0.0228445 0.153739 -0.0216031
-0.226831 0.113773 -0.198751
-0.231185 0.102614 -0.342259
-0.0368349 0.145821 -0.323639
-0.149316 0.140316 0.347554
0.186326 -0.0347615 -0.329819
-0.0833491 0.145821 0.0354007
-0.237633 0.139369 0.296036
-0.093554 0.145821 -0.0934148
-0.0658079 0.14599 -0.0226018
0.22207 0.135019 -0.113214
0.0764912 0.156622 -0.376656
0.173103 0.156622 0.30953
0.0648092 0.151384 0.0607532
-0.113884 0.156622 -0.368474
0.226789 0.145821 -0.323101
-0.210576 -0.0532842 0.315944
-0.0216031 0.154469 -0.209109
-0.146718 0.153712 -0.324045
-0.235126 0.102614 0.0335795
-0.0754498 0.102614 0.00200253
0.17279 0.151311 0.237667
0.193005 0.140256 0.288589
0.131152 0.145821 -0.100217
-0.226831 0.105957 -0.189506
0.127531 0.132223 -0.35645
-0.0446722 0.145821 0.0833289
0.0840851 0.145821 -0.0706273
0.222679 0.113226 0.367251
0.240207 0.156622 -0.0966858
-0.116368 0.145821 0.27809
-0.0928724 0.156622 0.188161
0.255956 0.145821 0.314559
0.106498 0.152907 -0.0632925
-0.191029 -0.00597282 0.35645
0.06402 0.145821 0.212444
-0.226831 0.133054 0.269448
-0.256563 0.156622 -0.111021
-0.194305 0.0907829 0.35645
-0.194427 0.153853 -0.0511649
0.250556 0.156469 -0.390014
-0.141259 0.125114 0.367251
-0.0432061 0.146231 0.16077
0.21603 0.151696 0.14809
-0.226831 0.113418 -0.217049
-0.124649 0.105538 -0.00540064
-0.0850163 0.156622 -0.0551996
-0.183626 0.0542531 0.322375
0.0648092 0.147086 -0.0775318
-0.114388 0.156622 -0.11039
0.0864118 0.153968 0.280446
-0.0960059 0.156622 -0.313443
0.0176505 0.156622 0.0214445
-0.226831 -0.121818 0.326474
0.0708636 0.112519 -0.00540064
-0.032086 0.154203 -0.345648
0.0722727 0.145821 0.114215
-0.111196 0.151873 -0.0679906
-0.077135 0.156622 -0.286455
0.120089 0.145821 0.0923776
0.182213 0.106341 -0.314656
-0.0380432 0.145821 -0.100623
-0.175743 0.156622 -0.165416
-0.108432 0.148333 -0.129201
-0.244075 0.145821 -0.0443215
0.186779 0.156622 0.142233
0.190794 0.156622 -0.1636
0.252073 0.145821 -0.36015
-0.151225 0.156217 0.151221
-0.227428 0.122185 -0.357047
0.13215 0.151798 0.345648
0.194788 0.145821 -0.254172
-0.237633 0.124526 -0.0540406
-0.00172674 0.156622 -0.0690786
0.0216031 0.148754 0.236262
-0.142253 0.117607 0.00540064
-0.196007 0.145821 -0.355924
-0.199564 0.145821 -0.0318196
-0.20488 0.0181719 0.315944
0.0216031 0.152493 -0.170178
0.223572 0.098666 -0.35645
-0.140334 0.156622 0.105519
-0.0906719 0.156622 0.0399268
-0.230744 0.129373 0.367251
0.217209 0.102614 -0.363542
-0.0942267 0.117895 -0.35645
-0.128546 0.156622 -0.055875
0.0648092 0.156458 -0.0770774
0.149493 0.156622 -0.212405
-0.174712 0.156622 -0.111793
-0.234044 0.145821 -0.24719
-0.121793 0.156622 0.234593
0.237633 0.112257 -0.117036
0.019592 0.10558 0.00540064
0.149618 0.121544 -0.00540064
-0.237633 0.14178 0.175131
0.232437 0.156622 0.124654
-0.201347 0.145821 0.340883
-0.0901795 0.139704 0.367251
-0.141895 0.145821 0.363771
0.237633 0.123558 -0.0997355
0.210574 0.145821 -0.20803
0.226831 0.136628 -0.00917165
0.146316 0.145044 -0.335278
-0.180143 0.156622 -0.377715
0.21603 0.143541 0.0976381
0.0171153 0.145821 0.0950897
-0.237002 0.145821 0.177567
0.0739243 0.145821 -0.208185
-0.212353 -0.00901688 -0.315944
0.00646235 0.156622 0.343187
0.179631 0.145821 -0.253775
0.00604836 0.156622 0.114634
-0.0941728 0.129138 -0.367251
0.192704 0.148517 -0.393528
0.0864118 0.152944 0.0747729
0.116177 0.145821 -0.123896
-0.0432061 0.154912 0.0996551
-0.228427 0.11412 -0.358045
0.234486 0.156622 0.083954
-0.148635 0.145821 -0.0287514
0.2129 0.145821 -0.0477806
-0.248275 0.156622 -0.305103
-0.264559 0.151815 0.115964
0.0977338 0.145821 0.275036
-0.11939 0.155639 0.302442
-0.237633 0.138202 -0.0266018
-0.224131 -0.00931668 0.345199
0.141617 0.145821 -0.262292
0.0216031 0.152315 -0.202057
0.21603 0.0361668 0.355858
0.136138 0.156462 0.259236
-0.201226 0.142306 -0.295643
-0.15404 0.145821 0.266658
0.223855 0.140008 0.257738
-0.145939 0.108909 0.350931
0.219318 0.156622 -0.185202
-0.00585261 0.156622 -0.180298
0.114705 0.145821 0.361835
-0.172785 0.145821 -0.294089
0.172824 0.151884 -0.103283
0.00171385 0.145821 -0.366327
-0.0529034 0.148639 0.194427
0.0421209 0.145821 -0.161837
0.212201 -0.0810114 -0.320087
-0.158333 0.145956 -0.0793001
0.114026 0.156622 0.225356
-0.127983 0.145821 0.11031
0.188758 0.145821 -0.0973718
-0.128024 0.156622 0.164273
0.22705 0.156622 -0.347324
0.171335 0.155275 -0.0662987
0.21603 0.146374 -0.249115
0.0895713 0.148352 0.320886
-0.169067 0.156622 0.326686
-0.0432061 0.1549 0.28368
-0.0490352 0.145821 0.145712
-0.219305 0.145821 0.0422651
0.252146 0.145821 -0.250749
0.193297 0.145821 -0.301715
0.0966601 0.145821 -0.0107316
0.189938 0.145821 0.0865074
0.161523 0.145821 0.322044
0.237633 0.117134 0.239154
0.0792662 0.145821 -0.37434
0.0084582 0.156234 0.345648
0.125439 0.156622 -0.364204
0.226831 0.129661 0.164783
0.146016 0.155545 0.392015
0.21603 0.149276 0.292443
-0.124055 0.152283 0.394115
0.176545 0.121387 0.00540064
0.125933 0.145821 -0.323215
-0.13694 0.156622 0.0405338
0.0778648 0.145821 -0.137621
-0.198244 0.156622 -0.363818
-0.200236 0.129748 -0.367251
-0.0611902 0.102614 0.00225258
0.075648 0.147134 0.172824
-0.184389 -0.00627935 0.313244
0.109321 0.148397 0.0648092
-0.226831 -0.00313402 0.318963
0.0661008 0.156622 -0.342982
-0.0882528 0.145821 -0.198966
0.00251671 0.145821 -0.293168
-0.0598426 0.145821 0.10384
-0.0719647 0.156622 -0.318589
0.191409 0.145821 0.131033
-0.0864123 0.146996 -0.307591
-0.186326 -0.0105082 -0.345025
0.0216031 0.149958 -0.20603
-0.189026 -0.0917393 0.349981
0.255154 0.156622 -0.215411
-0.237633 0.141781 0.190112
-0.253703 0.156622 -0.251472
-0.180811 0.145821 0.331577
0.254294 0.145821 0.190419
-0.0123643 0.145821 -0.248116
0.125555 0.145821 -0.262483
0.0216031 0.151085 0.10065
-0.147845 0.145821 0.181911
0.189302 0.156622 -0.120689
-0.108015 0.14647 0.259366
-0.0788027 0.145821 0.0934872
0.239666 0.156622 -0.23622
0.0648092 0.152296 0.210469
-0.218373 0.145821 0.0120174
-0.183626 -0.0764647 -0.313625
-0.129618 0.15184 -0.28082
0.238328 0.156622 0.232731
-0.216623 0.156622 -0.301919
0.109391 0.145821 -0.112457
0.243888 0.156622 -0.0578457
-0.227456 0.145821 -0.0186419
0.00371596 0.156622 0.329429
-0.183626 0.0122892 0.35346
0.0864118 0.152762 0.0467088
-0.0864123 0.154397 0.143145
-0.046693 0.156622 -0.0363066
-0.0648092 0.154984 -0.0352113
-0.202469 -0.156622 -0.343289
-0.193434 -0.00715131 -0.313244
0.21603 0.15587 0.0445534
0.104515 0.156622 0.272146
-0.0965995 0.145821 -0.268423
0.237633 0.141755 -0.0483639
-0.187628 0.0637275 0.35645
-0.194427 -0.0436535 -0.355188
-0.226831 0.13712 0.114743
-0.0432061 0.155478 0.12744
0.226831 0.124001 0.115185
-0.0285106 0.102614 -0.00254217
0.0942857 0.156622 -0.168665
-0.0674309 0.145821 -0.0832877
0.186765 -0.072548 0.313244
-0.182558 0.153964 0.227899
-0.112244 0.146057 0.129618
0.226831 0.117008 0.273722
0.220762 0.121522 -0.260831
-0.232235 0.119213 0.367251
0.15356 0.154562 0.21603
0.137827 0.109875 0.35645
0.124856 0.151807 0.0432061
-0.21603 0.0174276 -0.313503
-0.0954544 0.156622 0.0186428
0.158535 0.156622 -0.374806
-0.0720386 0.156622 0.183536
0.237633 0.110204 -0.360584
0.129618 0.150661 0.273374
-0.172037 0.145821 0.0837949
-0.128957 0.156622 0.135559
0.195832 -0.102614 0.341073
0.187802 0.0255679 0.35645
-0.129659 0.156622 0.00597565
-0.077623 0.156622 -0.325186
-0.122326 0.155595 0.302442
-0.224131 0.0286987 0.335583
-0.200626 0.1241 -0.280967
-0.143612 0.129134 0.337982
-0.201839 0.151811 -0.208618
0.237633 0.128566 -0.119672
0.0649847 0.145821 0.0772699
0.0432061 0.15387 0.122654
0.210011 0.109135 -0.286858
-0.0206282 0.156622 0.228124
0.237633 0.113449 0.304652
-0.225143 0.061497 0.345648
-0.1617 0.156622 0.355202
0.149875 0.145821 -0.363417
-0.172374 0.156622 0.336824
-0.15447 0.105996 0.367251
0.227715 0.156622 -0.335642
-0.264586 0.151609 0.156453
0.136829 0.11505 -0.00540064
-0.226831 0.113512 -0.148731
0.253128 0.156622 -0.0274754
0.0864118 0.153151 0.287746
-0.226831 0.121363 -0.00577524
-0.177669 0.145821 -0.19353
-0.229235 0.145821 -0.210445
-0.0432061 0.151748 -0.0484956
0.0522219 0.145821 -0.13517
-0.23529 0.102614 -0.0186969
0.156058 0.116308 -0.325535
-0.197561 -0.0721132 0.35645
-0.151221 0.156276 -0.276072
-0.0507454 0.156622 0.276051
-0.2248 -0.000441488 -0.345648
0.197629 0.118046 -0.29924
-0.121086 0.147225 -0.129618
-0.00806271 0.145404 -0.35645
-0.185605 0.156088 -0.315223
0.181778 0.10884 0.367251
0.0391296 0.145821 -0.00834824
-0.194324 0.121222 0.287269
-0.174018 0.156622 0.167681
0.226831 0.106672 0.167649
0.0942066 0.145821 -0.0993238
-0.156537 0.145821 0.0616855
-0.23032 0.102614 0.323944
-0.20019 0.127133 0.35645
-0.118745 0.145821 0.139251
0.0564696 0.156622 0.136958
0.13184 0.103604 -0.00540064
0.214974 0.156622 -0.274833
0.197268 -0.0637674 0.35375
-0.224927 0.156622 -0.0462922
0.184907 0.0140779 0.324045
0.112426 0.150759 0.129618
0.194427 0.150119 -0.0468994
-0.194427 0.156482 -0.286596
-0.21603 0.148392 0.246039
-0.164987 0.121327 0.367251
-0.0690039 0.156622 -0.37631
0.0741426 0.145821 0.0665925
0.212107 -0.0019356 -0.35375
-0.226831 0.144051 0.301448
-0.0553309 0.156622 -0.189651
0.217705 -0.0918127 -0.322816
-0.226831 0.145005 0.0959269
-0.208247 0.145821 -0.277412
-0.0729743 0.156622 -0.218456
-0.21067 0.146718 0.391781
-0.237633 0.123635 0.0191184
-0.211528 0.145821 -0.165804
0.151221 0.148869 0.106223
0.00428867 0.105321 -0.00540064
0.192102 0.156622 0.234686
0.116792 0.152679 -0.0216031
-0.128846 0.156622 -0.0194006
-0.0151115 0.156622 0.34945
-0.0988965 0.145821 0.19971
0.234192 0.145821 -0.282828
0.0447454 0.145821 -0.287945
-0.109937 0.145821 -0.0171668
0.202978 -0.0377771 0.315944
0.0109217 0.156622 0.385028
-0.148651 0.118915 -0.332942
-0.216397 0.145821 0.17938
0.112552 0.149152 -0.172824
0.121652 0.156622 0.254197
0.117299 0.146128 -0.21603
-0.169431 0.147905 0.0216031
0.245812 0.156622 0.0232341
-0.226831 0.1273 -0.326705
0.203953 0.103699 0.292916
0.0830883 0.156622 0.172677
0.260427 0.145977 0.189116
-0.206989 -0.113416 0.327074
0.112088 0.143256 0.35645
-0.185107 0.130478 0.313244
0.0377792 0.156622 -0.0153935
-0.174386 0.151151 0.345648
-0.0940433 0.15094 0.223661
-0.226831 0.124267 0.325334
0.242273 0.145821 0.0130028
-0.163999 0.102614 0.362651
-0.207715 0.117859 0.35645
0.2355 0.156622 -0.353068
-0.203716 -0.111134 0.351049
-0.186919 0.153045 -0.223538
0.261823 0.146497 0.265025
-0.224735 0.112166 -0.00540064
0.159388 0.145821 -0.187489
0.198739 -0.156622 0.337592
-0.039564 0.156622 0.0601338
0.226831 0.11516 -0.00483177
-0.251505 0.156622 0.212367
-0.220721 0.145821 0.0948813
-0.0432061 0.156044 0.24015
-0.183626 -0.0579321 0.355438
0.225898 0.156622 0.24602
0.0501428 0.137331 0.35645
0.152671 0.142298 0.367251
0.224131 -0.0121649 0.337492
0.0419493 0.156622 0.0101402
-0.0122018 0.156622 -0.253814
0.19622 0.133753 -0.313244
0.0864118 0.150556 0.216903
-0.220393 0.125154 -0.313244
-0.224131 0.0832213 0.342302
-0.0321779 0.145821 -0.235069
-0.172893 0.145821 0.255901
0.159862 0.145821 0.360622
-0.200694 -0.111365 -0.318644
0.11029 0.1497 0.237633
-0.12149 0.145821 -0.00342773
-0.0712107 0.156622 0.222676
-0.226831 0.111102 0.0891993
0.204116 0.145821 0.191197
0.159239 0.156622 -0.136045
0.104498 0.147237 -0.234116
-0.108813 0.142701 -0.35645
0.155501 0.129803 -0.35645
0.224131 -0.00246909 0.334109
0.0740286 0.145821 0.0951408
-0.0795844 0.156104 0.330873
-0.205388 0.0174841 -0.35375
0.158194 0.150133 -0.194427
-0.18348 0.13938 0.298114
-0.221551 0.145821 -0.0523141
0.21603 0.148145 -0.127994
0.235196 0.141096 0.364814
0.226831 -0.131766 0.320124
-0.204979 -0.0918127 0.355422
-0.197173 -0.155371 -0.35645
-0.245408 0.156622 -0.317397
0.246564 0.145821 0.276683
-0.0713162 0.145821 -0.00262133
0.0546667 0.156622 0.235938
-0.183626 0.0523928 0.350893
0.0917752 0.145821 -0.0470529
0.139536 0.145821 0.278941
0.227248 0.145821 0.0248443
-0.212497 0.129839 0.35645
-0.0432061 0.147166 0.310521
-0.0924906 0.145821 -0.32034
-0.108015 0.15076 -0.0765499
0.0970525 0.156622 -0.38763
0.0687365 0.153039 -0.341721
-0.198614 0.14483 -0.28298
0.0864118 0.148532 0.243595
-0.0686342 0.156622 0.213954
0.237633 0.109787 -0.114719
0.188055 0.102614 0.363852
0.0299752 0.145821 -0.27988
-0.261661 0.156012 -0.091347
-0.0715407 0.156622 0.0259249
0.21603 0.1388 0.102039
-0.183626 0.11639 0.318384
0.21603 0.152996 0.209718
0.0986899 0.156622 0.0633595
0.202482 -0.0207735 0.315944
-0.183626 -0.000330854 -0.319489
-0.0712662 0.156622 -0.065306
-0.139456 0.119476 -0.00540064
0.0623888 0.109494 -0.35645
0.107259 0.149775 0.21603
-0.210828 0.156622 0.0692403
-0.117608 0.153654 -0.0432061
0.0648092 0.147935 -0.0730565
-0.237633 0.132402 -0.152841
-0.0381152 0.156622 -0.135851
0.244948 0.153762 0.393597
0.21603 0.156078 0.0995766
0.210628 0.156622 -0.0640554
0.106784 0.145821 0.0520858
0.194427 0.155075 -0.148121
-0.230725 0.145821 0.104173
0.237633 0.103547 0.0820075
0.0165545 0.155511 -0.172824
-0.194427 0.146549 0.28985
-0.0404797 0.145821 0.32003
0.222584 0.144123 0.313244
-0.237633 0.113425 0.3212
0.207231 -0.11493 -0.35645
-0.256252 0.156622 0.0220529
0.0692265 0.156622 -0.0484398
-0.164194 0.150439 0.172824
0.193252 0.156622 -0.369022
0.21603 0.156332 -0.0612756
-0.134534 0.156622 -0.323508
0.164055 0.145821 0.207442
-0.0985668 0.156622 -0.344246
-0.0929015 0.153841 -0.222519
-0.0238618 0.145821 -0.231928
-0.189596 -0.0810114 0.337672
0.143736 0.156622 -0.163928
0.0432061 0.152843 0.0838028
0.226831 0.140929 0.127035
-0.112554 0.156622 0.227964
0.164269 0.145821 0.329621
0.221431 -0.10521 -0.331783
0.264226 0.153167 0.00485925
-0.0648092 0.155925 0.0826686
-0.0904206 0.156622 0.284953
-0.0216031 0.149352 -0.28167
-0.187497 0.150474 0.050136
-0.161715 0.145821 0.188829
0.176525 0.145821 -0.374315
-0.214336 0.0715409 -0.35375
0.0174497 0.155708 0.0216031
0.243808 0.145821 -0.214482
-0.172851 0.145821 -0.181229
0.118697 0.156622 0.0935131
-0.0432061 0.154933 0.215028
-0.0267316 0.156622 -0.186877
-0.233767 0.145821 0.283602
-0.172824 0.153205 -0.260894
-0.21603 0.152886 -0.0425415
-0.214301 0.156622 0.0590538
-0.207383 0.105045 0.274211
-0.108015 0.147589 -0.113252
0.206786 0.125497 -0.313244
0.200747 0.143243 0.35645
0.0593353 0.145821 0.0988969
0.19374 0.145821 0.237925
0.151237 0.156622 -0.285231
0.0746486 0.156009 0.0216031
-0.226831 -0.12001 -0.32794
-0.262408 0.146905 0.185696
-0.050819 0.156622 0.0532986
0.0864118 0.151742 -0.27394
0.165263 0.145821 0.287214
0.0282596 0.156622 -0.0796312
0.089647 0.145821 -0.159352
0.207022 0.145821 0.149143
-0.141933 0.102614 -0.363597
0.226831 0.130905 -0.00552661
-0.188353 0.0541514 0.35645
0.194427 0.15402 -0.272093
0.263501 0.154458 0.170274
0.186326 0.0603769 -0.337103
0.0164237 0.156622 0.303626
-0.0910181 0.151444 -0.394226
0.189869 0.156622 0.258197
0.255634 0.156622 -0.316178
0.186326 -0.0140275 0.333156
0.156329 0.150654 -0.254128
0.154732 0.156462 -0.390074
0.190533 0.130102 -0.367251
-0.12756 0.156622 -0.160698
-0.0483458 0.156622 -0.0499585
-0.0523181 0.145821 0.281486
0.194427 0.147728 -0.299783
-0.186639 0.142151 -0.35645
-0.151431 0.156622 0.284226
0.108015 0.154088 0.0934752
-0.226831 -0.126884 -0.344487
0.261822 0.146496 0.176034
0.148157 0.115638 0.35645
0.194427 0.149975 -0.0486664
-0.18514 -0.0810114 0.315183
0.0663737 0.148083 -0.345648
-0.260472 0.156459 -0.329633
0.208678 0.0944327 0.313244
0.180248 0.145821 0.209642
-0.136101 0.145821 -0.203283
0.237633 0.1189 0.0922156
-0.0674376 0.15027 -0.34302
-0.222145 0.107842 0.00540064
-0.0365262 0.156622 -0.0784676
0.183626 -0.0355251 -0.353951
0.184171 0.145821 -0.340714
-0.219253 -0.0810114 -0.329336
-0.220849 -0.0985416 0.35645
-0.0344465 0.156622 -0.150492
0.168067 0.156622 -0.317639
0.217138 0.145821 0.359796
-0.0958529 0.156622 0.226703
0.171117 0.145821 -0.0805141
0.197697 0.156622 -0.0322699
-0.207286 0.00706132 0.35375
-0.118998 0.156622 -0.202174
-0.186326 -0.0514271 -0.325777
-0.262768 0.147182 -0.385691
0.183626 -0.113827 0.35542
-0.0156258 0.145821 0.176282
-0.183626 -0.153623 0.321856
-0.0279908 0.156622 0.174208
-0.0318009 0.145821 0.0556486
0.237633 0.102719 -0.340524
-0.220257 0.156622 -0.249644
0.0345431 0.156622 -0.306543
0.226831 0.119484 -0.213069
0.082583 0.145821 -0.16079
0.108446 0.1555 -0.129187
-0.0648092 0.15064 0.07683
-0.21603 0.153039 0.299651
-0.0428063 0.145821 -0.258168
0.207451 0.145821 -0.204373
0.230757 0.145821 -0.336612
0.226831 0.143758 0.334869
-0.180485 0.156622 -0.00362772
-0.156441 0.152935 0.21603
-0.112639 0.107041 0.35645
0.0915223 0.156622 -0.166603
-0.0841103 0.145821 -0.335815
0.0216031 0.155619 -0.0440714
-0.237633 0.132945 0.0666256
0.016923 0.156622 0.228996
0.172824 0.147015 0.0791433
0.237633 0.141298 -0.283232
0.1597 0.150813 -0.0648092
-0.12446 0.131249 0.35645
0.237633 0.112911 0.151944
-0.226831 0.136315 -0.226449
0.211949 0.145831 -0.0216031
-0.155591 0.150101 -0.324045
0.221857 0.156622 -0.129094
0.0371708 0.156622 -0.217445
-0.194427 0.15193 0.26925
0.20089 0.156622 0.163015
0.077148 0.145821 -0.361205
-0.158156 0.154379 -0.287774
-0.0648092 0.146863 0.0616294
0.183626 -0.0144591 -0.349912
0.214113 0.145821 -0.236
0.21603 0.148032 -0.25381
0.175352 0.152708 -0.0622812
0.23882 0.154178 -0.393334
-0.123263 0.145821 -0.239287
-0.128186 0.150835 -0.0216031
-0.0638436 0.156622 -0.327295
-0.232553 0.156568 -0.389264
-0.1683 0.156622 -0.223863
0.258448 0.156622 -0.0708623
0.0648092 0.155481 0.344924
-0.0371019 0.156622 -0.275071
-0.0648092 0.151849 0.309473
0.236134 0.156622 0.184567
-0.171872 0.145821 0.0085697
-0.185828 0.150785 0.051805
-0.0274837 0.145821 -0.344136
-0.230456 0.128293 0.360075
0.137439 0.102614 -0.0014539
0.11231 0.156622 -0.0193848
-0.256317 0.156622 0.289576
-0.185744 0.102614 -0.301404
-0.174732 0.145821 -0.10316
0.135351 0.153831 0.237633
0.224652 0.102614 0.358619
0.183626 -0.072941 0.319626
-0.257796 0.156622 -0.0951407
0.0363492 0.152581 0.0216031
-0.0889567 0.143167 -0.367251
-0.173224 0.145821 0.336369
0.00883758 0.145821 0.227737
-0.190845 0.145821 0.0890237
0.200243 0.153948 0.194427
0.0839733 0.145821 0.0732008
-0.0036987 0.145821 -0.202441
-0.225386 0.145821 -0.0992594
0.143543 0.156622 0.162904
-0.137462 0.156622 0.146173
-0.154654 0.148885 -0.0648092
-0.0626594 0.145821 -0.18421
0.0731106 0.145821 0.308122
0.226831 0.118267 -0.355516
-0.0236124 0.156622 0.157193
-0.158736 0.156622 0.304334
0.144133 0.156622 -0.223883
