ply
format ascii 1.0
comment Created by Open3D
element vertex 936
property double x
property double y
property double z
end_header
0.13532 -0.185334 -0.43352
0.124568 -0.184897 -0.444574
0.135326 -0.167495 -0.430265
0.124568 -0.156048 -0.444574
-0.111932 -0.185533 -0.436463
-0.111911 -0.184486 -0.4229
-0.133324 -0.183767 -0.444971
0.135303 -0.147047 -0.443157
0.135338 -0.147388 -0.423687
-0.111937 -0.166026 -0.439805
0.124568 -0.135067 -0.444574
-0.133324 -0.164591 -0.444971
0.13532 -0.127499 -0.43352
-0.111911 -0.15561 -0.4229
-0.111932 -0.147475 -0.436463
0.124568 -0.116708 -0.444574
-0.111911 -0.136359 -0.4229
-0.120864 -0.134651 -0.444951
0.094174 -0.111644 -0.444619
0.110654 -0.112721 -0.397061
0.135332 -0.107189 -0.426987
0.0668498 -0.111414 -0.444661
0.110692 -0.112634 -0.371998
0.0431189 -0.110747 -0.444698
0.0234686 -0.112472 -0.444728
0.110733 -0.112544 -0.345675
0.107389 -0.102443 -0.444599
0.00319654 -0.11136 -0.444759
0.110781 -0.112864 -0.313922
0.110763 -0.111625 -0.326047
-0.0177277 -0.110212 -0.444792
-0.0393358 -0.112013 -0.444825
0.136656 -0.182478 0.436693
0.12296 -0.181953 0.420234
0.110826 -0.112774 -0.284557
-0.0616621 -0.110838 -0.44486
0.110874 -0.112679 -0.253587
-0.0847428 -0.109622 -0.444895
-0.0965781 -0.110556 -0.444914
0.110924 -0.112579 -0.220878
-0.110606 -0.185118 0.427826
0.110954 -0.111098 -0.20135
0.135309 -0.0874784 -0.439966
0.094174 -0.0901224 -0.444619
0.0668498 -0.0921573 -0.444661
-0.127067 -0.106598 -0.444961
0.136656 -0.16248 0.436693
0.12296 -0.162013 0.420234
-0.131569 -0.180392 0.419734
0.110727 -0.0946643 -0.349516
0.110681 -0.0920289 -0.379284
0.135344 -0.0866021 -0.420365
0.0431189 -0.0911208 -0.444698
-0.110606 -0.174066 0.427826
0.0747591 -0.0881487 -0.420822
0.0234686 -0.0896931 -0.444728
0.00319654 -0.0911127 -0.444759
0.110794 -0.0924803 -0.305688
0.110757 -0.0904578 -0.33003
0.0458461 -0.0873577 -0.4203
-0.0177277 -0.0896389 -0.444792
-0.0393358 -0.091104 -0.444825
0.110846 -0.0921965 -0.271488
0.110813 -0.0904594 -0.293105
0.124568 -0.0773682 -0.444574
0.016636 -0.0863976 -0.420489
-0.00357997 -0.0877153 -0.420619
-0.0616621 -0.0895811 -0.44486
-0.0847428 -0.0910947 -0.444895
-0.0965781 -0.0918708 -0.444914
0.136656 -0.142483 0.436693
0.12296 -0.142073 0.420234
-0.131569 -0.15819 0.419734
0.110909 -0.0922604 -0.23041
-0.024422 -0.0860544 -0.420754
-0.0350872 -0.0867261 -0.420823
-0.0569246 -0.0881013 -0.420963
-0.111941 -0.151439 0.419756
0.110954 -0.0912001 -0.20135
-0.0852151 -0.0867291 -0.421146
-0.120864 -0.0871269 -0.444951
-0.110584 -0.147174 0.438042
0.110881 -0.0844422 -0.249024
0.0646146 -0.074802 -0.420179
0.110681 -0.0722073 -0.379284
0.135332 -0.0674894 -0.426987
0.016636 -0.0746826 -0.420489
0.136656 -0.122485 0.436693
0.12296 -0.122133 0.420234
0.111649 -0.111773 0.25597
0.11162 -0.110534 0.237398
0.111593 -0.109321 0.219235
0.111566 -0.108135 0.201465
0.0884317 -0.109152 0.197793
0.0678127 -0.110275 0.197756
0.0467654 -0.111421 0.197718
-0.131569 -0.135988 0.419734
0.110721 -0.0711078 -0.35333
0.0362535 -0.0706919 -0.420362
-0.0350872 -0.074554 -0.420823
0.111753 -0.11159 0.324382
0.111722 -0.110303 0.304272
0.111692 -0.109045 0.284621
0.0252759 -0.107995 0.197679
0.014361 -0.108565 0.19766
-0.00781822 -0.109724 0.19762
-0.0304757 -0.110907 0.197579
-0.0477921 -0.111811 0.197549
-0.135805 -0.111299 0.117689
-0.135838 -0.109922 0.0961685
-0.13586 -0.109022 0.0821152
0.11082 -0.0723334 -0.288847
0.110775 -0.0704675 -0.317994
-0.00357997 -0.0698749 -0.420619
-0.091011 -0.0744149 -0.421183
-0.120864 -0.0744539 -0.444951
0.111866 -0.111392 0.398623
0.111832 -0.110053 0.376774
0.1118 -0.108746 0.355444
0.111784 -0.108104 0.344968
-0.0713249 -0.10823 0.197506
-0.0953805 -0.109433 0.197463
-0.119977 -0.110663 0.197419
-0.1357 -0.110726 0.185613
-0.135724 -0.109773 0.170064
-0.135759 -0.108374 0.147236
-0.0569246 -0.0695536 -0.420963
0.110954 -0.0713019 -0.20135
0.110909 -0.0695999 -0.23041
0.124568 -0.056387 -0.444574
-0.024422 -0.0649183 -0.420754
0.136656 -0.102488 0.436693
0.12296 -0.102193 0.420234
0.11162 -0.0924873 0.237398
0.111593 -0.0914729 0.219235
0.111566 -0.0904805 0.201464
0.0884317 -0.0913315 0.197793
0.0678127 -0.0922709 0.197756
0.0360767 -0.0937167 0.197699
0.111768 -0.0931399 0.334615
0.111737 -0.0920591 0.314269
0.111707 -0.0910031 0.29439
0.111678 -0.0899711 0.274962
0.014361 -0.0900862 0.19766
-0.00781822 -0.0910474 0.19762
-0.0304757 -0.0920292 0.197579
-0.135782 -0.0931328 0.132338
-0.135816 -0.0919705 0.110456
-0.13586 -0.090465 0.0821152
0.110881 -0.0621367 -0.249024
0.111866 -0.0915893 0.398623
0.111832 -0.0904881 0.376774
0.1118 -0.0894132 0.355444
-0.0477921 -0.0880217 0.197549
-0.0713249 -0.0889892 0.197506
-0.0953805 -0.0899782 0.197463
-0.119977 -0.0909895 0.197419
-0.1357 -0.0910416 0.185613
-0.135724 -0.090258 0.170064
-0.135759 -0.0891076 0.147236
0.110757 -0.0548679 -0.33003
0.110681 -0.0523857 -0.379284
0.0737965 -0.0518449 -0.42012
0.00660449 -0.0545916 -0.420554
0.110846 -0.0546928 -0.271488
0.110727 -0.0509731 -0.349516
0.135344 -0.0466319 -0.420365
0.135309 -0.0456977 -0.439966
0.0362535 -0.0504942 -0.420362
-0.0681051 -0.0545296 -0.421036
0.136656 -0.08249 0.436693
0.12296 -0.0822526 0.420234
0.11082 -0.0507873 -0.288847
0.111768 -0.0740343 0.334615
0.111707 -0.0723358 0.29439
0.111678 -0.0715155 0.274962
0.111634 -0.0703193 0.246633
0.111595 -0.0691622 0.219231
0.111566 -0.0684121 0.201464
0.0884317 -0.0690555 0.197793
0.0678127 -0.0697658 0.197756
0.0467654 -0.0704908 0.197718
0.0252759 -0.071231 0.197679
0.014361 -0.071607 0.19766
-0.00781822 -0.072371 0.19762
-0.135782 -0.0740286 0.132338
-0.135849 -0.0722035 0.089113
0.110954 -0.0514037 -0.20135
0.110909 -0.0501767 -0.23041
0.110788 -0.0468237 -0.309821
-0.0350872 -0.0471668 -0.420823
-0.102745 -0.049484 -0.421259
0.111866 -0.0717862 0.398623
0.111832 -0.0709231 0.376774
0.1118 -0.0700806 0.355444
0.111737 -0.0684542 0.314269
-0.0304757 -0.068432 0.197579
-0.0477921 -0.06899 0.197549
-0.0713249 -0.0697483 0.197506
-0.0953805 -0.0705235 0.197463
-0.119977 -0.0713161 0.197419
-0.1357 -0.0713569 0.185613
-0.135724 -0.0707427 0.170064
-0.135759 -0.0698411 0.147236
-0.135816 -0.0683883 0.110456
-0.111937 -0.0458549 -0.439805
-0.133324 -0.0463413 -0.444971
0.124568 -0.0354058 -0.444574
-0.0139209 -0.0404494 -0.420686
0.136656 -0.0624924 0.436693
0.12296 -0.0623126 0.420234
0.110881 -0.0398312 -0.249024
0.110659 -0.0349098 -0.393554
0.111768 -0.0549286 0.334615
0.111648 -0.0524649 0.25597
0.111621 -0.051883 0.237397
0.111595 -0.0513139 0.219231
0.111566 -0.0507574 0.201464
0.0884317 -0.0512347 0.197793
0.0678127 -0.0517617 0.197756
0.0467654 -0.0522996 0.197718
-0.135782 -0.0549245 0.132338
0.110794 -0.0348696 -0.305688
0.0737965 -0.0322279 -0.42012
-0.0350872 -0.0349947 -0.420823
0.111866 -0.0519831 0.398623
0.111832 -0.0513581 0.376774
0.1118 -0.050748 0.355444
0.111737 -0.0495703 0.314269
0.111707 -0.0490017 0.29439
0.0252759 -0.0482533 0.197679
0.014361 -0.048508 0.19766
-0.00781822 -0.0490255 0.19762
-0.0304757 -0.0495542 0.197579
-0.0477921 -0.0499583 0.197549
-0.0713249 -0.0505074 0.197506
-0.0953805 -0.0510687 0.197463
-0.119977 -0.0516427 0.197419
-0.1357 -0.0516723 0.185613
-0.135724 -0.0512275 0.170064
-0.135759 -0.0505746 0.147236
-0.135816 -0.0495226 0.110456
-0.13586 -0.0487119 0.0821152
0.110924 -0.0342633 -0.220878
0.110826 -0.0324419 -0.284557
0.110727 -0.0305839 -0.349516
0.110698 -0.0300461 -0.368317
0.135309 -0.0274186 -0.439966
0.0362535 -0.0302965 -0.420362
-0.0569246 -0.0324584 -0.420963
0.110954 -0.0315055 -0.20135
0.135344 -0.0253145 -0.420365
0.124568 -0.0249152 -0.444574
-0.102745 -0.0303289 -0.421259
0.136656 -0.0424948 0.436693
0.12296 -0.0423725 0.420234
0.110763 -0.0253018 -0.326047
0.016636 -0.0248942 -0.420489
-0.0794659 -0.0266992 -0.421109
-0.111937 -0.0268804 -0.439805
-0.133324 -0.0271656 -0.444971
0.0360767 -0.0342866 0.197699
-0.00357997 -0.0223005 -0.420619
0.111866 -0.03218 0.398623
0.111832 -0.0317931 0.376774
0.1118 -0.0314154 0.355444
0.111784 -0.0312299 0.344968
0.111753 -0.0308654 0.324382
0.111728 -0.030509 0.30426
0.111692 -0.0301614 0.284622
0.111649 -0.029654 0.255969
0.111624 -0.0293251 0.237392
0.111595 -0.0290035 0.219231
0.111566 -0.0286889 0.201464
0.0884317 -0.0289588 0.197793
0.0678127 -0.0292566 0.197756
0.014361 -0.0300287 0.19766
-0.00781822 -0.0303491 0.19762
-0.0304757 -0.0306764 0.197579
-0.0477921 -0.0309265 0.197549
-0.0713249 -0.0312665 0.197506
-0.0953805 -0.031614 0.197463
-0.119977 -0.0319693 0.197419
-0.1357 -0.0319876 0.185613
-0.135724 -0.0317123 0.170064
-0.135759 -0.0313081 0.147236
-0.135805 -0.0307849 0.117689
-0.135838 -0.0304038 0.0961685
-0.13586 -0.030155 0.0821152
0.110881 -0.0207122 -0.249024
-0.024422 -0.016607 -0.420754
0.136656 -0.0224973 0.436693
0.12296 -0.0224325 0.420234
0.110924 -0.0146843 -0.220878
-0.133324 -0.0143818 -0.444971
0.110954 -0.0116073 -0.20135
0.110846 -0.0109386 -0.271488
0.11082 -0.0107731 -0.288847
0.110788 -0.0105731 -0.309821
0.110733 -0.0102312 -0.345675
0.0737965 -0.0098085 -0.42012
0.0362535 -0.0100988 -0.420362
-0.0569246 -0.0108195 -0.420963
-0.102745 -0.0111738 -0.421259
0.111866 -0.0123769 0.398623
0.111832 -0.0122281 0.376774
0.1118 -0.0120829 0.355444
0.111785 -0.0120115 0.344966
0.11176 -0.0118712 0.324368
0.111721 -0.0117344 0.304274
0.111692 -0.0116006 0.284622
0.111653 -0.0114053 0.255962
0.111624 -0.0112789 0.237392
0.111595 -0.0111552 0.219231
0.111566 -0.0110342 0.201464
0.0884317 -0.011138 0.197793
0.0678127 -0.0112525 0.197756
0.0467654 -0.0113695 0.197718
0.0252759 -0.0114889 0.197679
0.014361 -0.0115495 0.19766
-0.00781822 -0.0116727 0.19762
-0.0304757 -0.0117986 0.197579
-0.0477921 -0.0118948 0.197549
-0.0713249 -0.0120256 0.197506
-0.0953805 -0.0121592 0.197463
-0.119977 -0.0122959 0.197419
-0.1357 -0.0123029 0.185613
-0.135724 -0.012197 0.170064
-0.135759 -0.0120416 0.147236
-0.135805 -0.0118403 0.117689
-0.135838 -0.0116938 0.0961685
-0.13586 -0.0115981 0.0821152
0.110757 -0.00741458 -0.33003
0.110687 -0.00710387 -0.375654
0.135344 -0.00666171 -0.420365
0.135309 -0.00652824 -0.439966
0.110895 -0.00481749 -0.23979
-0.024422 -0.00452919 -0.420754
-0.0350872 -0.00456454 -0.420823
-0.0794659 -0.00471163 -0.421109
-0.111937 -0.00474361 -0.439805
0.136656 -0.00249971 0.436693
0.12296 -0.00249252 0.420234
-0.00357997 -0.00148671 -0.420619
0.130327 0.00237349 0.338968
0.13029 0.00234531 0.318279
0.130263 0.00231777 0.298058
0.130228 0.00229089 0.27832
0.129372 0.00152833 -0.281537
0.129344 0.00150503 -0.298642
0.129311 0.00147689 -0.319305
0.129284 0.00144977 -0.339214
0.0360767 0.0068573 0.197699
-0.135782 0.00716404 0.132338
0.124568 0.00393396 -0.444574
0.016636 0.00439308 -0.420489
0.111866 0.0123769 0.398623
0.111681 0.0115347 0.274956
0.111639 0.0113417 0.246624
0.111595 0.0111552 0.219231
0.111566 0.0110342 0.201464
0.0884317 0.011138 0.197793
0.0678127 0.0112525 0.197756
0.014361 0.0115495 0.19766
-0.00781822 0.0116727 0.19762
-0.0304757 0.0117986 0.197579
-0.0477921 0.0118948 0.197549
-0.0713249 0.0120256 0.197506
-0.0953805 0.0121592 0.197463
-0.119977 0.0122959 0.197419
-0.1357 0.0123029 0.185613
-0.135724 0.012197 0.170064
-0.135759 0.0120416 0.147236
-0.135816 0.0117911 0.110456
-0.13586 0.0115981 0.0821152
0.110954 0.00829092 -0.20135
-0.0569246 0.00772819 -0.420963
-0.102745 0.0079813 -0.421259
0.111838 0.0171192 0.376763
0.111806 0.0169158 0.355431
0.11179 0.0168159 0.344955
0.111752 0.0166198 0.324384
0.111721 0.0164281 0.304274
0.110739 0.0102681 -0.341806
0.110709 0.0100863 -0.360877
0.0737965 0.00980848 -0.42012
0.0362535 0.0100988 -0.420362
0.136656 0.0224973 0.436693
0.12296 0.0224325 0.420234
0.110924 0.0146843 -0.220878
0.110867 0.0142278 -0.258114
0.110833 0.0139567 -0.280234
0.1108 0.0136957 -0.301525
0.110775 0.0134938 -0.317994
0.110681 0.0127425 -0.379284
-0.133324 0.0143818 -0.444971
0.111696 0.0255211 0.284614
0.0360767 0.0251435 0.197699
-0.135782 0.0262683 0.132338
0.135344 0.0146558 -0.420365
0.135309 0.0143621 -0.439966
0.111867 0.0321799 0.39862
0.111654 0.0296538 0.25596
0.111624 0.0293251 0.237392
0.111595 0.0290035 0.219231
0.111566 0.0286889 0.201464
0.0884317 0.0289588 0.197793
0.0678127 0.0292566 0.197756
0.014361 0.0300287 0.19766
-0.00781822 0.0303491 0.19762
-0.0304757 0.0306764 0.197579
-0.0477921 0.0309265 0.197549
-0.0713249 0.0312665 0.197506
-0.0953805 0.031614 0.197463
-0.119977 0.0319693 0.197419
-0.1357 0.0319876 0.185613
-0.135724 0.0317123 0.170064
-0.135759 0.0313081 0.147236
-0.135816 0.0306568 0.110456
-0.13586 0.030155 0.0821152
-0.00357997 0.0193271 -0.420619
0.111832 0.0366844 0.376775
0.1118 0.0362486 0.355445
0.111784 0.0360346 0.344969
0.111752 0.035614 0.324384
0.111722 0.0352031 0.304273
0.110895 0.0240874 -0.23979
-0.024422 0.0226459 -0.420754
-0.0350872 0.0228227 -0.420823
-0.0794659 0.0235581 -0.421109
-0.111937 0.0237181 -0.439805
0.136656 0.0424948 0.436693
0.12296 0.0423725 0.420234
0.110954 0.0281891 -0.20135
0.110775 0.0254882 -0.317994
0.11173 0.0225351 -0.444592
0.016636 0.0248942 -0.420489
-0.135782 0.0453724 0.132338
0.110745 0.0279715 -0.337909
0.135326 0.0250583 -0.430265
-0.0569246 0.0293671 -0.420963
-0.102745 0.0303289 -0.421259
0.111865 0.0519831 0.398623
0.111684 0.0484454 0.274949
0.111639 0.0476353 0.246624
0.0573435 0.047505 0.197737
0.0252759 0.0482532 0.197679
0.014361 0.0485079 0.19766
-0.00781822 0.0490255 0.19762
-0.0304757 0.0495542 0.197579
-0.0477921 0.0499582 0.197549
-0.0713249 0.0505074 0.197506
-0.0953805 0.0510687 0.197463
-0.119977 0.0516426 0.197419
-0.1357 0.0516722 0.185613
-0.135724 0.0512275 0.170064
-0.135759 0.0505745 0.147236
-0.135816 0.0495225 0.110456
-0.13586 0.0487119 0.0821152
0.110924 0.0342633 -0.220878
0.110867 0.0331982 -0.258114
0.110833 0.0325655 -0.280234
0.110709 0.0302589 -0.360877
0.0737965 0.0294255 -0.42012
-0.133324 0.0335575 -0.444971
0.111832 0.0562494 0.376775
0.111799 0.0555812 0.355445
0.111783 0.055253 0.344969
0.111595 0.0513139 0.219231
0.111566 0.0507574 0.201464
0.0884317 0.0512347 0.197793
0.1108 0.035 -0.301525
0.110681 0.0325641 -0.379284
0.0505897 0.0328176 -0.42027
0.136656 0.0624924 0.436693
0.12296 0.0623125 0.420234
0.130327 0.0640837 0.338968
0.13029 0.063323 0.318279
0.130263 0.0625793 0.298057
0.130228 0.0618536 0.27832
0.110895 0.0433573 -0.239791
0.0314038 0.0390973 -0.420394
0.0015316 0.0399884 -0.420586
-0.111937 0.0426925 -0.439805
0.111866 0.0717862 0.398623
0.0360767 0.0662874 0.197699
-0.00222903 0.0675218 0.19763
-0.0190862 0.068065 0.1976
-0.0419886 0.068803 0.197559
-0.0594943 0.0693671 0.197528
-0.0832862 0.0701338 0.197485
-0.0953805 0.0705235 0.197463
-0.119977 0.0713161 0.197419
-0.1357 0.0713569 0.185613
-0.135724 0.0707428 0.170064
-0.135759 0.0698411 0.147236
-0.135805 0.068674 0.117689
-0.135838 0.067824 0.0961685
0.110954 0.0480873 -0.20135
0.110847 0.0453169 -0.271488
-0.0191513 0.0436132 -0.42072
-0.0404823 0.0442967 -0.420857
-0.0681051 0.0451817 -0.421036
0.111684 0.0715147 0.274949
0.111639 0.0703188 0.246624
0.111595 0.0691622 0.219231
0.111566 0.0684121 0.201464
0.0884317 0.0690555 0.197793
0.0678127 0.0697658 0.197756
-0.13586 0.0719081 0.0821152
0.110727 0.0451476 -0.349517
-0.102745 0.049484 -0.421259
0.136656 0.08249 0.436693
0.12296 0.0822526 0.420234
0.111838 0.0807049 0.376763
0.111808 0.0797459 0.355428
0.111792 0.079275 0.344952
0.111761 0.0783497 0.324366
0.111722 0.0774469 0.304273
0.110924 0.0538423 -0.220879
0.124568 0.0432738 -0.444574
-0.127067 0.0525037 -0.444961
0.0737965 0.0490425 -0.42012
-0.111937 0.0553421 -0.439805
0.111868 0.0915888 0.398617
0.111698 0.0858432 0.284611
-0.0362166 0.0875458 0.197569
-0.0594943 0.0885028 0.197528
-0.0832862 0.089481 0.197485
-0.0953805 0.0899782 0.197463
-0.119977 0.0909895 0.197419
-0.1357 0.0910416 0.185613
-0.135724 0.090258 0.170064
-0.135759 0.0891076 0.147236
-0.135805 0.0876185 0.117689
0.110881 0.0589502 -0.249025
0.129372 0.0565478 -0.281537
0.129344 0.0556858 -0.298642
0.110775 0.0554744 -0.317994
0.110695 0.0529387 -0.368314
0.0458461 0.0529875 -0.4203
0.111653 0.0889616 0.255962
0.11162 0.0879757 0.237399
0.0730072 0.0875447 0.197765
0.0467654 0.0886819 0.197718
0.0252759 0.0896132 0.197679
0.014361 0.0900862 0.19766
-0.00781822 0.0910473 0.19762
-0.135838 0.0912115 0.0961685
-0.13586 0.090465 0.0821152
0.129311 0.0575983 -0.319305
0.129284 0.0565405 -0.339214
0.110663 0.054647 -0.390022
0.00660449 0.0575425 -0.420554
-0.0514005 0.0600418 -0.420928
0.136656 0.102488 0.436693
0.12296 0.102193 0.420234
0.111833 0.100271 0.376774
0.1118 0.0990794 0.355444
0.111784 0.0984944 0.344967
0.111723 0.0962216 0.30427
0.111595 0.0914726 0.219231
0.111566 0.0904805 0.201464
0.0884317 0.0913315 0.197793
0.110954 0.0679855 -0.20135
0.135344 0.054626 -0.420365
0.135309 0.0535316 -0.439966
-0.133324 0.065517 -0.444971
0.111753 0.102093 0.324382
0.11091 0.0695999 -0.23041
-0.0139209 0.0644194 -0.420686
-0.102745 0.0686391 -0.421259
0.111866 0.111392 0.398623
-0.0594943 0.107639 0.197528
-0.0832862 0.108828 0.197485
-0.0953805 0.109433 0.197463
-0.119977 0.110663 0.197419
-0.1357 0.110726 0.185613
-0.135724 0.109773 0.170064
-0.135759 0.108374 0.147236
0.110847 0.0703193 -0.271488
0.111678 0.108427 0.274962
0.0306904 0.107713 0.197689
0.00886017 0.108853 0.19765
-0.00781822 0.109724 0.19762
-0.0304757 0.110907 0.197579
-0.135805 0.111299 0.117689
-0.135838 0.109922 0.0961685
-0.13586 0.109022 0.0821152
0.110821 0.0723334 -0.288848
0.110744 0.0691927 -0.337909
0.110706 0.0677228 -0.360873
0.0362535 0.0678065 -0.420362
-0.0681051 0.0732255 -0.421036
0.136656 0.122485 0.436693
0.12296 0.122133 0.420234
0.111833 0.119836 0.376774
0.1118 0.118412 0.355444
0.111784 0.117713 0.344968
0.111635 0.11115 0.246632
0.111595 0.109321 0.219231
0.111566 0.108135 0.201464
0.0884317 0.109152 0.197793
0.0678127 0.110275 0.197756
0.110881 0.0780692 -0.249025
0.124568 0.0642549 -0.444574
0.0737965 0.0686595 -0.42012
-0.0297339 0.0742642 -0.420788
0.111753 0.121087 0.324382
0.0467654 0.115969 0.197718
-0.0514005 0.0785162 -0.420928
0.111866 0.131195 0.398623
0.130327 0.125794 0.338968
0.13029 0.124301 0.318278
0.111722 0.124384 0.304272
-0.077289 0.127822 0.197496
-0.0953805 0.128888 0.197463
-0.117775 0.130002 0.194593
-0.135724 0.129288 0.170064
-0.135759 0.127641 0.147236
-0.135782 0.126565 0.132338
0.110954 0.0878837 -0.20135
0.110788 0.0800533 -0.309821
0.110679 0.0750393 -0.379281
0.016636 0.0776114 -0.420489
-0.111937 0.0838037 -0.439805
0.130263 0.127476 0.298058
0.130228 0.125998 0.27832
0.00333029 0.127719 0.19764
-0.0190862 0.129089 0.1976
-0.0391054 0.130007 0.193488
-0.0610431 0.130005 0.175553
-0.0793242 0.130004 0.160607
-0.0976048 0.130002 0.145662
-0.119557 0.130003 0.127746
-0.135827 0.129165 0.103283
-0.13586 0.127579 0.0821152
0.11091 0.0890232 -0.23041
0.110833 0.0852907 -0.280234
0.135344 0.0732787 -0.420365
-0.102745 0.0877943 -0.421259
0.136656 0.142483 0.436693
0.12296 0.142073 0.420234
0.111684 0.131495 0.274949
0.111639 0.129296 0.246624
0.0781749 0.127623 0.197774
0.0340484 0.130011 0.192461
0.00935078 0.130009 0.17227
-0.00829017 0.130008 0.157848
-0.0259307 0.130006 0.143427
-0.0506268 0.130004 0.123237
-0.0682665 0.130003 0.108816
-0.0894446 0.130003 0.0915251
-0.107098 0.130004 0.0771216
0.135309 0.0744219 -0.439966
-0.00357997 0.0847419 -0.420619
0.111833 0.144292 0.376774
0.1118 0.142578 0.355444
0.111784 0.141736 0.344967
0.111595 0.131631 0.219231
0.111566 0.130204 0.201464
0.0920202 0.130014 0.183143
0.0715669 0.130012 0.166423
0.0545231 0.130011 0.15249
0.0272534 0.130009 0.130197
0.00680196 0.130008 0.113478
-0.0136493 0.130006 0.0967596
-0.0341 0.130005 0.0800413
-0.0545518 0.130003 0.0633255
-0.0750179 0.130004 0.0466271
-0.0794659 0.0926619 -0.421109
-0.133324 0.0942805 -0.444971
0.111866 0.150998 0.398623
0.111753 0.14483 0.324382
0.111723 0.143159 0.304271
0.11154 0.133173 0.184076
0.111488 0.130374 0.150396
0.0967348 0.130013 0.134006
0.0769523 0.130012 0.117834
0.0604672 0.13001 0.104358
0.0406855 0.130009 0.0881878
0.0209044 0.130007 0.0720175
0.00112373 0.130006 0.0558473
-0.0153601 0.130005 0.0423728
-0.0351435 0.130004 0.0262076
-0.0549384 0.130005 0.0100562
0.110757 0.0904578 -0.33003
0.11071 0.0878949 -0.360877
0.0362535 0.0880042 -0.420362
0.111693 0.146167 0.28462
0.111427 0.131203 0.110235
0.104343 0.130013 0.0905983
0.085188 0.130011 0.0749409
0.0660339 0.13001 0.0592839
0.0468803 0.130008 0.043627
0.0245348 0.130007 0.0253612
0.00857431 0.130006 0.0123142
-0.0105785 0.130004 -0.00334102
-0.0297449 0.130005 -0.01898
0.110881 0.100375 -0.249024
0.124568 0.0826135 -0.444574
0.0737965 0.0882765 -0.42012
-0.024422 0.0951128 -0.420754
-0.0624926 0.0977626 -0.420999
0.136656 0.16248 0.436693
0.130338 0.16108 0.415741
0.1118 0.157077 0.355443
0.111649 0.14827 0.255969
0.111369 0.13199 0.0720782
0.108388 0.130012 0.0473333
0.0898228 0.130011 0.032158
0.071258 0.130009 0.0169832
0.0526938 0.130008 0.00180852
0.0279419 0.130006 -0.0184236
0.0124725 0.130005 -0.0310685
-0.01539 0.130006 -0.0538085
0.110954 0.107782 -0.20135
0.1108 0.0989131 -0.301525
-0.111937 0.102778 -0.439805
0.136598 0.164328 0.402155
0.136563 0.162292 0.379838
0.129898 0.16108 0.361133
0.111784 0.160954 0.344968
0.111621 0.151138 0.237398
0.111595 0.14948 0.219231
0.111566 0.147858 0.201464
0.11154 0.146272 0.184076
0.111293 0.131458 0.0217503
0.106188 0.130011 0.00174415
0.0881772 0.13001 -0.0129775
0.0701668 0.130008 -0.0276988
0.0521569 0.130007 -0.0424199
0.025141 0.130005 -0.064499
0.00711912 0.130006 -0.0792049
0.11091 0.108446 -0.23041
0.016636 0.0981125 -0.420489
-0.0794659 0.105226 -0.421109
0.136498 0.163093 0.336818
0.136465 0.161144 0.316082
0.111451 0.145185 0.12605
0.111231 0.131575 -0.0187595
0.10703 0.13001 -0.038819
0.0866271 0.130009 -0.0554958
0.0720535 0.130008 -0.0674075
0.0458218 0.130006 -0.0888482
0.0283234 0.130006 -0.103129
0.110847 0.107823 -0.271488
-0.00357997 0.102582 -0.420619
-0.0350872 0.104984 -0.420823
-0.102745 0.110142 -0.421259
0.136436 0.163857 0.295831
0.136405 0.161944 0.276057
0.125587 0.161077 0.258266
0.111488 0.151747 0.150396
0.111427 0.147863 0.110235
0.111392 0.145627 0.08711
0.111164 0.131088 -0.0632326
0.10216 0.130009 -0.0817268
0.0851642 0.130008 -0.0956181
0.0653362 0.130006 -0.111824
0.135344 0.0945962 -0.420365
0.135309 0.092701 -0.439966
-0.127067 0.112962 -0.444961
0.136658 0.182477 0.436689
0.136622 0.180173 0.413512
0.136333 0.161786 0.22858
0.125313 0.161077 0.212462
0.111369 0.148235 0.0720782
0.1111 0.130631 -0.104967
0.100312 0.130008 -0.120031
0.0837817 0.130007 -0.133541
0.0672466 0.130007 -0.147045
0.110776 0.10945 -0.317994
0.110681 0.103356 -0.379284
-0.111937 0.115428 -0.439805
0.136588 0.1828 0.39091
0.136554 0.180548 0.368868
0.136278 0.162532 0.192493
0.125053 0.161076 0.169101
0.111325 0.149315 0.042897
0.111049 0.130759 -0.138747
0.0905173 0.130007 -0.162867
0.110881 0.119494 -0.249025
0.110744 0.110414 -0.337909
0.110709 0.108068 -0.360877
0.0410675 0.107803 -0.420331
0.136522 0.183107 0.347359
0.136489 0.180906 0.326372
0.136426 0.176659 0.285875
0.136212 0.162365 0.149575
0.128038 0.161078 0.130648
0.111293 0.151079 0.0217503
0.111262 0.148924 0.00120652
0.111016 0.131984 -0.160318
0.109963 0.130008 -0.179996
0.110954 0.12768 -0.20135
0.110924 0.125632 -0.220879
0.129372 0.11768 -0.281537
0.110819 0.118504 -0.288846
0.0737965 0.107893 -0.42012
-0.0404823 0.117615 -0.420857
-0.0624926 0.119488 -0.420999
0.136459 0.1834 0.30588
0.136397 0.179144 0.266327
0.136138 0.161359 0.101035
0.111231 0.150644 -0.0187595
0.111202 0.148555 -0.0381718
0.129344 0.118897 -0.298642
0.124568 0.103595 -0.444574
-0.091011 0.12508 -0.421183
0.13634 0.179513 0.228566
0.136297 0.176511 0.201353
0.136104 0.16289 0.0778874
0.133564 0.161081 0.0594361
0.111164 0.149551 -0.0632326
0.111145 0.148206 -0.075425
0.129311 0.119627 -0.319305
0.128829 0.117518 -0.338792
0.0215955 0.11817 -0.420457
0.136258 0.177894 0.175032
0.136047 0.162726 0.040858
0.127137 0.161077 0.0190169
0.1111 0.148525 -0.104967
0.0015316 0.122927 -0.420586
-0.0191513 0.124824 -0.42072
-0.133324 0.132632 -0.444971
0.136219 0.179232 0.149564
0.136168 0.175446 0.116864
0.135644 0.161082 -0.00747931
0.111083 0.150778 -0.116423
0.111049 0.148193 -0.138747
0.135344 0.113249 -0.420365
0.136144 0.177697 0.101025
0.135942 0.162421 -0.0278948
0.126605 0.161077 -0.0468491
0.111016 0.149124 -0.160318
0.110881 0.138613 -0.249024
0.110847 0.135951 -0.271488
0.112595 0.127703 -0.339579
0.110679 0.123178 -0.379281
0.135309 0.113591 -0.439966
-0.11192 0.138759 -0.429722
0.136097 0.17806 0.0703214
0.135884 0.161526 -0.0660813
0.110985 0.150024 -0.181174
0.110954 0.147578 -0.20135
0.110924 0.145211 -0.220878
0.110801 0.135435 -0.301526
0.110706 0.128241 -0.360873
0.0410675 0.127926 -0.420331
-0.0569246 0.137562 -0.420963
0.135838 0.161408 -0.0963152
0.110774 0.136437 -0.317993
0.0737965 0.12751 -0.42012
-0.0404823 0.139 -0.420857
-0.133324 0.145416 -0.444971
0.13603 0.180519 0.0265536
0.135977 0.176145 -0.00797534
0.135794 0.161296 -0.125208
0.11604 0.122835 -0.444586
0.136009 0.182588 0.0125383
0.13576 0.161891 -0.147415
0.0215955 0.138594 -0.420457
-0.0191513 0.142871 -0.42072
0.135946 0.181089 -0.0279009
0.135719 0.161772 -0.174107
0.0015316 0.143662 -0.420586
-0.0852151 0.152958 -0.421146
0.135888 0.179673 -0.0660871
0.135688 0.162337 -0.194655
0.125247 0.161081 -0.212486
0.110881 0.157732 -0.249024
-0.11192 0.157899 -0.429722
0.135907 0.185021 -0.0535972
0.13585 0.179961 -0.0903839
0.127522 0.161081 -0.234253
0.11082 0.15544 -0.288847
0.110745 0.148691 -0.337909
0.110679 0.142999 -0.379281
0.135344 0.134566 -0.420365
0.135806 0.179434 -0.119537
0.132137 0.161079 -0.253207
0.11071 0.148413 -0.360877
0.135309 0.134482 -0.439966
0.0458461 0.147506 -0.4203
-0.0459199 0.157948 -0.420893
-0.0929167 0.161076 -0.437004
0.135771 0.179715 -0.14194
0.13558 0.161982 -0.265931
-0.0746999 0.161075 -0.443974
0.135722 0.178449 -0.174111
0.133842 0.16108 -0.294677
0.11754 0.161079 -0.307999
0.0737965 0.14993 -0.42012
-0.0292249 0.161078 -0.427847
-0.0478527 0.161076 -0.443071
0.135691 0.178734 -0.194658
0.135508 0.161156 -0.313059
0.124568 0.142934 -0.444574
0.016636 0.159616 -0.420489
-0.00598711 0.161078 -0.429126
-0.133324 0.174179 -0.444971
0.135645 0.177545 -0.224218
0.135489 0.162272 -0.32524
0.135616 0.177833 -0.243131
0.132867 0.16108 -0.354083
0.0313976 0.161079 -0.436947
0.0134122 0.162141 -0.444744
0.135595 0.17882 -0.256921
0.132566 0.16108 -0.372508
0.135344 0.153219 -0.420365
0.0458683 0.161079 -0.443313
-0.0847428 0.177557 -0.444895
-0.0965781 0.17907 -0.444914
0.135397 0.161385 -0.385844
0.121633 0.161077 -0.399011
0.135309 0.152761 -0.439966
0.0854171 0.161077 -0.428588
0.0662318 0.161079 -0.444238
-0.0616621 0.177644 -0.44486
0.135534 0.178644 -0.296384
-0.0393358 0.177727 -0.444825
0.135554 0.183764 -0.283536
0.106999 0.161081 -0.444315
-0.0177277 0.177808 -0.444792
0.13549 0.179814 -0.32524
0.135354 0.165003 -0.41365
0.00319654 0.177887 -0.444759
0.135448 0.178076 -0.352624
0.0234686 0.177963 -0.444728
0.0431189 0.178036 -0.444698
0.135414 0.179841 -0.375008
0.0621754 0.178107 -0.444668
0.085201 0.177516 -0.444633
0.13532 0.174819 -0.43352
0.120319 0.182931 -0.44458
