ply
format ascii 1.0
comment Created by Open3D
element vertex 1645
property double x
property double y
property double z
end_header
-0.169964 0.0942861 -0.150259
-0.189483 -0.380909 -0.205882
0.181478 -0.377233 -0.179646
-0.196333 0.380909 0.0946328
-0.0797802 0.0564715 0.122698
-0.201523 0.347528 0.21545
-0.0689781 0.0564715 -0.018949
0.161179 0.380909 -0.0422969
-0.150341 0.0737382 -0.155268
-0.0160305 0.366614 0.0406904
0.0468701 -0.214327 -0.18823
-0.0675571 0.0564715 -0.0414866
-0.141264 0.0564715 0.0055626
-0.130226 0.0787382 0.0541498
0.0835331 -0.218664 0.130044
0.0121421 0.380909 -0.197751
-0.000666168 0.380909 -0.143284
0.187757 0.0710435 0.0459389
-0.15987 -0.21206 0.15034
0.151214 -0.196397 0.082122
-0.0772308 -0.196397 -0.130202
0.194792 0.0460126 -0.185783
-0.170824 -0.218664 0.13281
-0.195019 0.380909 -0.207425
0.181181 -0.285424 -0.150466
-0.150867 -0.291123 0.193218
-0.100155 0.0787382 -0.00568974
0.008444 0.366614 -0.0693443
0.0213127 0.0787382 0.139679
-0.151231 0.366614 0.111693
-0.194874 -0.0989877 0.185207
-0.149726 0.366614 0.172683
-0.10091 0.0787382 -0.144502
-0.00524405 0.0564715 -0.0319086
-0.187832 0.0787382 0.0596119
-0.155303 0.219583 -0.194792
0.0836737 0.380909 0.0307485
0.157814 0.123091 -0.194792
-0.159944 -0.0295387 -0.194792
-0.173568 -0.0783012 0.150341
-0.153562 0.309141 -0.150259
0.189381 0.0400604 -0.194792
0.150259 0.0311288 -0.183342
-0.0100274 0.366614 0.115794
-0.0802622 -0.218664 0.140019
-0.146893 -0.196397 0.0497296
0.111676 0.0564715 0.179513
-0.19508 -0.289343 -0.165535
0.182356 -0.335934 0.159693
-0.1516 0.0894351 0.150341
-0.186026 0.380909 0.0421246
-0.13756 0.0787382 -0.118547
-0.184924 0.380909 0.123234
0.179009 0.0787382 -0.0269959
0.181938 -0.347855 -0.19413
-0.187689 -0.179028 0.150341
-0.150341 -0.0596127 0.152559
-0.150341 0.000992551 -0.186706
-0.218446 0.380909 -0.097052
0.150259 0.21029 0.188914
0.194792 -0.129629 0.1603
-0.188109 -0.213087 -0.0549219
-0.179161 -0.176664 -0.194792
0.228932 0.376999 -0.0960587
-0.156476 0.00277911 0.150341
0.159736 -0.313751 0.190668
0.0676529 -0.196397 0.0932006
0.168851 0.373462 0.224266
-0.182713 -0.305122 0.175386
-0.0178124 0.380909 -0.181138
-0.18854 0.0596021 -0.0899923
-0.194874 0.318633 0.178602
-0.165357 -0.350727 0.180159
-0.00170228 0.0787382 -0.0632306
-0.180951 -0.305122 0.155364
-0.124265 0.0787382 -0.0451664
-0.0638158 0.380909 -0.091058
-0.194874 0.192302 0.173417
-0.0688945 0.0564715 0.14034
-0.133719 0.366614 0.132149
0.185755 -0.330901 0.188201
0.143199 0.380909 -0.0760262
-0.185661 -0.305836 -0.152385
-0.194874 -0.0958659 0.155275
-0.119212 0.380388 0.194038
0.150259 0.262281 -0.156329
-0.194874 0.154257 0.182089
0.168112 -0.196397 -0.101246
-0.0379539 0.0787382 0.131898
0.194792 0.187705 0.17554
-0.139926 -0.196397 0.180112
0.130746 -0.196397 -0.128998
-0.173273 0.366614 0.132711
-0.113297 0.380909 -0.101866
-0.0482029 0.0564715 -0.0526361
-0.118326 -0.218664 0.0437118
0.157172 0.0664465 -0.150259
-0.192086 -0.347855 -0.170612
0.189516 -0.0939392 0.150341
0.194792 0.153884 -0.167634
0.0617706 0.367973 0.219356
-0.194874 0.355334 0.00927582
0.0600529 0.347528 -0.20357
0.0420491 0.0564715 -0.0377546
0.162066 -0.218664 0.012456
-0.194874 0.0958817 0.188444
0.000731599 0.380909 0.0966547
0.194792 0.311154 0.182072
0.150433 -0.196397 -0.0628655
-0.110589 0.366614 0.0235036
0.0105395 -0.218664 -0.159152
0.176601 0.137277 -0.150259
-0.0289435 -0.218664 0.1046
0.159651 -0.0868422 -0.194792
0.194792 0.365572 -0.129181
0.12025 -0.218664 0.0181101
-0.149036 0.380909 -0.0275814
-0.0425151 -0.218664 -0.0781385
0.150259 0.250768 0.17233
-0.201027 -0.339407 0.188463
0.150259 0.05968 0.178832
0.194792 -0.0384404 -0.194364
0.194792 0.364097 -0.042928
-0.121187 0.0787382 0.0170669
0.0305479 0.0787382 -0.0176151
-0.194874 0.106448 0.193412
-0.115576 0.366614 0.0945944
-0.158962 -0.313751 0.177576
-0.194874 -0.152434 -0.175474
0.137603 0.0787382 0.00342591
-0.0641182 0.0787382 -0.0804915
0.0113537 0.380909 0.186325
0.0342814 0.380909 0.182565
-0.109386 -0.196397 -0.0206835
-0.0845052 0.380909 0.04569
-0.159363 0.0564715 -0.0279189
-0.179094 0.0564715 -0.0496722
-0.201487 -0.364545 0.184437
-0.15085 0.0564715 0.0698002
-0.202989 0.380909 0.187008
-0.121007 0.366614 0.00119637
0.0453959 0.0786918 0.189295
-0.132114 0.0787382 0.0127158
-0.171903 -0.0712774 -0.150259
-0.183766 0.358546 0.194875
0.0275461 0.0564715 -0.0172609
0.168519 0.0787382 0.0770088
0.192314 0.184396 0.194875
-0.180846 0.0564715 -0.0141242
0.0345263 0.0787382 -0.173291
-0.0346643 0.0564715 -0.146045
0.142946 -0.218664 -0.165153
0.149464 -0.197103 0.0427458
0.150892 -0.196397 0.084732
0.183408 0.281126 0.150341
0.00410322 0.0787382 -0.170318
0.0296807 0.366614 -0.114049
0.159324 -0.177566 0.150341
-0.16634 0.144947 0.194875
-0.0342101 0.0564715 0.0526563
-0.194874 0.163259 0.15955
0.056168 -0.196397 -0.0594605
-0.154106 0.251341 -0.150259
-0.104582 0.0787382 -0.184464
-0.0716795 -0.218664 0.109266
0.163697 0.296416 0.194875
0.171723 0.190276 0.194875
-0.172351 -0.298989 0.151584
0.165342 0.366614 -0.0525611
-0.0470435 -0.196397 -0.171441
-0.194874 0.354818 0.167088
0.0392872 0.0564715 0.167649
0.149722 0.0787382 -0.0314858
0.200197 -0.354642 0.205235
0.189203 -0.218581 -0.117728
0.083299 0.366614 0.128212
-0.150341 0.0706564 0.183519
-0.150341 -0.0944976 -0.184903
-0.0248324 0.0787382 -0.162838
0.133759 -0.218664 0.150193
0.0926365 0.366614 -0.121968
0.183656 -0.296467 -0.171467
0.228032 0.380028 -0.165683
-0.194874 0.167055 -0.189848
-0.103767 0.366614 -0.00844719
0.150259 -0.196402 -0.152051
-0.169089 -0.145403 -0.150259
0.150259 0.176437 -0.170597
-0.0655317 0.380909 -0.165623
0.194792 -0.0448961 0.171963
0.194792 -0.264475 0.174753
0.147078 0.077974 -0.0357078
0.195326 0.371038 0.221569
-0.218652 0.380909 0.197192
0.0300065 0.0564715 0.0146194
-0.185042 -0.322346 -0.167879
0.0264777 0.366614 -0.167372
-0.151909 -0.196397 -0.054793
0.187605 0.0678428 0.149187
-0.173286 -0.334838 0.159334
-0.0787615 0.366614 -0.0198909
-0.125144 0.380909 -0.196813
-0.127515 -0.196397 -0.13543
0.183741 0.166072 0.194875
-0.137335 0.0787382 0.0262922
-0.0130447 0.380909 -0.113672
-0.105319 0.0787382 0.169078
-0.184664 0.0573569 -0.150259
0.187915 -0.212172 0.150341
0.194792 0.318117 0.17576
0.150876 -0.292367 -0.188297
-0.189212 -0.218308 0.125431
0.136726 0.366614 0.0496509
0.0582155 -0.196397 0.0715027
0.146458 0.0787382 -0.114258
0.174722 0.342322 0.150341
0.194792 -0.0233298 -0.187186
0.171157 -0.356237 0.200178
-0.0474619 -0.218664 0.134665
0.0124146 0.374585 -0.22613
-0.102141 -0.196397 0.0564672
-0.0971343 0.366614 -0.0386657
0.132715 0.0787382 0.0633738
-0.0622652 -0.196397 -0.0891677
-0.0156415 0.366614 -0.113065
0.0562575 0.347528 0.202947
-0.0709895 -0.196397 0.00449562
-0.00202806 0.380909 -0.00770769
0.165374 0.347991 -0.218531
0.0701557 0.353213 0.194875
-0.0347516 -0.196397 0.0127505
-0.171472 0.363073 0.150341
0.0746638 -0.196397 -0.167245
-0.192418 -0.313751 -0.184498
-0.163209 0.0787382 0.0494163
-0.21886 0.380909 0.0143426
-0.0367849 -0.196397 0.136832
-0.190981 0.379531 -0.191652
0.00566158 0.0787382 -0.16804
-0.194874 -0.230838 -0.182816
-0.150341 0.237338 -0.18279
-0.00877317 -0.218664 -0.122982
0.189553 0.366614 0.153423
0.116413 0.0787382 -0.0776824
-0.18776 -0.205677 0.058607
0.01858 0.366614 0.134972
0.077685 -0.196397 -0.00676882
-0.145268 -0.210638 -0.187767
0.0630956 -0.214294 0.188307
-0.00252787 0.0787382 0.119531
-0.150341 0.331226 0.180542
-0.158132 0.247246 -0.194792
-0.187769 0.0695919 0.00884278
0.160745 0.176047 0.150341
0.0745623 0.380909 -0.0911423
-0.0708285 0.380909 -0.102056
0.0538307 -0.218664 -0.0644526
-0.156898 0.380909 -0.210493
-0.132872 0.380909 0.11117
0.0276039 -0.196397 -0.129651
0.194792 0.260985 -0.194676
0.151424 0.234724 0.194875
0.0786625 0.366614 -0.0791966
0.190686 0.140913 0.194875
-0.201687 0.347528 -0.133599
0.0709448 0.380909 -0.152711
0.150259 0.0867464 0.164435
0.150259 -0.145928 0.1709
-0.0667635 0.359321 -0.194792
-0.190738 0.201739 -0.150259
-0.172739 -0.218664 0.0094253
0.139826 -0.196397 0.0866227
-0.0724765 -0.218664 -0.0424943
0.0119946 -0.218664 -0.0998607
-0.0862712 0.0564715 0.150206
0.200904 -0.337287 0.17422
-0.00613468 0.0787382 0.0458412
0.0703003 -0.196397 -0.0680827
-0.191354 -0.0016606 0.194875
-0.226883 0.380713 0.202172
-0.163012 0.380909 0.124843
-0.0741099 0.366614 -0.16419
0.0464258 0.347528 0.212045
-0.00373717 -0.218664 -0.0865331
-0.131954 0.0564715 0.177089
-0.168531 0.0606187 0.15034
0.140275 -0.218664 -0.146872
-0.193808 -0.109595 0.194875
-0.152732 0.366614 0.162243
-0.10686 -0.196397 -0.0840222
0.154816 0.1799 0.150341
0.0199965 0.380909 -0.19017
-0.0959209 -0.196397 0.062898
0.191966 0.358161 -0.194792
-0.153991 -0.135331 -0.194792
-0.200952 0.380909 0.0477927
0.0655987 -0.196397 0.178123
-0.16595 -0.218664 -0.104866
-0.00416303 -0.218664 -0.0856546
0.128859 -0.218664 0.130684
0.176471 0.369576 0.220377
-0.201126 0.347528 -0.192717
-0.106293 0.380909 0.224306
0.0718086 -0.218664 -0.117761
-0.148722 -0.218664 0.145041
-0.00480776 0.0564715 -0.0634562
-0.189033 0.221782 -0.150259
0.189769 0.305551 -0.194792
0.159549 0.00155248 0.150341
0.168608 0.0772623 -0.194792
-0.194874 0.258557 0.1684
-0.181022 0.375938 0.228448
0.165872 0.366614 -0.151885
-0.194874 -0.239951 0.175332
0.150259 0.17735 -0.193123
0.17953 -0.279119 -0.152469
-0.193692 0.0591938 -0.194792
-0.194038 0.380367 0.0218268
0.194299 0.347528 0.209049
0.182699 0.34717 0.194875
0.117794 0.0662257 -0.187668
-0.134667 0.347528 0.199364
-0.179072 -0.330901 -0.17604
-0.127504 0.0564715 -0.0118327
-0.150341 0.0661511 0.185231
-0.0799459 0.0787382 0.11631
0.095707 -0.196397 -0.113214
-0.16267 -0.287797 0.186501
0.107151 0.380838 -0.226386
-0.160392 -0.338126 0.188918
-0.179664 -0.287797 0.172665
-0.202893 0.380909 -0.146764
0.182664 0.111858 0.150341
-0.11397 0.366614 -0.0966655
-0.171715 0.0564715 0.0625311
0.194792 0.358193 0.0757626
-0.210548 0.347528 -0.13155
-0.00764521 0.380909 -0.186503
-0.163126 -0.296467 0.173027
0.159508 -0.218664 -0.127928
0.150259 0.184448 0.178193
0.194792 0.189067 -0.162162
0.0709526 -0.196397 -0.158745
-0.0229573 0.0564715 -0.108118
-0.0470035 -0.218664 -0.187202
0.151215 0.380909 -0.0690202
-0.194874 -0.068966 0.180922
0.140824 0.380909 0.0383832
-0.169785 0.380909 0.183534
-0.139025 0.0564715 -0.177111
-0.170704 -0.280898 0.150399
-0.194874 0.172476 -0.189492
0.140223 0.0564715 0.0475444
0.187749 -0.210866 -0.0601743
0.0247342 0.0564715 -0.183597
0.168204 -0.347855 -0.192378
-0.196267 -0.306851 0.173604
-0.140772 -0.196397 0.0326676
-0.176511 0.380909 0.0717159
-0.183641 0.380909 0.0711213
-0.131047 0.366614 0.0871876
0.183462 -0.196397 -0.106974
0.168002 -0.330901 -0.190144
-0.0484939 0.380909 0.145556
0.187599 0.0676198 -0.0276549
-0.167421 -0.322346 -0.169975
-0.0520356 -0.20013 -0.188331
-0.0708341 0.366614 0.168609
0.174476 0.285369 -0.150259
-0.186699 -0.287797 0.168859
-0.194874 0.120042 0.19085
0.162601 0.380909 0.0313173
-0.168222 0.0787382 -0.0204507
0.0577558 -0.218664 -0.0893671
0.0341918 0.0564715 0.035006
-0.0492157 0.0610235 0.188277
0.0986198 -0.218664 0.0853794
-0.166825 -0.196397 0.0326413
-0.152356 -0.196397 0.0914454
0.0675904 0.0787382 -0.0891262
-0.150341 -0.212449 -0.165066
-0.11864 0.366614 -0.124118
0.172812 -0.313751 -0.18272
0.0306078 -0.196397 -0.104238
0.150259 0.111763 0.155795
0.194792 0.349453 0.068075
0.123697 0.373601 0.224467
0.183027 -0.37277 -0.180233
-0.228013 0.380043 -0.155037
0.152701 0.366614 0.0494361
-0.0660882 0.360082 0.194875
-0.150341 0.0329793 -0.169595
-0.16255 -0.124333 0.194875
-0.174696 0.354719 -0.217338
-0.188237 -0.20119 0.0842036
0.105961 0.380909 0.164768
-0.17478 -0.347855 -0.164071
0.0943014 0.350308 0.194875
0.144187 0.380909 0.148196
-0.0110171 -0.196397 0.0646072
0.124891 0.380909 0.0348394
-0.209158 0.352888 0.217893
0.118722 -0.196397 0.138265
-0.170485 0.380909 -0.173759
-0.149546 0.0777541 -0.0644402
-0.132838 0.378265 0.228958
-0.10872 -0.218664 0.0152453
-0.148858 -0.218664 0.101949
-0.192011 0.337387 -0.150259
0.143915 0.380909 -0.0822292
-0.188905 -0.217154 0.145481
0.0742444 0.380909 -0.190247
-0.0797602 0.380909 0.217635
-0.133993 0.366614 0.13547
0.150259 0.102867 -0.17696
0.227188 0.380588 -0.108548
-0.0693998 0.0787382 0.159662
-0.203398 0.380909 0.163441
0.0469099 -0.196397 0.126821
0.116623 -0.214541 -0.188266
0.0968887 0.366614 0.187813
0.194792 0.157148 -0.184044
0.145142 0.380909 -0.0792876
0.119832 -0.196397 -0.171915
0.150259 -0.0559945 0.182501
0.182434 -0.315105 -0.197124
0.0383191 -0.196397 -0.0635084
0.176606 0.366614 -0.0269991
0.0742837 0.0564715 0.105582
-0.165778 0.0581328 -0.150259
0.0647853 0.347528 -0.201467
0.148703 0.0564715 0.1061
-0.138881 -0.218664 0.189195
-0.0832095 -0.196397 0.0187626
0.0857663 0.380909 0.017914
-0.0257921 -0.218664 0.11551
0.150259 0.276745 -0.176356
-0.159379 0.366614 -0.13406
-0.0399457 0.366614 0.0774048
-0.0317867 0.0585369 -0.188688
-0.0183494 -0.196397 -0.0209067
0.194792 0.315312 -0.179336
-0.166529 -0.305122 -0.185952
-0.0763044 -0.196397 0.010153
-0.168648 0.362566 0.150341
-0.036211 -0.218664 -0.0216631
-0.216975 0.356811 0.186347
0.0346216 -0.218664 -0.168607
0.196826 0.380909 -0.216502
0.170185 0.37426 0.225427
-0.184607 0.366614 -0.0266281
-0.187923 -0.307425 -0.152658
0.154679 -0.181061 0.150341
-0.209025 -0.372772 0.208783
0.0171859 -0.196397 -0.0830945
0.042762 -0.196397 0.122929
0.164891 0.302317 0.150341
0.149223 0.380909 -0.222877
0.131257 0.0564715 -0.119877
0.0818474 0.0564715 -0.130281
0.157147 -0.208233 -0.150259
-0.150341 -0.161137 -0.179844
-0.133053 0.380909 0.219666
-0.0869691 0.366614 0.124388
0.155556 0.380909 -0.201618
-0.0515259 -0.218664 0.0125442
0.0793087 0.366614 0.123352
0.0979017 0.0787382 -0.0632292
0.200769 0.380909 0.00543987
-0.163053 0.380909 -0.185899
-0.192474 -0.089169 -0.150259
0.0950003 0.0564715 -0.166639
-0.199066 -0.339407 0.164519
-0.0496905 0.366614 0.145541
0.105041 0.380909 0.202346
-0.195238 -0.312618 0.153631
0.00751118 -0.218664 -0.110412
-0.0743173 0.0719334 -0.187881
0.117974 0.380909 -0.0672536
-0.0582395 -0.218664 0.0984444
-0.163076 0.0564715 0.0779251
0.167913 -0.218664 0.063564
0.0995403 0.366614 -0.159713
0.0594883 0.0564715 0.124162
0.174267 -0.347855 -0.174898
-0.0809609 0.366614 0.108084
0.196723 0.347528 0.185529
-0.0904132 0.380909 -0.0104702
-0.0593535 -0.212076 -0.187906
-0.119096 0.380909 0.175896
0.159022 0.366614 -0.0529974
0.173649 0.305409 -0.194792
0.118658 0.366614 -0.020918
-0.21735 0.347528 -0.126124
0.204242 -0.351252 -0.187552
-0.0703844 -0.196397 -0.132283
0.123965 0.0564715 -0.0740652
0.105666 -0.209862 0.187793
0.0994751 0.366614 -0.119482
0.12787 -0.196397 -0.105392
-0.136055 -0.198725 0.188713
-0.185143 -0.103956 -0.194792
0.214268 0.380909 0.0785805
0.125661 0.0564715 -0.0471591
0.0716426 0.0564715 0.0641715
0.208114 0.347528 0.109097
-0.122131 0.380909 0.0479797
-0.150341 0.00211251 -0.169328
0.0498777 0.36052 -0.194792
0.0395237 0.367075 0.218818
-0.0675611 0.380909 -0.015222
-0.157549 0.358702 0.216891
-0.141786 0.0564715 0.016356
-0.166918 -0.00603881 -0.150259
0.172535 0.320606 0.150341
0.177707 0.380909 -0.107829
0.152943 -0.262996 -0.194792
0.0494127 -0.218664 -0.0627848
0.000853516 0.0787382 0.109932
0.0524608 0.0772598 0.188913
0.170324 0.0564715 -0.053807
0.0790818 -0.196397 -0.08438
0.156109 0.380909 -0.11987
0.123025 0.366614 -0.0739535
0.150259 0.14284 0.187095
-0.108457 0.0787382 -0.00946179
0.163861 -0.296467 0.195174
0.183327 -0.207598 0.194875
-0.151911 -0.301755 0.183723
-0.194874 -0.248987 -0.186672
-0.151492 0.366614 -0.100861
-0.14716 -0.197849 0.018557
0.0326114 -0.196397 0.029154
0.1944 -0.362569 -0.207494
-0.0922253 -0.196397 0.0998251
-0.144594 0.380909 -0.217781
0.180949 -0.00284125 -0.194792
0.150259 0.0785251 0.176144
-0.17567 -0.283073 -0.194854
-0.0144869 0.0564715 -0.019819
0.16108 -0.340316 -0.16982
-0.158746 0.143362 0.194875
-0.163694 0.35638 -0.194792
-0.170238 -0.0880165 0.194875
-0.00665363 -0.218664 -0.143216
0.0288045 -0.217424 -0.188896
-0.194874 0.295509 0.162651
0.113846 0.380909 0.130367
0.120569 0.0787382 -0.162508
0.0663751 0.0564715 -0.0960434
-0.150341 -0.205665 0.172609
-0.00309657 -0.218664 -0.00341818
-0.152038 0.355444 0.150341
-0.150341 -0.0918444 0.176874
0.0301712 0.380909 0.116479
-0.0754339 0.350764 0.21864
0.187627 -0.208694 -0.0445643
-0.215659 0.380909 -0.0210446
0.184473 -0.287797 0.179385
-0.164241 0.0597445 -0.150259
-0.120618 -0.218664 0.0678041
0.154486 -0.062607 0.150341
-0.0901218 0.366614 0.030485
0.0213202 0.366614 0.155061
0.161646 0.380909 -0.0120825
-0.139028 0.0564715 -0.0668508
-0.180422 -0.317385 -0.197443
0.0579438 0.0787382 0.097468
-0.157728 -0.310527 -0.196584
0.207206 0.347528 -0.0682591
-0.109018 -0.200747 0.18831
0.126197 0.380909 0.150324
0.150259 -0.215822 -0.187723
0.202084 -0.377004 0.212511
-0.173825 -0.0947567 0.194875
-0.090292 0.0787382 -0.143745
-0.151341 0.291424 -0.194792
-0.169578 0.192527 -0.150259
0.0832414 0.0564715 0.131328
-0.162682 0.19371 0.194875
0.141713 0.358269 -0.216904
0.090451 -0.218664 0.0186963
0.194792 0.161808 -0.183668
0.158085 0.366614 0.0684388
0.00229577 -0.218664 -0.0194634
0.0548659 0.366614 0.0964814
-0.167142 -0.296467 0.183326
0.174736 0.366614 0.0702887
-0.00431061 -0.196397 0.129267
-0.165336 0.259143 -0.194792
-0.178918 0.0439722 0.194875
-0.0835085 0.366614 -0.121264
0.107084 -0.196397 0.0118327
0.156343 0.343911 0.150341
-0.0501532 -0.196397 -0.122307
0.193355 -0.0150802 -0.194792
-0.196368 -0.313751 -0.183825
0.0669914 0.0787382 0.0838115
0.0294252 0.0787382 0.173502
-0.04866 0.380909 -0.221201
-0.150341 0.339962 0.159671
-0.140308 0.366614 0.0787315
0.0871342 0.0787382 -0.113495
0.047239 -0.196397 0.128862
0.0203203 0.0564715 0.0298083
-0.180759 -0.37879 0.204001
-0.136725 -0.196397 -0.112358
-0.177389 -0.196397 0.148722
-0.184337 -0.364546 0.193904
0.106267 0.380909 -0.0536589
0.183401 -0.356237 -0.175228
-0.0943052 0.380909 0.0371644
0.194792 0.350537 0.0529082
0.0577227 0.380909 0.207135
-0.160775 0.380298 -0.22768
0.150259 -0.241837 0.16308
-0.150341 -0.140687 0.154054
0.194973 -0.380909 0.185724
0.116059 0.0763518 0.147545
0.161135 0.350044 -0.194792
0.0265962 0.0787382 -0.103924
0.0241975 -0.196397 0.045341
-0.18811 0.0564715 0.0356559
0.150259 -0.169792 -0.187502
-0.150341 -0.215027 -0.190081
0.0225281 0.366484 0.194875
0.110395 0.0787382 -0.125763
-0.0960163 -0.197995 0.147159
0.0303721 0.0564715 -0.158627
0.152871 0.0564715 -0.0125676
0.0458995 0.0787382 -0.154306
-0.194874 0.34157 0.191518
-0.0113446 0.380909 0.0576737
0.0835398 0.380909 -0.060664
0.0599373 0.366614 0.168883
0.198059 0.380909 -0.210278
0.213163 0.380909 -0.0478878
0.0816997 0.380909 0.1018
0.187747 -0.204224 -0.0760437
-0.0887554 0.0564715 -0.0620489
-0.194874 0.13573 0.175888
-0.167565 -0.196397 0.0884232
0.102353 -0.218664 -0.171982
-0.162653 0.0564715 -0.0144255
-0.150341 0.244622 0.158566
0.180239 0.366614 0.172819
-0.0134169 -0.196397 0.0558997
-0.150341 0.214959 0.152187
0.128965 -0.196397 -0.116008
0.160556 0.0787382 0.0413515
-0.182549 -0.299146 -0.195535
-0.0429995 0.0564715 0.118806
-0.0211196 0.366614 0.0446401
0.0143956 0.0787382 -0.0482603
0.179097 -0.0225469 0.150341
0.150259 0.302768 0.184852
0.169618 0.0152049 0.194875
0.168445 -0.311188 -0.196656
-0.15639 0.234085 0.150341
-0.194874 -0.120614 0.16172
-0.219128 0.367594 0.216302
0.156724 -0.199405 0.194875
-0.194874 0.0716173 -0.168508
0.0526944 -0.196397 -0.0102496
-0.108309 0.0564715 -0.069211
-0.11227 0.380909 0.0871138
-0.0375363 -0.196397 0.151927
0.15372 -0.218664 -0.149386
-0.033904 0.380909 0.161039
-0.194874 -0.276975 0.181063
-0.163182 -0.0847657 0.194875
-0.194874 -0.176341 0.179325
0.172227 0.344774 -0.150259
-0.0356326 -0.218664 -0.0387128
-0.192418 -0.165556 0.194875
0.064415 -0.196397 -0.0342023
0.21452 0.37327 -0.223985
-0.194929 -0.364545 -0.202288
-0.172839 -0.322346 -0.175601
-0.0754138 -0.196397 0.112277
0.00213473 0.380909 -0.167594
0.026322 -0.196397 -0.0457011
-0.0985845 0.0564715 -0.0769697
-0.194874 0.342253 0.188448
0.0196885 0.380909 -0.22465
0.16229 -0.28946 -0.195004
0.181076 -0.346393 0.203063
-0.0750335 -0.196397 0.137729
0.0467071 0.380909 -0.107342
-0.153343 -0.262782 -0.150259
0.119918 -0.198784 -0.148479
0.194792 -0.23317 0.152806
0.164815 -0.305122 -0.158688
0.191967 -0.312352 0.153586
0.168321 -0.347855 0.200639
0.194792 0.134003 0.168326
-0.150533 -0.254016 -0.194792
-0.139954 0.366614 0.0489228
-0.194874 0.365283 -0.140215
-0.188661 -0.322347 -0.185397
0.00381199 -0.196397 0.00617804
0.0581316 0.0787382 -0.131566
0.150259 0.0263707 -0.185906
0.0727124 0.0787382 0.00707893
-0.150341 0.326896 -0.177059
-0.194874 -0.237232 -0.179573
0.0305538 0.0787382 0.135408
-0.0763982 0.0787382 0.0796874
-0.0451744 -0.196397 -0.154238
0.145593 0.0564715 -0.0301055
0.193019 -0.233976 -0.150259
-0.0205769 0.366614 0.140955
-0.103665 0.366614 -0.12764
-0.139518 0.0787382 0.157973
-0.188676 -0.181324 -0.150259
-0.162195 -0.322346 0.155775
-0.0568451 0.366614 0.0241769
0.0686426 0.380909 -0.121633
-0.140801 -0.196397 -0.110674
0.130133 0.0787382 -0.0154722
0.152077 0.366614 -0.128397
-0.00211976 0.0787382 0.0863619
-0.150341 -0.0520209 0.164453
-0.187817 0.211334 -0.194792
-0.21743 0.354311 0.173364
-0.0864861 0.366614 -0.0231719
-0.153175 0.366614 -0.0228606
0.229007 0.377892 0.127594
-0.00331708 -0.218664 0.0286834
-0.0341302 -0.218664 -0.0419955
-0.185586 0.00327098 -0.194792
-0.175278 0.380909 -0.151973
0.174601 -0.218664 -0.0752534
-0.00779302 0.366614 -0.0519524
-0.00956903 0.380909 0.160585
-0.0445878 0.380909 0.221268
-0.132846 0.0787382 0.128787
0.112696 -0.205917 -0.187674
0.111683 0.366614 -0.0536541
0.00919143 0.365837 0.218296
0.000887066 0.0564715 0.070057
0.080776 0.366614 -0.0319795
0.150259 0.0746587 -0.185752
-0.0125751 -0.19779 0.149546
0.159996 -0.018324 0.150341
-0.13674 0.0787382 -0.129495
0.066673 -0.196397 0.0541921
-0.150341 0.0529917 -0.178331
-0.0865729 -0.196397 -0.00636084
-0.15125 0.151764 0.150341
0.150259 0.320824 -0.163771
-0.171888 -0.196397 -0.0510047
0.123661 0.0787382 0.0101539
0.188477 -0.19936 0.0254291
-0.0922699 -0.212516 -0.187958
-0.0238129 0.353929 -0.194792
0.167109 -0.354853 0.18854
0.0582272 0.380909 0.0887078
-0.0733164 0.0564715 0.128337
-0.0664348 -0.196397 0.156167
0.160004 -0.196397 -0.129447
0.137634 0.0564715 0.180407
-0.217284 0.380909 -0.17986
0.194792 0.350575 -0.0321035
0.101515 0.366614 -0.188824
-0.194874 -0.170426 -0.17332
0.130569 -0.218664 0.133859
-0.147504 0.380909 0.149007
-0.08336 0.0787382 -0.178101
0.194792 -0.113732 0.155208
0.194792 -0.250958 -0.183797
0.038153 0.380909 0.221961
0.166073 -0.306431 -0.152487
-0.182002 0.348843 -0.194792
0.194647 0.262621 0.194875
-0.0436112 0.0564715 0.0728966
0.0930224 0.380909 0.183689
0.183324 0.366614 -0.181171
0.208214 0.347528 -0.00665703
-0.139986 0.0787382 0.0686244
0.152648 0.10642 0.150341
-0.150341 0.331061 -0.186776
-0.208922 0.380909 0.149714
-0.0183462 -0.196397 -0.0690021
0.0835039 -0.218664 -0.114089
-0.153819 -0.218664 -0.00894853
0.149983 0.380909 -0.0168258
0.167182 -0.313751 -0.170105
0.13655 0.0787382 0.087765
0.194792 0.167038 -0.188308
-0.150341 0.0558531 0.187243
-0.106352 0.0787382 0.172141
0.194792 0.360729 0.0798011
0.160249 -0.218664 -0.0743658
-0.194874 -0.206391 0.186143
0.194416 -0.193429 -0.194792
0.161449 0.0564715 -0.142334
0.0522535 -0.196397 -0.116076
-0.196867 0.380909 -0.165876
-0.153365 0.366614 0.0760413
0.174936 -0.339407 0.180917
-0.206112 -0.357718 -0.20051
0.0252079 0.380909 -0.0651731
0.0811303 0.0787382 0.08384
0.0883974 0.0787382 -0.0292839
-0.117143 -0.198997 -0.188573
-0.103869 -0.218664 0.0077075
0.0126475 0.0564715 -0.0446136
0.194792 0.0228777 -0.17324
-0.160494 0.0564715 -0.0801013
0.194792 -0.0656552 0.194228
-0.194874 0.0329887 0.159826
0.175215 -0.322346 0.171034
-0.0798887 0.0564715 0.0894074
-0.179423 -0.218664 0.0193105
0.130212 0.366614 0.0396556
-0.0893072 -0.218664 0.138685
0.197359 0.347528 0.122392
-0.0797452 0.366614 0.0225039
-0.157318 0.380909 0.0515437
0.178654 0.0489951 -0.194792
-0.161958 0.357676 0.150341
0.172925 -0.225441 0.150341
-0.134293 0.0787382 -0.155541
0.167136 -0.218664 0.0814958
-0.118371 -0.20856 0.187741
-0.113941 0.380909 -0.184185
0.155193 0.380909 -0.216891
-0.129622 -0.218664 -0.177079
0.0593222 0.380909 -0.0704847
0.188614 -0.169239 -0.194792
-0.205813 0.347528 0.142496
-0.191964 -0.304854 0.196059
0.191084 -0.380909 -0.191687
0.194792 0.000475191 -0.163076
0.0049267 0.366614 -0.176442
0.190336 0.00487639 0.194875
0.0248506 0.0787382 -0.0921366
-0.194874 0.239477 0.188787
0.0265503 0.0787382 -0.0644865
-0.0659409 0.0564715 -0.0371964
0.032288 0.380909 0.170109
0.0794145 0.0787382 -0.114655
0.0678406 -0.196397 0.0621288
0.194792 0.350225 -0.0934214
0.0663085 0.0787382 -0.188212
0.211661 0.380909 0.0234478
0.193398 -0.366255 0.173008
0.194792 0.117332 -0.188166
-0.00343676 0.0564715 -0.161604
-0.164204 0.366614 -0.0962968
-0.188078 -0.218664 0.0762649
0.184114 -0.347855 0.16984
-0.0104595 0.0787382 0.0850987
-0.0614108 -0.196397 -0.00700201
0.00240317 0.0787382 -0.162637
0.194792 0.360997 0.0910115
0.0852566 0.366614 -0.164814
0.0742743 0.0564715 0.0181936
0.143834 -0.218664 -0.188775
0.127996 0.0564715 -0.0931006
0.194792 -0.265993 0.189704
0.0457882 -0.218664 0.0742195
-0.1538 -0.146058 -0.194792
0.169273 -0.0180193 0.150341
-0.0380108 0.366614 0.177615
-0.0597107 -0.218664 0.103706
0.0305164 0.347528 0.20491
0.0440079 0.376098 0.228571
0.159337 0.0787382 0.123525
0.150259 -0.107386 0.190994
0.0240705 0.0564715 0.0962494
-0.159309 -0.328548 0.199284
0.10671 -0.218664 0.128738
0.151698 0.281774 0.194875
0.201244 -0.380909 -0.187389
0.0181716 0.366614 -0.162859
0.185789 -0.349666 0.164872
0.213076 0.347528 0.0418227
0.150259 -0.0774344 -0.180221
-0.159987 0.145791 0.194875
-0.109396 -0.218664 -0.108548
0.0439524 0.380909 0.0253288
0.20176 0.367764 -0.219231
-0.150607 0.380909 -0.147187
0.0775006 0.366614 0.0379405
-0.17139 0.167442 -0.194792
0.159261 0.0564715 -0.0878697
0.105678 0.366614 0.0384746
-0.153464 0.0564715 0.0694887
-0.114755 0.348748 0.194875
0.0545429 -0.196397 -0.033502
0.185453 0.380909 0.147754
0.17026 -0.215507 -0.150259
0.032541 -0.196397 -0.0889126
-0.164955 -0.330901 -0.179951
0.194792 0.147495 -0.179155
-0.165055 -0.022479 -0.150259
-0.159851 -0.196397 -0.0870614
0.0709464 0.366614 -0.0548256
0.150259 -0.103388 0.183852
0.102947 -0.218664 0.159865
0.118617 0.380909 -0.0714509
0.000803746 0.380909 -0.15589
0.183614 0.0787382 0.0309904
-0.178023 0.255228 0.150341
0.164682 -0.349392 0.178366
0.0662118 0.0787382 -0.166331
-0.179871 0.0857558 -0.194792
-0.150341 -0.205142 -0.163584
-0.0154593 -0.218664 0.161472
-0.0134665 0.380909 0.144451
-0.0226227 0.0564715 0.173524
0.14528 0.380909 0.102872
-0.150341 0.351958 -0.16849
0.0887416 0.380909 -0.0963016
0.0478246 -0.196397 -0.134048
0.122966 0.366614 0.0603987
0.192585 0.0384486 0.194875
0.0172392 0.0564715 0.0194828
0.167371 -0.339407 -0.19
0.0756522 0.380909 0.0615622
0.150259 -0.133051 0.183941
-0.129489 0.366614 0.105244
0.194792 0.351531 -0.159993
-0.167983 -0.224673 -0.150259
-0.150341 0.347056 -0.162574
-0.0335476 0.0787382 -0.182766
-0.157937 0.366614 -0.158402
-0.00687503 -0.196397 0.0397466
0.117677 0.0787382 -0.0505676
-0.120149 -0.218664 0.097977
0.180694 -0.330901 -0.183039
0.187333 0.380909 -0.0321925
0.168845 0.366614 -0.133335
-0.187856 0.0708268 0.0843328
-0.194038 0.380164 -0.0826872
0.0457383 -0.196397 0.0222323
0.16778 -0.296467 -0.177837
0.104042 0.0787382 0.168039
0.160998 -0.312844 -0.196836
0.0914425 0.0763851 -0.149463
0.0331004 0.0564715 -0.160004
-0.150341 -0.163276 0.169938
-0.158781 0.0667115 0.194875
-0.0935565 0.0787382 0.0997836
0.11847 -0.218664 -0.0921484
-0.0160679 0.380909 0.0249713
0.177881 -0.374535 0.206507
0.108496 0.366614 -0.0716835
0.103017 0.0564715 -0.0659103
-0.177651 0.0732318 -0.150259
0.158897 -0.328718 0.157452
-0.189042 -0.356236 0.173985
-0.205253 -0.354709 -0.199871
-0.00744845 0.0787382 0.00560278
-0.181174 -0.208552 0.194875
0.194792 0.145719 -0.156229
0.153934 -0.196397 -0.00706594
-0.0560657 0.380909 -0.0508911
0.108745 -0.196397 0.132862
-0.0301649 0.0787382 -0.175871
-0.156105 -0.278306 0.150341
-0.194874 -0.201931 0.172788
-0.187731 -0.208134 -0.138611
0.0666635 -0.218664 -0.124124
0.0303822 -0.218664 0.0869935
-0.207716 -0.364545 -0.203265
-0.175155 0.380909 0.0602845
0.194792 -0.180743 0.154451
-0.0881138 0.366614 -0.115495
-0.150341 -0.0657772 -0.189865
-0.0965215 0.0787382 -0.0650566
-0.146426 0.0787382 0.107282
0.154693 -0.309622 -0.196486
-0.150341 0.291675 0.182353
0.0360541 0.347528 -0.199636
0.0662894 0.0564715 0.0840444
0.000211798 0.0564715 0.114082
0.105148 0.0787382 0.0920765
0.0559116 0.366614 -0.0698512
0.0742783 -0.196397 0.00492765
-0.150341 -0.191311 -0.188773
0.150259 0.16079 -0.183153
0.150259 -0.0516849 -0.187634
-0.10286 -0.218664 0.0295079
0.177893 0.0630591 0.15034
0.0310337 -0.196397 -0.15154
-0.184118 0.366614 -0.0673982
-0.150341 0.0887124 0.165914
0.0586307 0.0564715 -0.130872
-0.0431541 0.0787382 0.0192308
0.0383439 -0.196397 0.134335
-0.0967883 0.373168 -0.223836
-0.16948 0.068546 0.150341
-0.173353 -0.218664 0.0337604
-0.178933 0.380909 -0.209011
-0.0469085 0.380909 0.0525776
-0.163114 -0.178918 0.194875
-0.123372 0.0564715 -0.0246523
-0.0316334 -0.196397 0.107471
-0.0319686 -0.196397 -0.186688
0.017642 0.366614 -0.182027
0.0181761 0.0564715 0.0923598
-0.159034 0.0564715 0.135949
0.204269 -0.364545 -0.201974
0.194792 -0.120081 -0.162921
-0.150341 0.229471 -0.162525
-0.0446186 0.0582651 -0.188748
-0.058107 -0.218034 -0.189058
0.117839 0.380909 -0.11245
-0.0680941 -0.218664 0.0015894
0.0736395 0.0785076 -0.147078
0.0747992 0.0564715 0.136719
-0.206522 -0.364545 -0.172161
-0.195445 -0.296917 -0.188485
0.0320885 0.0564715 0.126055
0.150259 0.0327754 -0.15775
0.107029 0.380909 -0.133922
-0.066781 0.380909 0.0553823
-0.088953 -0.196397 -0.188075
0.194792 -0.15209 0.180036
-0.194874 -0.0536115 0.174552
-0.0873095 -0.218664 0.14437
0.1881 -0.196397 -0.0389275
0.218957 0.349912 0.149659
-0.189681 0.380909 0.106877
0.0723809 0.366614 0.107124
-0.0819859 0.0564715 0.0179962
0.150462 -0.285381 -0.187557
0.0839503 0.366614 0.0992446
-0.118739 0.380909 -0.0931436
0.134174 -0.218664 0.0920629
0.182569 -0.124066 -0.150259
-0.16039 0.123221 0.150341
-0.175697 -0.212899 0.194875
-0.0880954 -0.198146 -0.149463
-0.148389 -0.200559 -0.188259
-0.19235 -0.0863571 0.150341
0.0392779 0.378524 -0.191655
0.192735 0.165883 0.194875
0.135873 0.366614 0.150836
0.146409 0.0564715 -0.182438
0.069148 0.380909 -0.132849
0.174506 -0.34153 0.201918
0.169986 0.359784 -0.216886
-0.123636 0.366614 0.115073
-0.046888 -0.218664 0.0111276
0.0494673 0.380909 -0.00997351
-0.193615 0.378524 0.0443947
-0.204768 0.380909 -0.0440575
-0.030622 -0.218664 -0.0389876
0.217678 0.36417 -0.118557
-0.109854 0.380909 -0.172004
-0.0557147 -0.196397 -0.0429532
0.169523 -0.307181 -0.152616
-0.194874 0.0901844 0.18389
0.194792 0.102521 -0.160582
0.063922 0.366614 0.09087
0.169276 0.0340851 0.150341
-0.189336 -0.339407 -0.161757
0.151618 0.366614 6.15418e-05
-0.00752769 -0.20756 0.187718
0.194792 0.357733 -0.165881
-0.117458 0.380909 -0.217422
0.106251 0.0787382 -0.152274
-0.0578497 0.366614 0.187363
-0.0555121 -0.196718 0.189221
-0.124123 0.366614 0.0932186
0.167074 -0.218664 0.0268912
-0.0178401 0.0787382 -0.00355742
-0.165643 0.0787382 -0.0325508
-0.134987 -0.218664 0.0245458
-0.080333 -0.196397 0.0540712
-0.185673 -0.218664 -0.0970813
0.150259 -0.142901 -0.193723
0.0613704 0.0627371 0.188027
-0.194874 0.0927543 0.175224
-0.194874 -0.120224 -0.166498
-0.158166 0.366614 -0.163341
0.0124903 0.380909 0.220264
0.108427 0.372946 0.223562
-0.138405 0.0787382 0.0624179
-0.229012 0.377847 -0.0118479
0.0282621 0.366614 0.082162
0.0979259 0.366614 -0.0192657
-0.184109 -0.362822 0.171139
0.0247872 0.380909 0.147966
0.144539 0.0787382 0.0154376
0.167895 -0.310917 -0.196627
-0.0200598 -0.196397 0.140515
-0.0837446 0.380909 -0.20341
-0.167334 -0.296467 0.176227
-0.0868924 0.0787382 -0.0420662
-0.0847825 -0.196397 -0.136165
-0.173647 -0.322346 0.160319
-0.172192 -0.327365 -0.198998
0.194792 0.213472 0.166761
-0.100038 0.0564715 -0.110045
0.110724 0.0787382 -0.00552627
-0.130363 0.0564715 -0.0698666
-0.12144 0.380909 -0.0242372
-0.14716 -0.196453 0.133304
-0.185076 -0.00295273 0.194875
-0.188929 -0.217244 -0.00961771
0.150259 0.0725793 0.166619
0.150259 -0.0808459 -0.158905
0.188996 0.366614 -0.0847647
-0.126181 -0.218664 0.13642
0.101601 0.380909 -0.213446
0.195055 -0.290575 -0.164917
0.136971 0.0564715 -0.118111
0.150259 -0.202657 -0.162054
0.0946313 -0.218664 0.0155525
0.101386 0.0564715 -0.120107
-0.0873254 0.380909 0.0514612
-0.167185 -0.196397 0.119981
0.190196 -0.339407 -0.191545
0.159449 -0.23874 -0.150259
-0.0799784 0.0564715 -0.0167769
-0.163178 0.231016 0.194875
-0.0468279 -0.218664 -0.0962181
0.17814 0.366614 0.173566
0.160692 -0.264427 0.150341
-0.0592456 0.366614 0.188122
-0.00321874 0.366614 -0.158377
-0.150341 -0.0590424 -0.151152
-0.194874 0.23529 0.157893
-0.179504 0.203544 0.150341
0.191863 -0.00679365 -0.150259
-0.119966 -0.203384 -0.187859
0.224644 0.380909 -0.161834
0.160827 0.148 0.150341
-0.0504832 0.380909 -0.0239648
-0.148593 -0.196397 0.164545
-0.0289695 -0.218664 0.0592138
0.189465 -0.0235186 0.150341
0.190869 -0.224378 0.194875
-0.194874 0.357356 -0.12502
-0.143854 -0.196397 0.0437027
0.0113602 0.359218 -0.216876
-0.190971 -0.364545 -0.175478
0.192483 0.378524 -0.156117
-0.101884 0.0787382 0.00882913
-0.194874 -0.190037 -0.166567
0.0146749 0.37605 -0.228534
0.150259 0.204256 0.154246
-0.177446 -0.196397 -0.0265878
-0.194874 -0.0295789 -0.193375
-0.00221572 0.366614 0.0120515
0.162968 0.22565 -0.150259
-0.0889263 0.0787382 -0.0340065
-0.0422458 -0.218664 0.185448
0.0708549 0.0787382 0.0937007
0.0979398 -0.218664 -0.0273046
0.185535 0.247441 0.150341
0.193123 0.364787 -0.194792
-0.0987164 0.0787382 0.0609231
0.216444 0.380909 0.172072
-0.157828 0.366614 -0.157823
-0.194874 0.36128 0.0442416
-0.00509796 -0.199148 -0.18854
0.135087 0.380909 -0.00437888
-0.0200536 -0.218664 -0.0631693
0.135401 0.366614 -0.181223
0.120148 -0.196397 -0.176021
-0.0667192 -0.196397 0.153665
0.120219 -0.218664 -0.175277
0.151751 0.366614 -0.184881
0.194792 0.129596 0.182116
0.163899 -0.218664 -0.0962143
0.159917 -0.160904 0.150341
0.0110789 0.366614 -0.0405717
0.132053 0.0564715 -0.14892
-0.198965 0.380909 -0.0904696
-0.170756 0.380909 0.153206
-0.152263 0.268067 0.150341
0.154067 -0.313751 0.175317
-0.194163 -0.322347 -0.196309
0.217576 0.347551 -0.198777
0.165415 0.20277 -0.194792
0.135873 0.380909 -0.206867
-0.170103 -0.326095 -0.198781
-0.0407558 0.0787382 0.0451849
0.102836 0.0564715 -0.0799266
0.200826 -0.347855 0.17195
0.153239 0.0240418 0.194875
-0.150341 0.171863 -0.171921
-0.177956 0.206377 -0.150259
0.016129 -0.196397 0.101256
-0.177031 -0.211626 -0.194792
-0.184442 0.0681331 0.150341
-0.14716 -0.197573 -0.141564
0.133104 0.0787382 -0.181322
-0.150176 0.366614 -0.044185
-0.216882 0.359017 0.0543003
-0.189542 0.25382 -0.150259
0.164853 -0.218664 0.0138621
0.115872 0.0564715 0.152176
-0.0486689 0.366614 -0.194205
0.194792 0.273424 0.161609
-0.0395716 -0.196397 -0.107104
-0.150341 -0.127828 0.18811
-0.194874 0.167734 0.160937
-0.168905 0.0564715 0.0525119
0.194792 -0.204569 0.187661
-0.100963 0.366614 0.0589213
0.158577 -0.305122 -0.169013
0.0375795 -0.196397 -0.0677793
0.150259 0.0770786 0.171814
-0.0602716 0.0564715 -0.13532
0.19534 0.380909 0.165423
0.164379 0.0564715 -0.0859673
0.194792 -0.143845 0.185044
-0.194874 0.356895 0.0635124
0.179437 0.158031 -0.194792
-0.158353 -0.0744587 -0.150259
0.0271652 0.0787382 -0.0402914
0.180573 0.303983 -0.194792
0.131624 0.380909 0.133257
0.0106002 0.0787382 0.0789454
0.227184 0.374869 -0.0476052
0.150259 0.349568 0.154212
0.0581279 0.0564715 0.153577
-0.19454 -0.214166 -0.194792
-0.155462 0.234951 0.150341
0.172449 -0.0633748 0.194875
-0.162273 -0.105043 -0.150259
-0.0771334 -0.218664 0.00568171
-0.186783 -0.123981 -0.194792
0.154871 0.0564715 0.0983129
-0.169409 0.380909 -0.126874
0.184426 -0.0264623 0.150341
0.150259 -0.114712 0.185444
-0.151932 0.21955 0.194875
0.161042 0.0787382 0.0178667
0.155299 -0.320753 0.15912
0.107254 0.380909 -0.130918
-0.185968 0.380909 -0.145724
-0.126948 0.0564715 0.185455
-0.0947213 -0.218664 -0.0700213
-0.188603 0.0759012 0.0848699
0.194792 -0.193443 0.158606
-0.188987 0.380909 -0.0775359
0.191462 -0.152637 -0.150259
0.0556465 0.0635212 -0.187852
0.210746 0.380909 -0.137003
0.00573611 0.380909 0.0235851
-0.0279065 -0.196397 0.00613888
0.229011 0.377861 -0.0951505
-0.150636 0.188908 0.194875
-0.0654684 -0.200793 0.188303
0.172634 0.380909 0.223447
0.123644 0.380909 -0.189175
-0.111549 0.380909 -0.0401363
-0.108533 0.366614 -0.155364
0.0400968 -0.218664 -0.0915742
-0.0299702 0.0564715 -0.164425
0.187211 -0.121352 -0.194792
-0.021136 0.366614 -0.12722
0.217288 0.355006 0.100206
0.150259 0.135228 -0.193718
0.0503414 0.380909 -0.198072
-0.0368865 0.36226 0.194875
0.109082 0.365787 -0.194792
0.143609 0.0564715 0.0431896
-0.181462 -0.196397 -0.129151
0.150259 0.205808 0.189599
-0.115089 0.366614 -0.104544
0.082499 0.0564715 0.181088
-0.222812 0.372254 0.208744
0.106187 0.0564715 0.11779
0.032565 0.0787382 0.162339
-0.068919 -0.218664 -0.10774
-0.150341 0.273426 0.154624
-0.016175 0.0787382 0.0503168
0.13907 0.378859 -0.228793
0.181937 -0.218664 0.0904866
0.153808 -0.196397 -0.149265
0.175443 -0.268994 -0.194792
0.224263 0.380909 -0.022051
0.17079 0.109691 0.194875
-0.0653487 -0.218664 0.0425269
0.188647 -0.0277888 0.194875
-0.194874 0.319877 0.179979
-0.14081 0.380909 -0.0523467
-0.150341 0.250389 -0.180872
0.174101 -0.0889665 0.150341
-0.0489095 -0.196397 0.0799139
-0.0731231 -0.196397 0.170893
0.131911 -0.196397 -0.179255
-0.181552 -0.085308 -0.194792
-0.194874 -0.0972614 0.1831
-0.194874 0.296189 0.153916
-0.018693 0.347528 0.197972
-0.00155542 -0.196397 -0.000881627
0.212461 0.380909 -0.145994
0.0899008 -0.196397 -0.0308171
-0.194874 -0.198358 0.169626
0.176916 0.0720074 -0.150259
-0.067725 -0.218664 0.0417298
-0.19165 0.380909 -0.16909
0.0423358 0.0564715 -0.179163
-0.179926 0.217007 -0.194792
0.0678932 0.380909 -0.0555925
0.204261 -0.372633 -0.176625
-0.0826983 0.366614 0.171361
-0.208478 0.373462 0.224265
0.0850765 0.366614 0.115459
0.166848 -0.196397 0.0724388
0.150259 -0.0694002 -0.164295
0.182471 -0.0721775 0.150341
0.159426 -0.230327 0.150341
-0.194874 0.363233 0.0821224
0.0612209 -0.218664 -0.115232
0.017533 0.366614 -0.148169
0.0440706 0.366614 -0.0339461
0.217118 0.355989 0.0703513
0.117319 0.380909 -0.219338
0.115677 0.0564715 -0.150085
-0.166487 0.366614 -0.174471
-0.194874 -0.218467 0.154146
-0.0944121 -0.196397 -0.0127977
-0.0910568 -0.196397 -0.0995889
0.0247976 0.0787382 0.00356432
0.121546 0.0564715 0.156682
0.202975 -0.346356 -0.167767
0.216639 0.347528 0.146102
0.150212 0.380909 0.106318
0.199089 -0.33712 -0.159999
-0.128618 0.366614 -0.119975
-0.098664 0.0773216 0.147159
0.162556 -0.168745 0.194875
0.166064 0.380909 -0.164273
-0.0207595 0.0564715 -0.114105
-0.163578 -0.118218 0.150341
0.0623901 -0.218664 -0.084847
-0.194874 0.119477 -0.155488
-0.220531 0.369765 -0.0790848
0.208898 0.380909 0.22478
0.186222 -0.330901 -0.162121
-0.0961928 -0.218664 0.0253545
-0.0295597 0.366614 0.158002
-0.154036 0.0137538 0.194875
-0.0190421 0.0564715 -0.168122
0.178513 -0.109403 -0.150259
-0.100625 0.380909 0.182486
-0.227655 0.380317 -0.135946
-0.106132 0.366614 0.0246183
-0.0920276 -0.218664 -0.169386
0.118249 0.366614 -0.0329953
-0.0908665 0.0787382 -0.0403566
0.194792 0.348643 -0.0649786
-0.0279433 0.380909 0.206218
0.22679 0.374705 0.094831
-0.106874 0.0564715 -0.132077
-0.031615 0.380909 0.157254
-0.155974 0.380909 0.19069
-0.14716 0.0782539 -0.0598665
-0.150341 0.318891 -0.157557
0.0241008 0.366614 -0.104909
0.180575 -0.269052 0.150341
-0.194874 -0.0770113 -0.156569
-0.0478717 -0.218664 0.179122
0.204287 -0.372771 -0.195139
-0.150341 0.239098 -0.153603
0.0157605 0.366614 -0.0236308
0.145118 -0.218664 -0.0576139
0.00712136 -0.218664 0.13628
-0.141533 0.366614 -0.0353855
-0.0996316 0.380909 0.0478223
0.0495287 -0.218664 0.0136944
-0.210232 0.347528 0.0898783
0.166171 -0.287797 -0.174906
0.0119467 -0.196397 -0.186944
-0.0222039 0.380909 0.157746
-0.15236 0.0936262 0.194875
-0.194874 -0.0317066 -0.16755
0.183125 0.0627645 0.194875
-0.0842688 -0.196397 -0.039173
0.21875 0.350468 -0.171531
0.150259 -0.18615 0.171576
0.194792 0.0238142 -0.156326
0.177271 -0.279119 -0.192125
-0.160717 -0.218664 0.0621771
0.150259 0.263931 0.156497
-0.000935584 0.0787382 -0.0683905
-0.194874 0.217549 0.159577
-0.164686 0.366614 0.161793
0.135481 0.380909 -0.197248
0.138929 0.0787382 0.104894
0.171298 -0.218664 -0.110397
0.141906 0.0564715 -0.188362
0.0147447 -0.196397 -0.0681873
-0.15266 0.00770151 0.194875
0.187635 -0.209021 -0.0702118
0.0933467 0.0787382 0.156967
0.119864 0.366614 0.0752757
0.0111235 0.0787382 0.0170084
0.0534944 0.366614 0.0174027
-0.14716 0.0772831 -0.099551
-0.135392 -0.196397 0.0290872
0.166692 0.0564715 0.133238
-0.197819 0.380909 0.125789
-0.0309683 -0.196397 -0.0270231
-0.161662 -0.0850673 0.150341
-0.18066 0.00988215 -0.150259
-0.150341 0.268993 -0.191498
0.150259 0.18945 -0.178291
-0.188614 -0.215879 -0.0170391
-0.0200714 0.366614 0.117009
0.183307 -0.22573 0.150341
-0.09051 -0.218664 0.17695
-0.115472 -0.196397 -0.0705864
-0.0494229 0.366614 -0.115868
0.162871 -0.115386 0.150341
-0.17566 0.0849593 -0.150259
-0.121517 0.0787382 -0.183202
0.0624516 -0.218664 -0.112844
0.176744 0.0805209 -0.194792
0.101943 0.366614 -0.121378
0.121409 -0.196397 -0.150697
-0.0383147 0.366614 -0.162874
0.171452 0.0564715 -0.0468122
-0.129279 -0.218664 -0.0573777
-0.0829569 0.0564715 -0.0725819
0.0647532 0.366614 0.0237374
0.150259 -0.173609 0.154597
0.0833442 0.380909 -0.016757
-0.191103 -0.34249 -0.202062
-0.179961 0.0564715 -0.0878391
-0.194874 0.271771 0.152511
0.0319174 0.0787382 -0.108604
0.194792 -0.272599 -0.177468
0.170784 0.380909 0.0796161
-0.184579 -0.318264 0.197648
0.039365 -0.218664 0.148582
0.12776 0.362424 -0.194792
0.18234 -0.369312 0.209779
-0.0979424 0.366614 0.132025
-0.168434 -0.314795 -0.19708
-0.194874 -0.199602 -0.173702
0.00695971 0.380909 0.190427
0.143372 -0.196397 0.127526
-0.11872 0.366614 0.156179
-0.161452 -0.313751 0.177683
-0.217058 0.35633 -0.0752078
0.217893 0.347636 -0.166436
-0.185323 0.0288533 -0.194792
0.176642 0.0666021 0.194875
0.0185223 0.0787382 0.0370197
-0.025282 -0.196397 0.0383707
-0.176693 -0.279119 0.168683
-0.150341 -0.200712 0.175511
-0.17185 -0.305122 0.152579
0.170246 -0.203482 -0.150259
0.128755 0.0787382 0.184039
-0.0554727 0.0787382 0.102362
-0.0743282 -0.218664 0.0987539
0.19178 0.329458 -0.194792
0.0829123 0.366614 0.0487407
-0.152396 -0.281607 -0.150341
-0.0869222 -0.196397 -0.161737
0.113041 0.0564715 0.0900341
-0.179986 -0.330729 0.199657
-0.150341 0.178421 0.161511
-0.218546 0.348005 0.0988076
0.0847765 0.380909 -0.150944
-0.150341 0.221246 -0.151101
0.199323 0.380909 0.173611
-0.194874 -0.0598865 -0.17453
-0.194874 -0.0802358 0.189323
-0.128742 0.0787382 0.177524
-0.153772 0.365764 0.194875
0.183778 0.0564715 0.0419159
0.113765 0.0787382 0.0518715
0.0403595 -0.218664 -0.188345
0.196785 -0.347855 -0.164921
-0.181304 0.380909 -0.0897556
-0.0447815 0.366614 0.0333087
-0.169538 0.366614 0.184474
-0.179806 -0.0440824 -0.150259
-0.222011 0.380909 0.217533
0.140643 0.347528 0.200338
0.201807 -0.360532 0.169973
0.10982 -0.196524 0.189273
0.159243 0.380909 -0.165155
0.182009 0.357675 -0.216921
-0.14284 0.347528 -0.203413
-0.0185497 0.366614 0.0492001
0.150259 0.349726 0.180073
-0.093592 0.0787382 0.0236685
-0.155092 0.380909 -0.148164
-0.194874 -0.217301 -0.166114
0.0951508 -0.196397 0.166397
0.199699 0.380909 0.0416714
0.149189 0.347528 -0.203124
-0.0202826 0.380909 -0.225084
0.148303 0.380909 0.14357
0.150259 -0.213113 -0.184218
0.175644 -0.218664 -0.145151
0.150259 -0.0958486 0.175135
-0.0114611 0.380909 -0.0539225
-0.0278459 0.0564715 0.164103
-0.0204057 0.366614 0.0935798
0.178616 -0.113083 0.194875
-0.150341 -0.0438462 0.153154
0.194482 0.380909 0.132365
0.137268 0.366614 -0.142035
0.151257 -0.0701565 0.150341
0.152762 -0.218664 -0.0182637
0.157881 0.140374 0.194875
-0.0960884 0.0564715 0.147535
-0.163909 0.366614 0.142736
0.140439 0.378619 0.194038
0.118551 -0.196397 -0.102557
0.204364 0.347528 0.0653605
-0.196352 -0.307638 0.179288
0.194792 0.0578174 -0.160763
-0.0895562 0.366614 -0.108366
0.195045 0.347528 -0.161228
-0.148753 0.366614 0.0416216
0.0792965 0.0763518 0.148134
0.196847 -0.352236 0.204588
-0.0207408 0.366614 0.185752
0.206541 -0.364545 -0.185207
-0.150341 0.18427 -0.188615
-0.183689 0.290891 0.150341
0.149464 -0.198166 0.037093
0.0258046 0.366614 -0.0235329
0.110554 0.0787382 0.134217
0.094761 0.0787382 0.156725
0.179358 -0.196397 0.127875
0.011127 0.0787382 -0.0416616
0.150259 0.101833 -0.159497
0.212413 -0.380909 -0.185532
0.165405 0.347528 -0.214027
-0.153163 0.0787382 -0.046722
-0.150341 -0.189822 0.177916
-0.226948 0.374771 0.0860289
-0.194874 -0.0466468 -0.169563
-0.191652 0.37863 0.0151302
0.00132567 0.380909 -0.157785
-0.150341 0.2709 0.178227
0.128187 0.366614 0.0154762
0.184102 -0.218664 -0.0890881
0.0236119 -0.196397 -0.0068593
0.173169 0.0958012 0.150341
0.106577 -0.196397 -0.0946006
0.0276311 0.0564715 -0.136578
-0.198176 0.356432 -0.217041
0.176631 -0.322347 0.193479
-0.18817 0.0616649 -0.098928
-0.183408 -0.0992204 0.150341
-0.107014 -0.218664 0.144953
0.0128659 0.380909 -0.0192947
-0.169898 0.0564715 -0.064023
-0.164504 -0.126829 -0.150259
-0.108377 -0.218664 0.0925674
-0.194874 0.324422 -0.180321
0.172253 -0.339407 0.172253
-0.191954 -0.154021 0.194875
0.219796 0.368705 -0.0910181
-0.177206 0.362394 -0.194792
0.159618 0.336112 0.194875
-0.10553 -0.196397 0.112923
0.0215717 -0.218664 0.0759766
0.0608732 -0.218664 0.0390308
0.100789 0.0564715 0.0352495
-0.150341 0.248026 0.161174
0.162858 -0.330482 -0.199533
0.150259 0.200281 -0.177023
0.0998936 0.0787382 -0.0202781
-0.0235721 0.349589 -0.219076
0.121567 0.366614 0.107513
-0.194874 0.133674 0.183142
0.15962 -0.2857 -0.150475
0.163656 0.256776 0.194875
-0.0274969 0.366614 0.104923
0.194792 0.0369674 0.151333
0.150976 0.0787382 0.14059
0.0474042 0.380909 0.0354262
-0.0894034 0.0564715 -0.14541
-0.101292 -0.196397 -0.121379
-0.178347 0.380909 -0.149127
0.168895 0.282446 -0.194792
0.174144 -0.364546 0.172451
-0.013664 0.0564715 -0.0143775
-0.163063 -0.218664 -0.096532
0.0349967 0.0564715 0.139178
0.112931 0.0787382 0.102385
0.173995 -0.368066 0.202827
0.0786657 0.378524 0.191952
0.117017 0.380909 0.0117738
0.194792 0.254381 0.160877
-0.0791111 -0.218664 0.085752
-0.194874 -0.0163256 -0.154482
0.19984 0.380909 -0.0961152
0.107532 0.380909 -0.145846
-0.161496 0.212167 0.150341
-0.194874 -0.143477 0.166987
-0.148567 0.0564715 0.110796
-0.179301 0.380909 -0.161716
0.0479391 0.0787382 -0.0831821
0.149464 -0.196976 0.107148
0.125073 0.0564715 0.0224606
0.175627 -0.0560898 0.194875
-0.177176 -0.262117 -0.150259
-0.138774 -0.196397 -0.161992
0.124812 -0.218664 -0.0729766
0.14368 0.366614 -0.0011882
0.102484 0.380909 -0.0298529
-0.0691706 0.366614 -0.0329208
-0.174388 0.366614 0.163944
-0.18633 0.366614 -0.180635
-0.158928 0.0787382 -0.0150249
0.150259 -0.264014 -0.191449
-0.150341 0.238326 -0.16032
0.0981579 -0.218664 -0.159838
-0.194874 0.00861518 -0.194663
0.100939 -0.196397 -0.0862372
-0.148925 0.380909 -0.19724
-0.194874 0.109555 0.172611
-0.0229178 -0.196397 0.1593
-0.0425342 0.0787382 -0.0188981
-0.202701 0.380909 -0.181797
-0.194874 0.280244 0.186247
-0.150341 -0.270053 0.19005
0.156514 0.366614 -0.185386
-0.194628 -0.364545 -0.186281
-0.195866 -0.341686 -0.161622
0.150259 -0.023586 0.175549
-0.0142942 -0.218664 -0.183275
0.188335 -0.287797 -0.178852
-0.101288 -0.196397 -0.161557
0.173828 -0.287797 -0.17262
-0.206765 0.347528 0.0950101
-0.0827933 0.380909 -0.18193
-0.156966 0.380909 0.169345
0.218698 0.377735 -0.229027
-0.0830475 0.0787382 0.0786925
-0.192144 0.366614 0.0416618
0.0284857 -0.196397 0.0382206
0.171202 0.0564715 -0.00364569
0.127585 -0.218664 -0.000672754
