ply
format ascii 1.0
comment Created by Open3D
element vertex 760
property double x
property double y
property double z
end_header
-0.0903332 -0.213812 -0.219847
-0.109777 -0.21341 -0.209751
-0.129592 -0.213325 -0.198339
0.0941602 -0.214636 -0.218949
-0.0785703 -0.21266 -0.199528
0.107676 -0.214825 -0.211173
0.132205 -0.214492 -0.197061
-0.0903332 -0.186304 -0.219846
0.0803851 -0.194917 -0.202409
-0.109777 -0.185629 -0.209751
-0.0785703 -0.186883 -0.199528
-0.129592 -0.185222 -0.198339
0.100874 -0.187234 -0.215086
0.12863 -0.186883 -0.199117
-0.209504 -0.214916 -0.0317596
-0.227561 -0.214253 -0.0317519
-0.0903332 -0.166298 -0.219846
-0.208776 -0.213021 1.70469e-05
-0.109777 -0.165424 -0.209751
-0.129592 -0.167339 -0.198339
0.235541 -0.214625 -0.0319676
0.214637 -0.213913 -0.031957
0.0909232 -0.167326 -0.220596
-0.0785703 -0.166261 -0.199528
0.107676 -0.167379 -0.211172
0.12508 -0.167498 -0.20116
0.0803853 -0.165746 -0.202408
-0.209504 -0.187085 -0.0317596
-0.227561 -0.186508 -0.031752
0.235541 -0.19466 -0.0319676
-0.0874588 -0.147393 -0.214882
-0.208776 -0.187396 2.33054e-05
-0.114688 -0.145636 -0.206922
-0.134617 -0.147327 -0.195444
0.218112 -0.187485 -0.0319589
0.0975063 -0.147472 -0.217024
-0.209504 -0.174716 -0.0317596
0.0803854 -0.147182 -0.202408
0.132205 -0.147042 -0.197061
-0.208776 -0.174583 2.64645e-05
0.137304 -0.213496 0.173461
0.120374 -0.21255 0.170959
0.102376 -0.21397 0.181325
-0.227561 -0.164928 -0.031752
0.235541 -0.174695 -0.0319678
0.144658 -0.212033 0.18617
0.0804587 -0.211668 0.193948
0.214637 -0.167482 -0.0319572
-0.0874588 -0.127236 -0.214882
-0.114688 -0.125374 -0.206922
-0.134617 -0.126829 -0.195444
0.104264 -0.127422 -0.213135
0.137305 -0.193543 0.173462
0.102376 -0.193973 0.181324
0.12508 -0.127299 -0.201159
0.0821744 -0.125501 -0.205494
0.144659 -0.19184 0.186171
0.0804587 -0.191509 0.193948
-0.209504 -0.146885 -0.0317596
0.235541 -0.15473 -0.0319678
0.120374 -0.18474 0.170959
-0.208777 -0.145754 3.3617e-05
-0.233556 -0.137043 -0.0317495
0.214637 -0.144267 -0.0319572
0.137305 -0.173591 0.173463
0.102376 -0.173976 0.181324
0.144659 -0.171646 0.186171
0.0804587 -0.17135 0.193948
-0.0874588 -0.10708 -0.214882
0.120374 -0.164875 0.170958
-0.114688 -0.105112 -0.206921
-0.134617 -0.106331 -0.195444
0.235541 -0.134765 -0.0319678
0.114569 -0.107461 -0.207206
0.0941602 -0.105367 -0.218949
-0.209504 -0.125239 -0.0317596
-0.227561 -0.124852 -0.031752
0.139427 -0.107294 -0.192905
-0.189581 -0.12597 -0.00699133
-0.208271 -0.125579 -0.00698316
0.137305 -0.153638 0.173463
0.102376 -0.153978 0.181324
-0.173917 -0.123099 -0.00699818
0.214637 -0.124368 -0.0319573
0.144659 -0.151452 0.186172
0.0804587 -0.151191 0.193948
-0.114688 -0.0949803 -0.206922
0.0803858 -0.0967957 -0.202407
0.0862079 -0.101733 -0.164435
-0.148685 -0.117191 -0.00701034
0.235541 -0.114799 -0.0319678
0.074558 -0.0983723 -0.144231
0.120374 -0.137065 0.170958
-0.0874588 -0.0869239 -0.214881
-0.209504 -0.106685 -0.0317596
-0.242622 -0.109482 -0.00342643
0.125474 -0.0881623 -0.215082
0.0975063 -0.0874393 -0.217024
0.0950889 -0.111875 -0.00712401
0.0848263 -0.111693 -0.00711954
0.102376 -0.133981 0.181323
-0.0456164 -0.109384 -0.00705791
-0.134617 -0.0858337 -0.195444
-0.189581 -0.106835 -0.00699133
-0.208271 -0.106504 -0.00698316
0.0581544 -0.0955992 -0.115838
0.0644008 -0.108008 -0.00711024
0.0373718 -0.107544 -0.0070973
0.017252 -0.107199 -0.00708747
-0.002739 -0.106855 -0.00707793
-0.0226023 -0.106514 -0.00706887
-0.148685 -0.104348 -0.00701064
0.214637 -0.104469 -0.0319573
0.143075 -0.0858548 -0.190807
0.0517362 -0.0937712 -0.104707
-0.227561 -0.0971074 -0.031752
0.251037 -0.104746 -0.00365609
0.0863198 -0.0822631 -0.164059
0.0338309 -0.0907191 -0.0737255
-0.241463 -0.0925402 -0.014071
0.235541 -0.0948343 -0.0319678
0.0803859 -0.0755803 -0.202406
0.0706366 -0.0819241 -0.136981
0.127811 -0.0723016 -0.216174
0.0171677 -0.0870884 -0.044868
-0.0456165 -0.0897927 -0.00705844
-0.205164 -0.0874739 -0.00698453
-0.209504 -0.0850388 -0.0317596
-0.227561 -0.0847763 -0.031752
0.00463922 -0.0857434 -0.0232108
-0.0226023 -0.0868499 -0.00706875
-0.0667393 -0.0750597 -0.128151
-0.0845409 -0.0672736 -0.209841
-0.0976207 -0.0664523 -0.216752
-0.119627 -0.0673125 -0.204077
-0.167629 -0.0848187 -0.00700182
-0.189581 -0.0845113 -0.00699145
0.214637 -0.0845701 -0.0319573
0.135733 -0.0683557 -0.202597
0.112419 -0.0670928 -0.213273
0.0909232 -0.0661522 -0.220596
0.058258 -0.0750475 -0.115416
-0.139672 -0.0655262 -0.192533
0.251037 -0.0841402 -0.00365609
0.080386 -0.0649725 -0.202406
-0.0491487 -0.0722077 -0.0978502
0.047474 -0.0705597 -0.0966823
0.0362185 -0.0720049 -0.0773021
0.0172181 -0.0744446 -0.0445868
-0.148685 -0.0754519 -0.00701046
-0.208271 -0.0747118 -0.00698316
0.235541 -0.0748692 -0.0319678
0.0245052 -0.070388 -0.0570433
-0.0260551 -0.0697074 -0.0580331
-0.242622 -0.0714014 -0.00342691
0.086448 -0.0599882 -0.163628
0.0707444 -0.0618338 -0.136578
-0.00929219 -0.0689664 -0.0290927
-0.209504 -0.0664849 -0.0317596
-0.000467882 -0.0669383 -0.0139062
-0.0379314 -0.0619017 -0.0787773
0.214637 -0.0646713 -0.0319573
0.12791 -0.0512874 -0.21591
0.0583456 -0.0574144 -0.115059
-0.0633961 -0.0556206 -0.122946
-0.161327 -0.0624787 -0.00700486
-0.0815784 -0.0473232 -0.204724
-0.0928066 -0.0462599 -0.219525
-0.112563 -0.0462592 -0.216527
-0.129729 -0.0467263 -0.20666
-0.137141 -0.0474696 -0.193991
-0.227561 -0.0570313 -0.031752
0.135804 -0.0473749 -0.19499
0.114569 -0.0464336 -0.207207
0.0941602 -0.0455289 -0.218949
-0.0492322 -0.0515304 -0.0986013
-0.158417 -0.056933 0.00670701
-0.180192 -0.0558962 -0.00699615
0.235541 -0.0549041 -0.0319678
0.0475744 -0.0495682 -0.0962396
0.0408733 -0.0501726 -0.084696
0.0293351 -0.0512138 -0.0648126
-0.0136855 -0.0524257 -0.0371625
-0.0261477 -0.0510778 -0.0587317
0.0123644 -0.0495531 -0.0354821
0.0865602 -0.040477 -0.163251
0.070851 -0.0417228 -0.13618
0.0960558 -0.0564901 0.152534
0.0835059 -0.0552978 0.130826
0.0714728 -0.0541544 0.110006
0.0599267 -0.0530571 0.0900257
0.0488379 -0.052003 0.070833
0.0381826 -0.0509904 0.0523951
0.0279346 -0.0500167 0.0346641
0.0132762 -0.0486238 0.00930214
-0.000587597 -0.0473065 -0.0146833
-0.208777 -0.046449 3.09944e-05
-0.209504 -0.0448386 -0.0317596
-0.227561 -0.0447002 -0.031752
0.214637 -0.0447724 -0.0319575
0.131059 -0.0534214 0.164806
0.109119 -0.0537445 0.175022
0.144659 -0.0504842 0.186172
-0.0600055 -0.0359064 -0.117666
0.0959354 -0.0447798 0.151986
0.0833924 -0.0438348 0.130291
0.235541 -0.034939 -0.0319678
0.100874 -0.0274959 -0.215086
-0.000668094 -0.0342369 -0.0152056
-0.026242 -0.0324776 -0.0594429
-0.0418778 -0.0314023 -0.0864782
-0.0785703 -0.0270658 -0.199528
-0.0903332 -0.0262576 -0.219846
-0.109777 -0.0265184 -0.209752
-0.129592 -0.0268253 -0.198338
0.143075 -0.0258927 -0.190807
0.0803858 -0.0251934 -0.202406
0.0597636 -0.0347334 0.0891999
0.0228347 -0.0324357 0.0253454
0.00846049 -0.031541 0.000481546
-0.0138086 -0.0301555 -0.0380217
0.131059 -0.0336357 0.164806
0.108899 -0.0338095 0.174055
0.0486597 -0.030456 0.0698962
0.0380723 -0.0298726 0.0517928
-0.208776 -0.0272286 2.93851e-05
0.214637 -0.0248735 -0.0319575
0.144659 -0.0302905 0.186172
-0.0565447 -0.0217029 -0.1121
0.121553 -0.0173617 -0.203189
0.0832029 -0.0247553 0.129398
0.143075 -0.0149905 -0.190807
0.0841361 -0.0221449 0.19183
-0.0702815 -0.0154175 -0.136015
-0.209504 -0.0170078 -0.0317596
-0.227561 -0.0169553 -0.0317521
0.235541 -0.0149738 -0.0319678
0.0904711 -0.0176922 0.163651
-0.119627 -0.0114304 -0.204076
-0.208776 -0.014415 1.97887e-05
0.131059 -0.01385 0.164806
0.109604 -0.0139607 0.177161
0.104264 -0.00656812 -0.213135
0.0821752 -0.00660537 -0.205492
0.144659 -0.0100968 0.186172
-0.0785703 -0.00644424 -0.199528
-0.0903332 -0.00625182 -0.219846
-0.139672 -0.00642414 -0.192533
0.214637 -0.00497472 -0.0319575
-0.209504 -0.00463849 -0.0317596
-0.227561 -0.00462417 -0.0317521
0.0914615 -0.00200778 0.187611
0.131059 0.00593569 0.164806
0.109604 0.00598315 0.177161
0.144659 0.0100968 0.186172
-0.119627 0.00889032 -0.204076
0.235541 0.0149738 -0.0319678
0.0914615 0.0180699 0.187611
-0.208775 0.014415 1.66297e-05
0.143075 0.0149905 -0.190807
0.114568 0.0145934 -0.207207
0.0941602 0.0143091 -0.218949
-0.0785703 0.0141773 -0.199528
-0.0903332 0.013754 -0.219846
-0.139672 0.0141331 -0.192533
0.131059 0.0257214 0.164806
0.109604 0.0259271 0.177161
0.214637 0.0248736 -0.0319576
0.144659 0.0302905 0.186172
-0.209504 0.0231924 -0.0317596
-0.227561 0.0231208 -0.0317522
0.0803853 0.0225414 -0.202408
0.0914615 0.0381476 0.187611
0.235541 0.0349389 -0.0319678
-0.208775 0.0336349 1.66297e-05
0.131059 0.0455071 0.164806
0.109604 0.045871 0.177161
-0.119627 0.0292111 -0.204076
-0.209504 0.0355617 -0.0317596
-0.227561 0.0354519 -0.0317522
0.143075 0.0340694 -0.190807
0.114568 0.0331668 -0.207207
0.0941602 0.0325206 -0.218949
0.144659 0.0504841 0.186172
0.214637 0.0447724 -0.0319576
-0.0785703 0.0347989 -0.199528
-0.0903332 0.0337598 -0.219846
-0.139672 0.0346903 -0.192533
0.0914615 0.0582254 0.187611
0.235541 0.0549041 -0.0319678
0.131059 0.0652929 0.164806
0.109604 0.0658149 0.177161
-0.208775 0.0528549 1.66297e-05
0.144659 0.0706778 0.186172
0.214637 0.0646712 -0.0319576
0.143075 0.0531482 -0.190807
0.0914614 0.078303 0.18761
-0.119627 0.0495318 -0.204077
0.114568 0.0543936 -0.207207
0.0941602 0.0533339 -0.218949
-0.0785703 0.0528428 -0.199528
-0.144757 0.0528316 -0.189605
-0.208775 0.0656682 1.66297e-05
-0.209504 0.0633926 -0.0317596
-0.227561 0.0631969 -0.0317522
0.131059 0.0850785 0.164806
0.109604 0.0857588 0.177161
-0.0903332 0.0537656 -0.219846
0.235541 0.0748692 -0.0319678
0.144659 0.0908715 0.186172
0.0785828 0.0625523 -0.199299
0.114568 0.0650069 -0.207208
0.0914614 0.0983807 0.18761
-0.227561 0.075528 -0.0317522
0.214637 0.0845701 -0.0319576
0.120374 0.105282 0.170959
0.143075 0.0749526 -0.190807
0.144659 0.111065 0.186172
0.137308 0.109742 0.173474
-0.119627 0.0698526 -0.204077
-0.209504 0.0850388 -0.0317596
0.235541 0.0948343 -0.0319678
0.0941602 0.0741471 -0.218949
-0.0785703 0.0734643 -0.199528
-0.139672 0.0732351 -0.192533
0.0914614 0.118458 0.18761
-0.0903332 0.0737714 -0.219846
-0.208775 0.0944982 1.66297e-05
0.214637 0.104469 -0.0319576
0.0803849 0.0835357 -0.20241
0.120374 0.125146 0.170959
0.144659 0.131259 0.186172
0.137308 0.129696 0.173475
0.075315 0.136842 0.209978
-0.227561 0.103273 -0.0317522
0.235541 0.114799 -0.0319678
0.143075 0.0940315 -0.190807
0.0914614 0.138536 0.18761
-0.119627 0.0876332 -0.204077
0.114568 0.0941937 -0.207208
0.0612117 0.143596 0.200666
-0.208775 0.113718 1.66297e-05
0.0941602 0.0949603 -0.218949
0.144554 0.143366 0.15433
0.116793 0.145204 0.173021
-0.0785703 0.0940859 -0.199528
-0.139672 0.0937924 -0.192533
-0.149999 0.139159 0.166078
-0.209504 0.11287 -0.0317596
0.214637 0.124368 -0.0319576
0.155835 0.147118 0.151264
0.0411958 0.15165 0.203444
-0.0903332 0.0937772 -0.219846
0.0650946 0.155646 0.199447
0.0218257 0.156267 0.210662
-0.0268629 0.155471 0.21214
-0.149901 0.145057 0.153177
0.14084 0.15524 0.155556
0.102376 0.157978 0.181324
-1.59442e-06 0.15833 0.199477
0.235541 0.134765 -0.0319678
0.173104 0.155926 0.127634
-0.209504 0.125239 -0.0317596
-0.227561 0.124852 -0.0317522
0.222361 0.136844 -0.0386027
0.143075 0.11311 -0.190807
0.168581 0.15748 0.11243
0.116794 0.165094 0.173021
-0.153407 0.153544 0.134215
-0.208775 0.132938 1.66297e-05
0.114568 0.112767 -0.207208
0.0803849 0.112707 -0.20241
0.048716 0.17145 0.199454
-0.119627 0.107954 -0.204077
-0.167768 0.15573 0.126169
-0.205411 0.142778 0.0443605
0.0941602 0.113172 -0.218949
0.151807 0.168346 0.136618
0.0767713 0.175618 0.196072
0.135228 0.176259 0.165244
0.0951095 0.178452 0.18551
0.0324074 0.179134 0.199462
0.0121194 0.178657 0.199471
-0.00806089 0.178183 0.19948
-0.0785703 0.114707 -0.199528
-0.139672 0.11435 -0.192533
-0.149804 0.165693 0.140442
-0.170755 0.15959 0.104237
-0.190218 0.153923 0.0706158
0.210849 0.1466 -0.0585243
-0.0903332 0.113783 -0.219846
-0.220351 0.138295 -0.045295
0.235541 0.15473 -0.0319678
0.0568966 0.187787 0.199451
-0.0281342 0.185697 0.19949
-0.227286 0.142889 -0.0346378
0.194974 0.151627 -0.0646791
-0.187071 0.165278 0.0760564
0.167646 0.183489 0.109289
0.151809 0.187697 0.136625
0.120374 0.192686 0.170959
0.0744331 0.193709 0.184014
-0.0785703 0.125018 -0.199528
-0.202443 0.163878 0.0494933
0.198154 0.155145 -0.0817951
0.143075 0.134915 -0.190807
0.124172 0.193708 0.153259
0.104849 0.193708 0.156202
0.0739319 0.193709 0.160912
0.0546087 0.193709 0.163856
0.0236916 0.193709 0.168566
0.00436847 0.193709 0.17151
-0.0226841 0.19371 0.175631
-0.160476 0.180853 0.122006
-0.198746 0.148905 -0.057569
0.114568 0.133994 -0.207208
0.0839515 0.132938 -0.208554
0.130272 0.193708 0.130069
0.111331 0.193708 0.132954
0.0923908 0.193708 0.13584
0.0696623 0.193708 0.139302
0.0507218 0.193709 0.142188
0.0317813 0.193709 0.145073
0.00905268 0.193709 0.148535
-0.00988796 0.193709 0.151421
-0.0288286 0.19371 0.154306
-0.119627 0.128275 -0.204077
-0.174098 0.180005 0.0984701
0.288424 0.193704 0.0845703
0.1876 0.157838 -0.100131
0.150993 0.193708 0.105517
0.13242 0.193708 0.108346
0.110133 0.193708 0.111741
0.0915603 0.193708 0.11457
0.0692731 0.193708 0.117966
0.0507005 0.193709 0.120795
0.0321277 0.193709 0.123624
0.00984038 0.193709 0.127019
-0.00873244 0.193709 0.129849
-0.0310199 0.193709 0.133244
-0.142211 0.13253 -0.191071
-0.216744 0.155279 -0.0528343
0.302093 0.193704 0.0619065
0.235541 0.174695 -0.0319678
0.164083 0.15221 -0.144116
0.149062 0.193707 0.0852301
0.130843 0.193708 0.0880053
0.10898 0.193708 0.0913359
0.0907614 0.193708 0.0941111
0.0688987 0.193708 0.0974416
0.0506798 0.193709 0.100217
0.0324609 0.193709 0.102993
0.0105981 0.193709 0.106323
-0.00762086 0.193709 0.109099
-0.0294838 0.193709 0.112429
-0.0477029 0.19371 0.115204
-0.147429 0.138357 -0.172473
-0.200277 0.154142 -0.0780556
0.315251 0.193703 0.0400898
0.304525 0.193704 0.0417247
0.275921 0.193704 0.0460845
0.215687 0.173178 -0.0549522
0.136476 0.193707 0.0673358
0.115022 0.193708 0.0706041
0.104295 0.193708 0.0722381
0.0649627 0.193708 0.0782299
0.0363573 0.193709 0.0825874
0.0149032 0.193709 0.0858556
-0.0137024 0.193709 0.0902133
-0.0351566 0.193709 0.0934815
-0.0903332 0.133789 -0.219846
-0.227286 0.164399 -0.0346378
-0.256853 0.19371 0.127246
0.327926 0.193703 0.019074
0.310377 0.193703 0.0217487
0.289318 0.193704 0.0249586
0.271769 0.193704 0.0276333
0.0609944 0.14378 -0.203412
0.127862 0.193707 0.0495636
0.110312 0.193708 0.0522372
0.0822315 0.193708 0.0565149
0.0611711 0.193708 0.0597229
0.0401108 0.193708 0.0629311
0.0190503 0.193709 0.0661395
0.00149991 0.193709 0.068813
-0.0195606 0.193709 0.0720212
-0.158201 0.146845 -0.153877
-0.179438 0.15775 -0.0931638
-0.254739 0.19371 0.10784
-0.26527 0.19371 0.109443
0.340144 0.193702 -0.00118428
0.319465 0.193703 0.00196731
0.302232 0.193703 0.00459397
0.271213 0.193704 0.00932181
0.204429 0.175564 -0.0744012
0.116112 0.193708 0.0329569
0.0850907 0.193708 0.0376825
0.0747503 0.193708 0.0392578
0.0540694 0.193708 0.0424082
0.0161543 0.193709 0.0481839
-0.00452672 0.193709 0.0513342
-0.0252078 0.193709 0.0544848
-0.1675 0.157571 -0.110892
-0.252702 0.19371 0.0891325
-0.273383 0.19371 0.0922813
0.328231 0.193703 -0.0171136
0.280833 0.193704 -0.00988954
0.26052 0.193704 -0.00679356
0.143075 0.153994 -0.190807
0.101392 0.193708 0.0174538
0.0810771 0.193708 0.0205485
0.0607622 0.193708 0.0236432
0.0302899 0.193708 0.028285
0.00997494 0.193709 0.0313797
-0.01034 0.193709 0.0344743
-0.0552857 0.146272 -0.199857
-0.169467 0.155719 -0.13444
-0.250737 0.19371 0.0710877
-0.267666 0.19371 0.0736653
-0.287981 0.19371 0.0767581
0.310079 0.193703 -0.0314748
0.290119 0.193704 -0.0284326
0.270159 0.193704 -0.0253905
0.193664 0.177838 -0.0930056
0.173523 0.170258 -0.127806
0.114568 0.152567 -0.207208
0.0423172 0.151333 -0.202374
0.0905107 0.193708 0.00198334
0.0406069 0.193708 0.0095852
0.0206453 0.193708 0.0126259
-0.24884 0.19371 0.0536706
-0.288764 0.19371 0.059749
0.312167 0.193703 -0.0483351
0.25004 0.193705 -0.0388664
0.230421 0.193705 -0.0358764
0.087463 0.152871 -0.214618
0.0734615 0.193708 -0.0119622
0.0473011 0.193708 -0.00797707
0.00479025 0.193708 -0.00150144
-0.0427095 0.151134 -0.203327
-0.119627 0.148595 -0.204078
-0.273169 0.19371 0.040832
-0.29279 0.19371 0.0438192
0.294895 0.193703 -0.061689
0.265961 0.193704 -0.0572792
0.183374 0.180016 -0.110786
0.0212879 0.15637 -0.200265
0.0569854 0.193708 -0.0254388
0.0344797 0.193708 -0.0220105
0.00554371 0.193708 -0.0176029
-0.137141 0.152672 -0.193991
-0.196806 0.1729 -0.087247
-0.220214 0.180531 -0.0468422
-0.227286 0.182836 -0.0346369
-0.245238 0.19371 0.0205926
-0.274174 0.19371 0.0249982
-0.312756 0.193709 0.0308723
0.294002 0.193703 -0.0770106
0.246576 0.193705 -0.0697826
0.224444 0.193705 -0.0664095
0.0661816 0.157615 -0.213667
-0.00292583 0.158024 -0.201202
-0.0797852 0.152948 -0.213598
-0.147429 0.15944 -0.172473
-0.243526 0.19371 0.00487387
-0.294118 0.193709 0.0125766
0.320141 0.205732 -0.0397606
0.274477 0.193704 -0.08899
-0.260533 0.19371 -0.00749224
-0.310303 0.193709 8.52346e-05
-0.328966 0.193709 0.00292665
0.249455 0.193704 -0.0996531
0.231092 0.193705 -0.0968544
0.209668 0.193705 -0.0935894
-0.280057 0.193709 -0.0189966
-0.298422 0.193709 -0.0162005
0.270408 0.193704 -0.116867
0.21016 0.193705 -0.107685
0.173521 0.188023 -0.12781
0.143075 0.173072 -0.190807
-0.169467 0.175012 -0.134439
-0.206591 0.187928 -0.070356
-0.247752 0.19371 -0.037936
-0.320055 0.193709 -0.0269279
0.246225 0.193704 -0.126767
0.225465 0.193705 -0.123603
-0.0234842 0.164979 -0.213625
-0.272801 0.193709 -0.0477085
-0.293562 0.193709 -0.0445476
0.231542 0.193705 -0.1377
0.211099 0.193705 -0.134585
0.190656 0.193706 -0.13147
0.114568 0.173794 -0.207208
0.0474503 0.169993 -0.213658
-0.190477 0.188065 -0.0981703
-0.23283 0.19371 -0.0669653
-0.253275 0.193709 -0.0638527
-0.285402 0.193709 -0.0589613
-0.313093 0.195311 -0.0477189
0.251818 0.193704 -0.153565
0.211547 0.193705 -0.147428
0.0941602 0.17301 -0.218949
-0.04411 0.16937 -0.213615
-0.0645608 0.168651 -0.213606
-0.114688 0.168432 -0.206923
-0.254473 0.193709 -0.0764453
-0.27461 0.193709 -0.0733794
0.226152 0.193705 -0.16205
0.194979 0.193705 -0.1573
0.166639 0.193706 -0.152981
-0.134617 0.172948 -0.195445
-0.147429 0.177888 -0.172473
-0.210291 0.19371 -0.0955689
-0.23013 0.193709 -0.0925484
-0.269807 0.193709 -0.0865074
-0.289645 0.193709 -0.0834869
-0.340167 0.211286 -0.000991762
0.237537 0.193704 -0.17582
0.212404 0.193705 -0.17199
0.170516 0.193706 -0.165606
0.0661815 0.178457 -0.213667
-0.0848387 0.17299 -0.213596
-0.158201 0.184566 -0.153881
-0.248387 0.193709 -0.101803
0.190796 0.193705 -0.180385
0.152262 0.193706 -0.174514
0.00516623 0.178821 -0.213638
-0.0131049 0.17815 -0.21363
-0.194554 0.19371 -0.121688
-0.213821 0.193709 -0.118754
-0.233089 0.193709 -0.115821
-0.274377 0.193709 -0.109535
0.226817 0.193724 -0.197149
0.205073 0.193705 -0.193917
0.167086 0.193706 -0.188129
-0.248073 0.193709 -0.124896
-0.321828 0.213594 -0.0326431
0.210925 0.193705 -0.205848
0.192197 0.193705 -0.202994
0.152066 0.193706 -0.19688
0.132205 0.192908 -0.197061
0.0262169 0.184762 -0.213648
-0.185048 0.193709 -0.145531
-0.214479 0.193709 -0.14105
-0.233208 0.193709 -0.138199
-0.300496 0.208268 -0.0694603
0.166485 0.193706 -0.20981
0.0474504 0.18816 -0.213658
-0.247777 0.193709 -0.146715
0.209138 0.193705 -0.226752
0.19092 0.193705 -0.223976
0.146676 0.193706 -0.217235
0.104264 0.193102 -0.213137
-0.0338191 0.187598 -0.21362
-0.12709 0.187506 -0.19978
-0.173457 0.193709 -0.168473
-0.194279 0.193709 -0.165303
-0.217703 0.193709 -0.161736
0.165915 0.193706 -0.230328
0.127399 0.193706 -0.224461
-0.0645607 0.188941 -0.213605
-0.114688 0.188694 -0.206923
0.197312 0.193705 -0.245004
0.146639 0.193706 -0.237284
0.106099 0.193706 -0.231109
0.0858293 0.193707 -0.228022
-0.154878 0.193709 -0.191358
-0.165013 0.193709 -0.189814
-0.192885 0.193709 -0.18557
-0.213155 0.193709 -0.182484
-0.233426 0.193709 -0.179398
-0.280749 0.211752 -0.103543
0.175377 0.193706 -0.251296
0.125366 0.193706 -0.243678
0.0653511 0.193707 -0.234537
0.0453462 0.193707 -0.23149
0.0253412 0.193707 -0.228443
0.00533614 0.193707 -0.225396
-0.0848387 0.193193 -0.213596
0.156476 0.193706 -0.257803
0.10711 0.193706 -0.250283
0.0774898 0.193707 -0.245771
-0.0138394 0.193708 -0.23186
-0.0335863 0.193708 -0.228853
-0.0533334 0.193708 -0.225845
-0.154537 0.193709 -0.21043
-0.184158 0.193709 -0.205919
-0.213779 0.193709 -0.201409
-0.269589 0.212623 -0.122804
0.181921 0.193705 -0.270825
0.13562 0.193706 -0.263772
0.0552027 0.193707 -0.251523
0.0357074 0.193707 -0.248554
0.0162121 0.193707 -0.245584
-0.083702 0.193708 -0.230366
-0.103198 0.193708 -0.227396
-0.134878 0.193709 -0.222571
0.151382 0.193706 -0.275089
0.115289 0.193706 -0.269592
0.0864137 0.193706 -0.265193
-0.0146491 0.193708 -0.2498
-0.0435244 0.193708 -0.245402
-0.154214 0.193709 -0.228542
-0.173464 0.193709 -0.22561
-0.204746 0.193709 -0.220847
-0.247939 0.207575 -0.164167
-0.258906 0.213457 -0.141243
0.0669457 0.193707 -0.270923
0.0455585 0.193707 -0.267665
-0.0637548 0.193708 -0.251015
-0.082766 0.193708 -0.248119
-0.13267 0.193709 -0.240518
0.170371 0.19393 -0.294365
0.132455 0.193706 -0.289382
0.0268307 0.193707 -0.273294
0.00570579 0.193707 -0.270077
-0.0248081 0.193708 -0.265429
-0.104614 0.193708 -0.253273
-0.153906 0.193709 -0.245765
-0.19381 0.193709 -0.239689
-0.226367 0.2043 -0.197402
0.110582 0.193706 -0.294327
0.0804382 0.193706 -0.289735
-0.0540499 0.193708 -0.269251
-0.123614 0.193709 -0.258655
0.0619493 0.193905 -0.294315
0.0273765 0.193707 -0.289731
-0.0734275 0.193708 -0.274377
-0.103211 0.193708 -0.26984
-0.174233 0.193709 -0.259023
-0.217112 0.20436 -0.215852
0.00732672 0.193788 -0.29429
-0.0244295 0.193707 -0.289726
-0.153472 0.193709 -0.270071
-0.0436651 0.193777 -0.294266
-0.0727865 0.193708 -0.290063
-0.0934725 0.193766 -0.294243
-0.124449 0.193708 -0.289718
-0.144322 0.193709 -0.294043
-0.172744 0.193709 -0.289714
-0.205489 0.207786 -0.238513
-0.187352 0.202527 -0.266052
0.170371 0.212966 -0.294365
0.150262 0.214384 -0.294356
0.130331 0.213431 -0.294347
0.110577 0.214834 -0.294338
0.0909976 0.213887 -0.294329
0.0715896 0.212948 -0.29432
0.0163178 0.20975 -0.295944
0.0523512 0.214335 -0.294311
-0.00436854 0.21385 -0.294285
-0.0229504 0.212931 -0.294276
-0.0436651 0.214174 -0.294266
-0.0641817 0.21315 -0.294257
-0.0845028 0.214379 -0.294247
-0.104631 0.213364 -0.294238
-0.175113 0.21258 -0.285862
-0.12457 0.214581 -0.294229
-0.144322 0.213574 -0.29422
-0.163889 0.212576 -0.294211
