ply
format ascii 1.0
comment Created by Open3D
element vertex 725
property double x
property double y
property double z
end_header
0.188291 -0.422063 -0.18815
0.170202 -0.423134 -0.188158
0.152022 -0.42421 -0.188166
0.170202 -0.404816 -0.188158
-0.121646 -0.422986 -0.184043
-0.140111 -0.422397 -0.188297
-0.159907 -0.423519 -0.188307
-0.179808 -0.424646 -0.188317
0.188291 -0.400137 -0.18815
0.152022 -0.394828 -0.188166
-0.121637 -0.421977 -0.15607
-0.121631 -0.423441 -0.141543
-0.121646 -0.403846 -0.184043
-0.148017 -0.403712 -0.188301
-0.167854 -0.404785 -0.188311
0.188291 -0.381866 -0.18815
-0.187798 -0.402016 -0.18832
0.170202 -0.375508 -0.188158
-0.121637 -0.40235 -0.15607
-0.121631 -0.403561 -0.141543
-0.121646 -0.384707 -0.184043
-0.148017 -0.384579 -0.188301
0.170202 -0.364518 -0.188158
0.152022 -0.365445 -0.188166
0.188291 -0.359941 -0.18815
-0.187798 -0.378934 -0.18832
-0.167854 -0.37409 -0.188311
0.152022 -0.354427 -0.188166
-0.121631 -0.383681 -0.141543
-0.121637 -0.378798 -0.15607
-0.128284 -0.360663 -0.188292
0.188291 -0.34167 -0.18815
-0.187798 -0.359699 -0.18832
-0.148017 -0.353965 -0.188301
-0.167854 -0.354906 -0.188311
0.170202 -0.33521 -0.188158
-0.121631 -0.363801 -0.141543
-0.121637 -0.359171 -0.15607
-0.128284 -0.34158 -0.188292
0.170202 -0.324219 -0.188158
0.152022 -0.325044 -0.188166
-0.127801 -0.424808 0.094119
-0.187798 -0.340464 -0.18832
0.188291 -0.319744 -0.18815
-0.152397 -0.421111 0.0941072
-0.172167 -0.421998 0.0940981
-0.148017 -0.334832 -0.188301
-0.125126 -0.424603 0.125694
-0.121631 -0.343921 -0.141543
-0.121637 -0.339544 -0.15607
0.152022 -0.314026 -0.188166
-0.125118 -0.421415 0.148214
-0.128284 -0.322497 -0.188292
-0.167854 -0.324211 -0.188311
-0.125109 -0.423191 0.171466
-0.125134 -0.403529 0.103871
-0.152397 -0.40186 0.0941072
-0.121641 -0.323649 -0.170232
-0.187798 -0.321228 -0.18832
0.188291 -0.301473 -0.18815
-0.125126 -0.404968 0.125694
-0.172167 -0.397884 0.0940981
-0.121631 -0.324042 -0.141543
0.170202 -0.294911 -0.188158
-0.125118 -0.401466 0.148214
-0.125109 -0.402918 0.171466
-0.125134 -0.384199 0.103871
-0.121646 -0.30432 -0.184043
-0.148017 -0.304219 -0.188301
-0.152397 -0.377797 0.0941072
-0.172167 -0.378592 0.0940981
-0.187798 -0.301993 -0.18832
0.152022 -0.284643 -0.188166
-0.167854 -0.297354 -0.188311
0.188291 -0.279548 -0.18815
-0.125118 -0.381517 0.148214
-0.125126 -0.375516 0.125694
-0.121631 -0.304162 -0.141543
-0.121637 -0.300291 -0.15607
-0.125109 -0.382645 0.171466
-0.125134 -0.364868 0.103871
-0.152397 -0.358546 0.0941072
-0.172167 -0.359301 0.0940981
-0.121641 -0.284888 -0.170232
-0.128284 -0.280516 -0.188292
0.170202 -0.265603 -0.188158
-0.125118 -0.361569 0.148214
-0.125126 -0.355881 0.125694
-0.148017 -0.277432 -0.188301
-0.187798 -0.278911 -0.18832
0.188291 -0.261277 -0.18815
-0.127801 -0.343206 0.094119
-0.121631 -0.284282 -0.141543
-0.167854 -0.274333 -0.188311
-0.125109 -0.357305 0.171466
-0.152397 -0.339295 0.0941072
-0.172167 -0.34001 0.0940981
0.170202 -0.254613 -0.188158
0.152022 -0.255261 -0.188166
-0.125118 -0.34162 0.148214
-0.125126 -0.336246 0.125694
-0.128284 -0.261433 -0.188292
-0.127801 -0.324006 0.094119
-0.187798 -0.259676 -0.18832
0.152022 -0.244242 -0.188166
-0.125109 -0.337032 0.171466
-0.152397 -0.320044 0.0941072
-0.172167 -0.320718 0.0940981
-0.121631 -0.264402 -0.141543
-0.121637 -0.261037 -0.15607
-0.148017 -0.254472 -0.188301
0.188291 -0.239352 -0.18815
-0.125118 -0.321671 0.148214
-0.125126 -0.316612 0.125694
-0.167854 -0.247475 -0.188311
-0.127801 -0.304806 0.094119
-0.128284 -0.24235 -0.188292
-0.125109 -0.316759 0.171466
-0.152397 -0.300794 0.0941072
-0.172167 -0.301427 0.0940981
-0.187798 -0.24044 -0.18832
0.170202 -0.225305 -0.188158
-0.121631 -0.244522 -0.141543
-0.121637 -0.24141 -0.15607
0.188291 -0.22108 -0.18815
-0.125118 -0.301723 0.148214
-0.125126 -0.296977 0.125694
0.170202 -0.214314 -0.188158
0.152022 -0.21486 -0.188166
-0.125109 -0.296487 0.171466
-0.125134 -0.282712 0.103871
-0.152397 -0.281543 0.0941072
-0.172167 -0.282136 0.0940981
-0.121646 -0.223934 -0.184043
-0.148017 -0.223859 -0.188301
-0.167854 -0.224454 -0.188311
-0.187798 -0.221205 -0.18832
-0.125118 -0.281774 0.148214
-0.125126 -0.277342 0.125694
-0.121631 -0.224642 -0.141543
-0.121637 -0.221783 -0.15607
0.188291 -0.199155 -0.18815
-0.125109 -0.276214 0.171466
-0.125134 -0.263382 0.103871
-0.152397 -0.262292 0.0941072
-0.125126 -0.262616 0.125694
-0.172167 -0.258022 0.0940981
-0.121646 -0.204794 -0.184043
-0.148017 -0.204726 -0.188301
-0.125118 -0.261826 0.148214
-0.187798 -0.20197 -0.18832
-0.121631 -0.204762 -0.141543
-0.121637 -0.202156 -0.15607
0.170202 -0.185007 -0.188158
0.152022 -0.185477 -0.188166
-0.125109 -0.255942 0.171466
-0.125134 -0.244051 0.103871
-0.167854 -0.19376 -0.188311
0.188291 -0.180884 -0.18815
-0.125126 -0.242981 0.125694
-0.152397 -0.238229 0.0941072
-0.172167 -0.23873 0.0940981
-0.125118 -0.241877 0.148214
0.170202 -0.174016 -0.188158
0.152022 -0.174459 -0.188166
-0.121641 -0.184112 -0.170232
-0.128284 -0.181286 -0.188292
-0.125109 -0.235669 0.171466
-0.125134 -0.22472 0.103871
-0.121631 -0.184883 -0.141543
-0.187798 -0.178888 -0.18832
-0.125126 -0.223346 0.125694
-0.152397 -0.218978 0.0941072
-0.172167 -0.219439 0.0940981
-0.148017 -0.174113 -0.188301
-0.167854 -0.174575 -0.188311
-0.125118 -0.221928 0.148214
0.188291 -0.158959 -0.18815
-0.125109 -0.215396 0.171466
-0.127801 -0.204004 0.094119
-0.121641 -0.164731 -0.170232
-0.128284 -0.162203 -0.188292
-0.125126 -0.203711 0.125694
-0.152397 -0.199727 0.0941072
-0.172167 -0.200148 0.0940981
-0.187798 -0.159652 -0.18832
-0.125118 -0.20198 0.148214
-0.148017 -0.154979 -0.188301
0.170202 -0.144708 -0.188158
0.152022 -0.145076 -0.188166
-0.121631 -0.157051 -0.141543
0.188291 -0.140688 -0.18815
-0.125109 -0.195124 0.171466
-0.127801 -0.184803 0.094119
-0.125126 -0.184076 0.125694
-0.152397 -0.180476 0.0941072
-0.172167 -0.180856 0.0940981
-0.167854 -0.143881 -0.188311
0.152022 -0.134058 -0.188166
-0.125109 -0.184987 0.171466
-0.125118 -0.182031 0.148214
-0.128284 -0.139304 -0.188292
-0.187798 -0.140417 -0.18832
-0.121637 -0.13935 -0.15607
-0.121631 -0.137171 -0.141543
0.188291 -0.122416 -0.18815
-0.125126 -0.164442 0.125694
-0.137624 -0.160972 0.0941143
-0.162272 -0.161395 0.0941024
-0.182084 -0.161735 0.0940931
-0.125109 -0.164715 0.171466
-0.125118 -0.162083 0.148214
-0.121646 -0.124408 -0.184043
-0.148017 -0.124366 -0.188301
-0.167854 -0.124697 -0.188311
0.170202 -0.1154 -0.188158
-0.187798 -0.121182 -0.18832
-0.121637 -0.119724 -0.15607
-0.125126 -0.144807 0.125694
-0.137624 -0.141751 0.0941143
-0.162272 -0.142124 0.0941024
-0.182084 -0.142424 0.0940931
-0.121631 -0.117291 -0.141543
0.170202 -0.10441 -0.188158
0.152022 -0.104675 -0.188166
-0.125109 -0.144442 0.171466
-0.125118 -0.142134 0.148214
0.188291 -0.100491 -0.18815
0.130084 -0.0976277 -0.188176
0.111699 -0.0978775 -0.188185
0.0895118 -0.098179 -0.188194
0.0709182 -0.0984316 -0.188203
0.0522286 -0.0986855 -0.188211
0.0296735 -0.098992 -0.188221
0.0107702 -0.0992489 -0.188229
-0.00823143 -0.0995071 -0.188238
-0.128284 -0.101138 -0.188292
-0.187798 -0.101947 -0.18832
-0.0311643 -0.0960519 -0.188248
-0.050385 -0.0963032 -0.188257
-0.0697065 -0.0965558 -0.188265
-0.0891296 -0.0968098 -0.188274
-0.108655 -0.0970651 -0.188283
-0.148017 -0.093753 -0.188301
-0.167854 -0.0940021 -0.188311
0.188291 -0.08222 -0.18815
-0.0311642 -0.0847517 -0.188249
-0.0503849 -0.0849734 -0.188257
0.130084 -0.0792074 -0.188176
0.111699 -0.0794101 -0.188185
0.0895118 -0.0796546 -0.188195
0.0709182 -0.0798596 -0.188203
0.0522286 -0.0800656 -0.188211
0.0296735 -0.0803143 -0.188221
0.0107702 -0.0805227 -0.18823
-0.00823139 -0.0807321 -0.188238
-0.128284 -0.0820556 -0.188292
0.170202 -0.0751017 -0.188158
0.152022 -0.0752927 -0.188166
-0.187798 -0.0788644 -0.18832
-0.0697064 -0.0738368 -0.188266
-0.0891296 -0.074031 -0.188274
-0.108655 -0.0742263 -0.188283
-0.148017 -0.0746198 -0.188301
-0.167854 -0.074818 -0.188311
0.170202 -0.0641112 -0.188158
0.152022 -0.0642743 -0.188166
0.188291 -0.0602947 -0.18815
0.130084 -0.0607871 -0.188176
0.111699 -0.0609426 -0.188185
0.0895118 -0.0611303 -0.188194
0.0709182 -0.0612876 -0.188203
0.0522286 -0.0614457 -0.188211
0.0296735 -0.0616365 -0.188221
0.0107703 -0.0617964 -0.18823
-0.00823136 -0.0619572 -0.188238
-0.128284 -0.0591563 -0.188292
-0.187798 -0.0596292 -0.18832
-0.0311642 -0.0546177 -0.188249
-0.0503849 -0.0547606 -0.188257
-0.0697063 -0.0549043 -0.188266
-0.0891295 -0.0474558 -0.188275
0.188291 -0.0420236 -0.18815
0.130084 -0.0423668 -0.188176
0.111699 -0.0424752 -0.188184
-0.108655 -0.0437744 -0.188284
-0.148017 -0.0440065 -0.188301
-0.167854 -0.0441235 -0.188311
0.0895118 -0.0389011 -0.188194
0.0709182 -0.0390012 -0.188203
0.0522286 -0.0391018 -0.188211
0.0296735 -0.0392233 -0.188221
0.0107702 -0.039325 -0.18823
-0.00823139 -0.0394273 -0.188238
-0.128284 -0.0400737 -0.188292
-0.187798 -0.040394 -0.18832
0.188395 -0.0353701 -0.168343
0.169998 -0.0353694 -0.171079
0.151602 -0.0353694 -0.173797
0.184946 -0.0353728 -0.0430216
0.164383 -0.0353719 -0.0460883
0.143822 -0.035371 -0.0491551
0.115038 -0.0353697 -0.0534482
0.0944789 -0.0353687 -0.0565145
0.0739202 -0.0353682 -0.0595692
0.0451362 -0.0353681 -0.0638218
0.0245764 -0.035368 -0.0668596
0.00401661 -0.0353679 -0.0698975
-0.016543 -0.0353679 -0.072935
-0.0453265 -0.0353678 -0.0771878
-0.0658859 -0.0353677 -0.0802253
-0.0864454 -0.0353676 -0.0832629
-0.115228 -0.0353675 -0.0875156
-0.120035 -0.0345094 -0.117203
-0.120049 -0.03362 -0.147244
0.185237 -0.0353765 0.116443
0.166592 -0.0353757 0.113659
0.143287 -0.0353746 0.110178
0.124643 -0.0353738 0.107394
0.09668 -0.0353725 0.103218
0.0733788 -0.0353715 0.0997375
0.0547388 -0.0353706 0.0969535
0.0267805 -0.0353694 0.0927778
0.00348341 -0.0353683 0.0892985
-0.0151533 -0.0353675 0.0865151
-0.0431089 -0.0353666 0.0823541
-0.057089 -0.0353666 0.0802882
-0.0757289 -0.0353665 0.0775337
-0.103689 -0.0353664 0.0734023
-0.119956 -0.0350914 0.0604736
-0.119965 -0.0345644 0.0403048
-0.119974 -0.0340531 0.0207326
-0.119983 -0.0335567 0.00173128
-0.119991 -0.0330746 -0.0167245
-0.120006 -0.0321507 -0.0520886
-0.120014 -0.0317078 -0.0690399
-0.119907 -0.0329219 0.171302
-0.119918 -0.0323874 0.147698
-0.119928 -0.03187 0.124846
-0.119938 -0.0313689 0.102714
-0.119947 -0.0308833 0.0812669
-0.12042 -0.0247813 -0.188289
-0.148017 -0.0248732 -0.188301
-0.167854 -0.0249393 -0.188311
-0.187798 -0.0211587 -0.18832
-0.119956 -0.016376 0.0604736
-0.120021 -0.0145959 -0.0855309
-0.120035 -0.0142098 -0.117203
-0.120049 -0.0138435 -0.147244
-0.119907 -0.0126623 0.171303
-0.119918 -0.0124567 0.147698
-0.119928 -0.0122577 0.124846
-0.119938 -0.012065 0.102714
-0.119947 -0.0118782 0.0812669
-0.120006 -0.0107169 -0.0520886
-0.120014 -0.0105693 -0.0690399
-0.119965 -0.0069129 0.0403048
-0.119974 -0.00681064 0.0207326
-0.119983 -0.00671135 0.00173128
-0.119991 -0.00661492 -0.0167245
-0.128284 -0.00190828 -0.188292
-0.187798 -0.00192353 -0.18832
-0.119956 0.00701825 0.0604736
-0.119965 0.00691287 0.0403048
-0.119974 0.0068106 0.0207326
-0.119983 0.00671132 0.00173128
-0.119991 0.00661489 -0.0167245
-0.120021 0.00625538 -0.0855309
-0.120035 0.00608989 -0.117203
-0.120049 0.00593293 -0.147244
-0.148017 0.00573996 -0.188301
-0.167854 0.00575522 -0.188311
-0.119907 0.0126623 0.171303
-0.119918 0.0124567 0.147698
-0.119928 0.0122577 0.124846
-0.119938 0.012065 0.102714
-0.119947 0.0118782 0.0812669
-0.120006 0.0107169 -0.0520886
-0.120014 0.0105693 -0.0690399
-0.119956 0.0257337 0.0604736
-0.119965 0.0253473 0.0403048
-0.128284 0.020991 -0.188292
-0.187798 0.0211588 -0.18832
-0.119907 0.0329219 0.171303
-0.119918 0.0323874 0.147698
-0.119928 0.03187 0.124846
-0.119938 0.0313689 0.102714
-0.119947 0.0308833 0.0812669
-0.120006 0.0278639 -0.0520886
-0.120035 0.0263896 -0.117203
-0.120049 0.0257094 -0.147244
-0.119974 0.0340532 0.0207326
-0.119983 0.0335567 0.00173128
-0.119991 0.0330746 -0.0167245
-0.120014 0.0317078 -0.0690399
-0.120021 0.0354472 -0.0855309
-0.148017 0.0325265 -0.188301
-0.167854 0.032613 -0.188311
-0.12042 0.0362188 -0.188289
-0.119907 0.0531815 0.171303
-0.119918 0.0523181 0.147698
-0.119928 0.0514823 0.124846
-0.119938 0.0506728 0.102714
-0.119947 0.0498884 0.0812669
-0.119991 0.0463044 -0.0167245
-0.187798 0.040394 -0.18832
-0.119956 0.0538068 0.0604736
-0.119965 0.0529988 0.0403048
-0.120006 0.0492977 -0.0520886
-0.120014 0.0486187 -0.0690399
-0.120042 0.0460797 -0.13242
-0.120049 0.0454859 -0.147244
-0.119974 0.0567552 0.0207326
-0.119983 0.0559278 0.00173128
-0.140111 0.0477825 -0.188297
-0.120021 0.0562986 -0.0855309
-0.119907 0.0734412 0.171303
-0.119918 0.0722489 0.147698
-0.119928 0.0710947 0.124846
-0.119938 0.0699768 0.102714
-0.119947 0.0688936 0.0812669
-0.119965 0.0668246 0.0403048
-0.120062 0.0559108 -0.175774
-0.159907 0.0555749 -0.188307
-0.179808 0.0557228 -0.188317
-0.119956 0.0725221 0.0604736
-0.119991 0.0727641 -0.0167245
-0.120006 0.0707315 -0.0520886
-0.120014 0.0697572 -0.0690399
-0.120042 0.0661144 -0.13242
-0.120049 0.0652624 -0.147244
-0.119907 0.0937008 0.171303
-0.119918 0.0921796 0.147698
-0.119928 0.090707 0.124846
-0.119938 0.0892808 0.102714
-0.119947 0.0878987 0.0812669
-0.119956 0.0865587 0.0604736
-0.119965 0.085259 0.0403048
-0.119974 0.0839977 0.0207326
-0.119983 0.0827732 0.00173128
-0.120028 0.0761157 -0.101579
-0.140111 0.0707181 -0.188298
-0.119991 0.0859938 -0.0167245
-0.120062 0.0751903 -0.175774
-0.120006 0.0878785 -0.0520886
-0.187798 0.0788644 -0.18832
-0.119983 0.0961959 0.00173128
-0.120014 0.0908957 -0.0690399
-0.120042 0.086149 -0.13242
-0.120049 0.0850388 -0.147244
-0.171834 0.0825355 -0.188313
-0.119907 0.11396 0.171303
-0.119918 0.11211 0.147698
-0.119928 0.110319 0.124846
-0.119938 0.108585 0.102714
-0.119956 0.105274 0.0604736
-0.148017 0.0860997 -0.188301
-0.119947 0.111655 0.0812669
-0.119974 0.1067 0.0207326
-0.119965 0.112911 0.0403048
-0.119999 0.106513 -0.0346569
-0.120006 0.109312 -0.0520886
-0.120014 0.107807 -0.0690399
-0.120021 0.106342 -0.0855309
-0.187798 0.0980997 -0.18832
-0.119907 0.13422 0.171303
-0.119918 0.132041 0.147698
-0.119928 0.129932 0.124846
-0.119938 0.127889 0.102714
-0.120042 0.106184 -0.13242
-0.128284 0.101138 -0.188292
-0.119947 0.13066 0.0812669
-0.119965 0.126736 0.0403048
-0.119983 0.123041 0.00173128
-0.148017 0.105233 -0.188301
-0.167854 0.105513 -0.188311
-0.119956 0.133347 0.0604736
-0.119991 0.125683 -0.0167245
-0.120049 0.112726 -0.147244
-0.119974 0.133942 0.0207326
-0.119907 0.15448 0.171303
-0.119918 0.151972 0.147698
-0.119928 0.149544 0.124846
-0.119983 0.136464 0.00173128
-0.120006 0.130746 -0.0520886
-0.120014 0.128945 -0.0690399
-0.120028 0.125488 -0.101579
-0.12042 0.116281 -0.188289
-0.119938 0.152019 0.102714
-0.119947 0.149665 0.0812669
-0.119965 0.145171 0.0403048
-0.120042 0.126218 -0.13242
-0.187798 0.121182 -0.18832
-0.119956 0.156741 0.0604736
-0.119999 0.14564 -0.0346569
-0.120049 0.132502 -0.147244
-0.140111 0.128057 -0.188298
-0.119907 0.174739 0.171303
-0.119918 0.171902 0.147698
-0.119928 0.169156 0.124846
-0.119974 0.156644 0.0207326
-0.120006 0.147893 -0.0520886
-0.119938 0.171323 0.102714
-0.119947 0.16867 0.0812669
-0.120014 0.150084 -0.0690399
-0.120028 0.14606 -0.101579
-0.12042 0.135344 -0.188289
-0.159907 0.136063 -0.188307
-0.119983 0.163309 0.00173128
-0.120042 0.146253 -0.13242
-0.183801 0.140342 -0.188318
-0.119956 0.175457 0.0604736
-0.119965 0.172822 0.0403048
-0.119991 0.165373 -0.0167245
-0.119907 0.194999 0.171303
-0.119918 0.191833 0.147698
-0.119928 0.188769 0.124846
-0.119938 0.190626 0.102714
-0.119947 0.187676 0.0812669
-0.119983 0.176732 0.00173128
-0.120006 0.169327 -0.0520886
-0.120049 0.156234 -0.147244
-0.140111 0.150993 -0.188298
-0.119907 0.205129 0.171303
-0.119965 0.186648 0.0403048
-0.119974 0.183887 0.0207326
-0.120014 0.171222 -0.0690399
-0.120062 0.156165 -0.175774
-0.159907 0.155226 -0.188307
-0.120021 0.173066 -0.0855309
-0.120042 0.166288 -0.13242
-0.179808 0.159482 -0.188317
-0.119918 0.211764 0.147698
-0.119928 0.208381 0.124846
-0.119938 0.20993 0.102714
-0.119956 0.20353 0.0604736
-0.119907 0.225388 0.171303
-0.119947 0.211432 0.0812669
-0.119965 0.205082 0.0403048
-0.119991 0.196242 -0.0167245
-0.120006 0.190761 -0.0520886
-0.120014 0.188133 -0.0690399
-0.120021 0.185577 -0.0855309
-0.120049 0.176011 -0.147244
-0.140111 0.170106 -0.188298
-0.119974 0.206589 0.0207326
-0.119983 0.203577 0.00173128
-0.120062 0.175444 -0.175774
-0.119918 0.231695 0.147698
-0.119928 0.227993 0.124846
-0.120042 0.186322 -0.13242
-0.179808 0.178697 -0.188317
-0.119938 0.229234 0.102714
-0.119907 0.245648 0.171303
-0.119947 0.230437 0.0812669
-0.119956 0.226924 0.0604736
-0.120006 0.207908 -0.0520886
-0.148017 0.185593 -0.188301
-0.119999 0.2152 -0.0346569
-0.120014 0.209272 -0.0690399
-0.120021 0.206428 -0.0855309
-0.120049 0.195787 -0.147244
-0.119918 0.251625 0.147698
-0.119928 0.247606 0.124846
-0.119965 0.232734 0.0403048
-0.119983 0.225949 0.00173128
-0.120035 0.205027 -0.117203
-0.119938 0.248538 0.102714
-0.119974 0.233831 0.0207326
-0.179808 0.197912 -0.188317
-0.119907 0.265908 0.171303
-0.119947 0.249442 0.0812669
-0.119956 0.24564 0.0604736
-0.128284 0.200368 -0.188292
-0.119965 0.24656 0.0403048
-0.119991 0.235932 -0.0167245
-0.120006 0.229341 -0.0520886
-0.159907 0.205052 -0.188307
-0.119918 0.271556 0.147698
-0.120014 0.23041 -0.0690399
-0.120049 0.215564 -0.147244
-0.119928 0.272121 0.124846
-0.119938 0.267842 0.102714
-0.120035 0.225326 -0.117203
-0.119907 0.286167 0.171303
-0.119947 0.268447 0.0812669
-0.119974 0.256534 0.0207326
-0.119983 0.252794 0.00173128
-0.120021 0.23562 -0.0855309
-0.12042 0.215407 -0.188289
-0.140111 0.219799 -0.188298
-0.175819 0.220852 -0.188315
-0.119918 0.291487 0.147698
-0.119956 0.273713 0.0604736
-0.120006 0.250775 -0.0520886
-0.119928 0.291733 0.124846
-0.119965 0.274211 0.0403048
-0.119983 0.266217 0.00173128
-0.120014 0.251549 -0.0690399
-0.120049 0.23534 -0.147244
-0.119907 0.306427 0.171303
-0.119938 0.291972 0.102714
-0.119991 0.266801 -0.0167245
-0.120035 0.245626 -0.117203
-0.119947 0.292204 0.0812669
-0.120021 0.256471 -0.0855309
-0.148017 0.235339 -0.188301
-0.119918 0.311418 0.147699
-0.119974 0.283776 0.0207326
-0.120006 0.267922 -0.0520886
-0.128284 0.238534 -0.188292
-0.167854 0.239801 -0.188311
-0.187798 0.24044 -0.18832
-0.119928 0.311346 0.124848
-0.119956 0.297107 0.0604736
-0.119965 0.292646 0.0403048
-0.120014 0.268459 -0.0690399
-0.119905 0.326684 0.171294
-0.119938 0.311277 0.102716
-0.120049 0.255117 -0.147244
-0.119948 0.311209 0.0812684
-0.119983 0.293062 0.00173128
-0.120035 0.265926 -0.117203
-0.119916 0.331346 0.147689
-0.119965 0.306472 0.0403048
-0.119991 0.293261 -0.0167245
-0.119927 0.330957 0.124841
-0.119958 0.315824 0.0604788
-0.119974 0.306478 0.0207326
-0.120006 0.289356 -0.0520886
-0.128284 0.257616 -0.188292
-0.167854 0.258985 -0.188311
-0.187798 0.259676 -0.18832
-0.119937 0.33058 0.102712
-0.119983 0.306485 0.00173128
-0.120014 0.289598 -0.0690399
-0.120021 0.285663 -0.0855309
-0.119947 0.330214 0.081268
-0.119991 0.306491 -0.0167245
-0.148017 0.265952 -0.188301
-0.119915 0.351276 0.147687
-0.120035 0.286226 -0.117203
-0.120055 0.275301 -0.16169
-0.119925 0.350567 0.124833
-0.120062 0.275698 -0.175774
-0.119934 0.34988 0.102697
-0.119966 0.334124 0.0403087
-0.120007 0.31079 -0.0520875
-0.167854 0.27817 -0.188311
-0.187798 0.278911 -0.18832
-0.119943 0.349214 0.0812483
-0.119955 0.343894 0.0604672
-0.119976 0.333722 0.0207391
-0.120014 0.310737 -0.0690389
-0.120021 0.306514 -0.0855309
-0.119985 0.333332 0.00174022
-0.148017 0.285086 -0.188301
-0.11993 0.370185 0.124855
-0.119994 0.332954 -0.016713
-0.120035 0.306525 -0.117203
-0.119939 0.369189 0.102719
-0.119961 0.352552 0.0402863
-0.12001 0.327941 -0.0520751
-0.120049 0.30258 -0.147244
-0.119947 0.368224 0.0812674
-0.119954 0.362608 0.0604649
-0.119982 0.346752 0.00172746
-0.120017 0.327651 -0.0690268
-0.12042 0.295469 -0.188289
-0.171834 0.297512 -0.188313
-0.187798 0.298146 -0.18832
-0.119969 0.356417 0.0207126
-0.119991 0.34618 -0.0167246
-0.119964 0.366381 0.0402981
-0.119937 0.388491 0.10271
-0.119957 0.376648 0.0604771
-0.120026 0.335711 -0.0855138
-0.136164 0.307556 -0.188296
-0.120006 0.34937 -0.0520899
-0.119945 0.391978 0.0812595
-0.120014 0.348786 -0.0690385
-0.12004 0.33495 -0.117186
-0.120052 0.326315 -0.147232
-0.121606 0.315762 -0.184183
-0.165706 0.318037 -0.182776
-0.185963 0.319083 -0.182127
-0.119981 0.373596 0.00172567
-0.119954 0.39536 0.0604631
-0.119974 0.383665 0.0207318
-0.119989 0.372638 -0.0167326
-0.139386 0.3261 -0.177693
-0.119963 0.394032 0.0402956
-0.120019 0.356555 -0.0855392
-0.120003 0.3708 -0.0521019
-0.161538 0.336834 -0.170954
-0.186093 0.338178 -0.170119
-0.11999 0.385869 -0.0167271
-0.12001 0.369919 -0.0690559
-0.120035 0.355244 -0.117206
-0.120053 0.346093 -0.14723
-0.11998 0.395966 0.00171971
-0.139408 0.345652 -0.164348
-0.119968 0.40636 0.0207088
-0.119963 0.417075 0.0402956
-0.120005 0.38795 -0.0520939
-0.171667 0.358768 -0.152284
-0.188471 0.359867 -0.151279
-0.120024 0.376459 -0.101595
-0.120012 0.391061 -0.069047
-0.120031 0.375538 -0.117222
-0.120658 0.366601 -0.145048
-0.137302 0.367724 -0.144022
-0.119993 0.406482 -0.0346791
-0.178255 0.377551 -0.132102
-0.119981 0.422813 0.00172651
-0.159694 0.383146 -0.124633
-0.12 0.409376 -0.0521138
-0.140985 0.388791 -0.11709
-0.180403 0.392257 -0.112489
-0.120008 0.407966 -0.0690632
-0.122567 0.39506 -0.107833
-0.136419 0.397193 -0.103532
-0.155121 0.400073 -0.0977265
-0.183689 0.404472 -0.0888584
-0.139843 0.410851 -0.075945
