ply
format ascii 1.0
comment Created by Open3D
element vertex 1629
property double x
property double y
property double z
end_header
-0.174342 0.00534255 0.167397
0.0498786 0.0439693 0.100495
0.309968 -0.0196196 0.138876
-0.00444008 -0.122163 -0.212314
0.158762 -0.164133 -0.226307
-0.17223 -0.00101705 0.00572699
0.19694 -0.123183 0.211575
-0.213016 0.0872967 0.250885
0.181033 -0.153355 0.209982
0.152784 0.055838 0.0267224
-0.234263 -0.0432173 -0.218316
-0.0739406 -0.13678 0.210028
0.0836926 -0.14345 0.210001
-0.0517806 0.111402 0.233876
0.159235 -0.0154014 0.2187
-0.249311 -0.00190821 0.230043
-0.313461 0.0827032 0.222763
-0.149711 -0.119572 -0.170937
-0.257712 0.0443903 0.107738
-0.29065 -0.187455 0.211452
-0.259471 0.0385659 0.113934
-0.258741 0.0368042 -0.0319124
-0.120259 0.102401 -0.241279
0.231967 -0.131193 0.226643
0.0790524 -0.152015 -0.209984
-0.274985 0.25851 -0.0559845
-0.0481754 -0.119572 -0.195738
0.245281 -0.142127 0.133018
0.152884 0.0514962 0.126204
-0.277377 -0.0614399 0.243336
-0.073107 -0.0271384 0.20553
-0.140761 -0.118751 0.196345
0.274719 -0.104066 -0.136019
-0.0882856 -0.130241 0.210056
0.216413 -0.0251557 0.216886
-0.155062 -0.101672 0.144589
-0.211721 0.0952705 -0.237168
-0.166967 -0.170108 0.181687
-0.285444 -0.153248 0.210032
-0.244487 0.134552 -0.189871
0.157966 -0.141694 0.226643
-0.0227525 0.11751 0.250014
-0.280495 -0.0847988 0.241514
-0.198072 0.0650352 0.180775
0.255485 0.0570034 -0.00548526
0.0991255 0.0475858 -0.131884
-0.297453 0.265226 -0.156694
-0.271096 -0.136537 -0.210018
-0.177155 -0.0251466 0.0920326
-0.248033 0.161209 0.0459149
-0.181468 -0.0948177 -0.188899
0.22898 -0.147691 -0.0983214
0.139544 0.0552166 0.00838479
-0.288373 -0.149729 0.217647
0.252727 -0.119666 0.041209
0.267718 0.0535088 0.00143186
0.289505 0.0348037 0.113922
-0.180918 -0.134948 0.146828
0.231685 -0.101672 -0.0859271
0.141405 0.0202797 -0.210148
-0.248713 0.0441024 0.129583
-0.268214 0.235828 -0.192194
0.296408 0.0254593 -0.129984
0.0229622 -0.101672 -0.179741
0.160612 -0.113804 -0.0867815
-0.181468 -0.0568813 -0.00215076
-0.23132 -0.170054 0.221631
0.0569137 -0.130175 -0.210056
-0.00228224 -0.0174679 0.20553
-0.172263 -0.11963 -0.0664334
0.052273 -0.119572 0.199028
0.256025 -0.259936 0.22965
0.0348755 0.0438903 -0.0557641
-0.090158 -0.119572 0.200086
0.189692 -0.106216 -0.179025
-0.186654 0.0532523 0.217637
0.246206 -0.14625 -0.125991
-0.0626289 0.0976801 0.227185
0.248154 -0.132363 0.0831855
0.241905 -0.113693 -0.0207938
-0.181468 -0.0550094 -0.0247097
-0.180918 -0.14124 0.108427
0.134218 0.157112 -0.263107
-0.177949 -0.170108 0.163736
-0.181406 -0.0268358 -0.157963
-0.180918 -0.145933 0.067121
-0.0847632 -0.110264 0.139617
-0.153338 -0.0947295 0.218242
0.191602 -0.105409 -0.174689
0.179225 0.0517536 -0.211267
0.193669 -0.0944065 -0.208485
-0.181468 -0.0623681 0.00331184
-0.127829 -0.102825 -0.188733
-0.230148 0.090437 -0.172336
0.155848 0.131194 0.230919
-0.181468 -0.0590061 -0.0589359
-0.164593 -0.0430946 0.12209
0.204404 -0.0399728 -0.209085
-0.165819 -0.020643 0.117422
0.211244 -0.0233888 0.249352
0.225829 -0.10987 -0.00180582
-0.25394 0.011566 0.209053
-0.12425 -0.101672 -0.193694
0.250937 -0.167331 0.0620525
-0.248186 0.0428299 -0.142909
-0.0325274 0.102353 -0.225801
-0.169025 -0.00907906 0.0254612
0.0396298 0.0054481 0.20553
-0.129131 0.00294097 -0.182348
-0.0486133 0.0244004 0.149174
0.18828 -0.109493 -0.123699
-0.219191 0.0832328 0.233057
0.206807 -0.120541 0.222265
-0.259252 0.041264 -0.0539271
-0.290966 -0.188706 0.243181
-0.0520054 -0.0991125 0.192287
-0.0283736 0.0345653 -0.00527743
0.258262 -0.268666 -0.219074
-0.0999173 0.0177019 0.0799256
0.177161 0.107241 -0.209407
0.0777183 -0.112773 -0.0549542
0.23013 0.0363584 0.201799
-0.236196 0.0988893 0.0717382
-0.273294 0.254257 0.0950868
-0.232917 0.122419 -0.0347887
-0.278625 -0.0683495 0.227498
0.231327 -0.158153 0.0835431
0.25031 -0.208889 -0.244713
0.158045 0.0469066 -0.183406
-0.165544 -0.147963 -0.122886
0.149244 -0.119572 0.189685
-0.0406397 0.00922645 0.202988
-0.272648 0.252632 0.0603072
0.248795 -0.110628 -0.104927
0.0921968 0.0138624 -0.217461
0.043779 -0.10642 0.206732
0.0245885 0.0321732 -0.189465
0.205208 -0.0051423 -0.210148
-0.286092 -0.261958 -0.214298
0.297648 -0.0074244 0.195222
-0.258493 0.204419 -0.0898878
0.227072 0.18273 -0.234046
0.0423441 0.129912 -0.224572
-0.227461 0.0891618 -0.160989
-0.282328 -0.10497 0.243608
0.255649 -0.130657 0.183884
0.217303 0.183189 -0.238313
0.108264 -0.119979 -0.215543
0.0413797 -0.120103 0.215125
-0.244794 -0.0186546 0.218974
-0.284738 0.277955 0.187398
0.196779 -0.0512392 -0.210148
0.0464969 -0.118206 -0.122474
0.0902544 -0.110258 0.107953
-0.0299197 0.0329037 -0.073403
-0.15556 -0.0834702 0.184826
-0.163329 -0.044243 0.114497
0.111724 0.149611 -0.255593
-0.128543 0.0117505 0.0341128
0.299632 -0.000253873 0.188429
0.253535 -0.179382 0.238081
0.200798 -0.113027 0.179025
-0.00469314 0.0318122 -0.160106
0.0159628 0.0420277 -0.00120708
0.309588 -0.045432 0.145403
0.0879353 -0.107352 0.148118
0.278174 0.0253409 -0.202891
-0.163329 -0.0346131 0.0899551
-0.17272 0.00021653 -0.112767
0.215898 -0.10325 -0.220789
-0.183082 0.0113936 0.127547
-0.0762569 -0.109427 0.135194
-0.140761 -0.102532 0.0839065
0.241048 -0.127497 0.225622
-0.174731 -0.119572 -0.161491
0.210586 -0.000932722 0.241105
0.24232 -0.101672 0.0617671
0.292508 -0.0702021 -0.202881
-0.238129 -0.119624 -0.219426
0.303557 0.00850456 0.145112
0.254599 -0.0959179 0.195978
0.307113 -0.022913 -0.180906
0.223383 -0.12274 0.00805416
0.159099 0.0435629 0.188685
0.0952544 -0.0687924 0.20553
0.0428117 -0.121392 -0.213132
-0.199943 0.084075 -0.236847
0.047454 -0.116702 0.127772
0.0582001 0.121993 -0.248843
0.165855 -0.113551 0.00489233
0.245388 -0.142604 0.200402
-0.0737943 -0.0598352 0.20553
-0.0677534 0.0234086 -0.111693
0.181561 -0.110832 0.0974324
-0.102721 -0.12254 0.212041
-0.1638 -0.119572 0.171694
0.182511 -0.113503 0.00975242
0.194581 -0.0897933 0.203615
-0.145157 -0.126452 -0.210255
0.126792 0.0468296 -0.166686
0.24878 -0.119572 0.151034
-0.168475 -0.115178 -0.179772
0.0172423 0.0345972 0.162438
0.236044 -0.10799 -0.241169
0.235331 0.0580838 -0.00393496
0.13896 0.0353151 0.199766
-0.142671 0.100308 -0.220605
0.271914 0.0271255 -0.206236
-0.101978 0.0117878 0.158237
-0.242715 0.166826 -0.00790971
0.234147 0.0565154 -0.0772674
0.223433 -0.122962 -0.126682
-0.0102665 0.0297217 -0.217644
0.0714403 -0.119572 -0.203305
-0.204417 0.044902 0.156767
-0.163329 -0.073712 0.163967
-0.281668 -0.093755 0.239193
-0.0236119 -0.00135351 0.217815
0.225829 -0.118651 0.18747
-0.242956 0.165879 0.092974
0.24067 -0.119572 0.12198
0.249588 0.0575941 0.00660829
0.105006 -0.0852572 -0.209891
0.117237 0.137339 0.236609
-0.0708902 0.021903 -0.123499
-0.0431671 -0.0944706 0.198805
0.160489 0.0562875 0.0123484
0.00967191 -0.0437609 -0.210148
0.246376 0.0545242 0.109912
0.175706 0.0540408 -0.106257
0.226326 0.18466 0.232724
-0.133014 -0.0174544 -0.209822
-0.191167 -0.0259423 -0.217592
0.225726 -0.133182 -0.19517
-0.0138531 0.0369495 0.0233669
0.132144 -0.113367 0.0235084
0.196772 -0.0285856 0.222717
0.125696 0.0534484 -0.0545194
0.138234 -0.170426 0.21653
0.243311 -0.133348 -0.0381277
-0.148711 -0.142191 -0.226644
-0.200731 0.0451412 -0.146723
0.0725937 0.0794108 -0.218229
-0.0753977 -0.115941 0.150381
0.237988 -0.189498 0.220954
0.249799 0.0491194 0.173343
-0.276669 0.262747 0.108556
0.0856775 -0.00287795 -0.210148
-0.257755 -0.0122954 0.208414
0.0344644 -0.103236 -0.187168
-0.138156 -0.157227 0.209975
-0.0623079 0.025409 0.0914146
-0.163329 -0.0989242 0.0421265
-0.163812 -0.119572 0.109278
-0.0848574 -0.110342 -0.0102752
-0.163329 -0.108207 -0.192364
0.0986541 -0.11271 0.0125311
-0.0780963 0.0473568 0.217689
-0.0338551 -0.105135 0.173165
0.0100539 0.0387167 0.0904085
-0.0691145 -0.130297 -0.226644
0.0450662 -0.0590261 -0.210148
0.23236 -0.119572 -0.152136
-0.0027566 0.0344551 0.126927
0.0392219 -0.109485 -0.0763334
-0.0931894 0.0735577 -0.218174
0.23913 -0.119525 -0.221617
-0.176322 -0.0468739 -0.208736
-0.255722 0.0165869 -0.208555
-0.163329 -0.0449991 0.0819029
0.218596 -0.106698 -0.160122
0.1243 0.0466116 -0.167042
0.0435554 -0.107384 -0.148381
0.126541 0.00541023 0.20553
0.117058 -0.102647 -0.206732
-0.0768679 0.0983772 -0.255861
-0.189663 0.000751503 0.218797
0.252954 -0.0917229 0.201539
-0.163329 -0.100195 0.0973003
-0.180433 -0.170108 -0.184212
0.140984 -0.147615 0.226643
-0.25961 0.0389006 0.114589
0.2411 0.0314316 0.204954
0.242702 -0.133604 -0.141973
0.0193666 -0.0392799 -0.210148
0.246009 0.0577876 -0.0313185
0.0262814 -0.112532 -0.0631788
-0.159042 -0.106311 0.206732
-0.181468 -0.0683649 0.0897173
0.230644 -0.119572 0.190543
-0.167354 -0.0132822 -0.139725
-0.124688 0.00123743 -0.191396
0.191198 -0.0117853 -0.210148
0.269994 0.0521201 -0.0380366
0.0924216 -0.043335 0.20553
0.314334 -0.0446528 -0.064083
0.282442 0.0405421 -0.124973
-0.269822 0.213972 0.159257
0.269931 -0.0565516 -0.210148
0.100039 -0.101672 -0.202844
-0.0123395 0.0955305 -0.217491
0.0255857 0.12771 -0.217716
0.194634 -0.101672 -0.202882
-0.0463229 -0.113402 -0.0245479
-0.181022 -0.116973 0.188929
0.195542 -0.10955 0.118251
-0.246258 0.186248 0.186122
-0.159874 -0.0935942 -0.0958365
-0.180918 -0.16186 0.00491495
-0.184582 0.0958944 -0.209885
-0.181468 -0.0892716 -0.167642
0.0768813 0.13851 0.241789
0.105924 -0.00171879 -0.218452
-0.0680089 -0.0695641 0.20553
0.247038 -0.224 0.237753
0.161804 0.163481 0.231373
0.0773605 0.0319136 -0.218784
-0.0250454 -0.135726 -0.226644
-0.248186 0.0428289 -0.0252541
0.232172 -0.101672 0.0809226
-0.205587 0.0450557 0.0361524
0.192475 0.0743001 -0.225321
0.138798 -0.119572 -0.200529
-0.16909 -0.00786929 0.165348
0.181113 0.100586 -0.210629
-0.0741422 0.0227696 -0.0978317
0.240136 -0.170108 0.0835095
0.27382 0.0493354 -0.0698807
-0.181468 -0.116039 0.120499
0.247948 -0.154013 -0.207701
-0.163728 -0.101672 0.176827
-0.291113 0.249278 0.0919559
0.0247721 -0.112974 -0.0481254
-0.0116255 -0.0943091 -0.208588
0.113881 0.0508344 -0.0973366
0.217036 -0.107695 -0.23016
-0.0224104 -0.109576 -0.0771942
-0.153092 -0.119572 -0.0312694
0.0610751 -0.11333 0.0272319
-0.0758776 0.0249857 -0.00724524
0.238442 -0.119572 0.0388843
0.0664571 0.135752 0.245266
0.173586 -0.0916374 0.219038
0.0445996 -0.108044 0.104372
-0.061255 0.0275555 -0.0470224
0.144795 -0.100676 0.18903
0.129908 0.0541111 -0.0427673
-0.213936 0.0516421 -0.219151
0.178053 -0.119572 -0.18668
0.0643396 -0.149861 -0.209988
0.027617 -0.101672 0.185431
0.0702197 0.1387 -0.216433
0.247725 -0.104906 -0.180125
0.138931 0.0484619 0.153911
0.23976 -0.103298 0.182994
-0.282488 -0.100606 -0.236343
-0.0410902 0.0277519 -0.128893
0.237675 -0.112942 -0.0539052
0.196765 -0.0928383 -0.205481
0.232155 -0.119572 0.180198
-0.0571792 0.112812 -0.21211
-0.172205 -0.11963 -0.0632017
-0.260729 0.209647 0.150886
-0.181468 -0.090046 0.156804
0.0335756 -0.108645 -0.136042
-0.0373097 -0.119572 0.195079
-0.0793907 0.021589 0.0942082
0.0489276 -0.110931 -0.0213622
0.305424 -0.0845464 -0.0618452
-0.145078 -0.101672 -0.192021
-0.174784 -0.119572 0.200831
-0.165587 -0.11963 0.0978756
-0.168475 -0.108499 0.0120707
-0.297379 -0.224915 -0.223978
-0.152061 -0.00955879 0.180804
-0.230398 0.0953242 0.0319495
0.249104 -0.119572 0.11854
0.103304 0.083494 -0.219063
-0.140761 -0.10315 0.187954
-0.283209 -0.16737 -0.247102
-0.240929 0.0893863 -0.215605
-0.17427 -0.11963 -0.195403
0.0952251 0.0439802 -0.170675
-0.295125 0.259369 0.111327
0.141987 0.0487172 -0.158241
-0.151789 -0.0376119 0.19679
-0.21191 0.0894763 0.118485
-0.0537125 0.111144 -0.236182
0.137889 0.0450114 -0.186236
-0.165752 -0.0559096 -0.10821
0.0570642 -0.0909724 0.202841
-0.0524717 0.0261355 -0.119728
0.309175 -0.00327988 0.112818
0.023405 0.0418066 0.0654755
-0.181468 -0.0652397 0.0508592
0.161308 0.0306296 -0.21741
0.234461 -0.120899 0.222873
-0.27378 0.255479 0.0783769
0.136596 0.045324 0.180061
0.0126722 -0.140311 0.226643
-0.181468 -0.101627 0.0782713
0.140542 -0.0727527 0.20553
0.148547 -0.119572 -0.201949
-0.166214 -0.0667946 0.0841051
-0.0863099 -0.111714 -0.131351
0.233698 -0.150972 -0.224226
-0.168322 -0.0389187 -0.0343379
0.0592494 -0.10818 -0.14281
-0.205748 0.0807703 -0.190634
0.0353938 -0.101373 0.187578
0.215919 0.174017 0.266318
-0.139609 -0.0973863 0.191649
-0.157656 -0.100627 -0.0357936
0.126528 0.019509 0.219082
-0.110003 -0.0847384 -0.218891
-0.242266 0.168873 0.0523054
-0.163873 -0.011067 -0.0240169
0.206086 -0.0623796 -0.243515
-0.206326 0.0469176 0.0776622
0.108626 0.0524561 0.0401732
-0.232635 0.0826693 -0.223817
0.229578 -0.119572 -0.184084
0.0869279 0.0112519 0.20553
0.0895476 -0.1028 0.184213
0.0131032 -0.152739 -0.209983
0.159807 -0.163041 0.226524
-0.163329 -0.117896 -0.0122197
0.0793374 -0.113431 -0.0216625
0.25217 -0.112719 0.0435473
-0.0146271 0.117851 0.225666
0.167253 -0.118354 0.0805781
0.2686 -0.0987009 0.186497
0.125697 -0.104872 0.17614
0.243626 0.0455105 0.188334
0.187112 -0.111978 0.0741367
0.100812 -0.118144 0.0460225
0.249892 -0.162678 0.156313
0.25547 -0.130697 -0.0283554
0.211977 -0.0879446 -0.23064
0.0300137 -0.103345 -0.18675
0.0475399 -0.116366 0.167699
0.253544 -0.101794 0.054642
-0.0799058 -0.0213047 0.20553
-0.174916 0.00573988 -0.170738
-0.150179 0.0993722 0.24213
-0.163329 -0.0500561 -0.188952
-0.0805562 -0.11338 0.0221594
0.0202066 -0.0461352 0.20553
0.247746 -0.119666 0.178651
-0.260162 0.0884083 -0.249357
-0.0778204 -0.118288 -0.0511231
-0.0239253 0.116662 0.248026
0.203703 -0.140267 -0.210012
0.0788122 0.0389022 0.185224
0.269508 0.0445986 0.161454
-0.175815 -0.170108 -0.183265
0.0480507 -0.110224 0.0113439
-0.0555945 0.112634 -0.257734
-0.133036 0.00340335 -0.16914
-0.287914 0.279691 0.151669
-0.289601 0.279993 -0.00583999
0.0740203 -0.0878096 0.20469
-0.273289 -0.169596 0.241975
0.224223 -0.102983 0.248628
0.246914 -0.111617 -0.0870235
0.225186 -0.130775 0.158552
-0.240248 0.0207009 0.217338
0.186989 -0.113456 0.0144615
0.0219308 -0.106982 0.152291
0.171735 -0.119572 -0.192078
0.193783 0.0373796 -0.205013
-0.282099 -0.23633 0.238122
-0.156711 -0.101672 0.000149459
0.0842225 0.050145 0.0399298
-0.0128845 -0.0666995 0.20553
-0.0719888 0.0172308 -0.177347
-0.165544 -0.156262 -0.0977944
-0.0848335 -0.0585937 0.20553
-0.188309 -0.00965587 0.118877
-0.017159 -0.0952988 -0.207263
-0.180918 -0.166062 0.157407
0.0245163 0.0373895 0.143003
-0.149494 -0.0548546 -0.204804
-0.175354 -0.0166723 -0.195267
0.232739 -0.119572 -0.0101817
0.161461 0.136765 0.21037
-0.0131508 0.0316211 -0.145352
0.308452 -0.0161132 0.153643
0.0788927 -0.146508 -0.226644
0.201247 -0.110213 0.108603
-0.154488 -0.00131292 0.0921735
0.220015 0.171905 -0.247175
-0.188631 0.0851229 0.244148
-0.181928 -0.0924131 0.217741
0.187607 0.00718848 -0.218279
-0.0910249 -0.0430093 0.20553
-0.261026 0.200238 0.016737
-0.259746 0.20032 -0.0845454
-0.227985 0.125361 0.0918135
0.0696725 -0.101672 0.186612
0.240824 -0.122269 0.200072
0.0984949 -0.170304 0.215918
-0.142047 -0.12602 -0.226408
0.188983 -0.0853062 0.205263
-0.00307824 -0.0142965 0.20553
-0.163329 -0.0571436 0.0914997
0.200471 0.0561132 -0.0814962
-0.231066 0.0882209 0.0855102
-0.220867 0.0929632 0.0536183
0.102804 0.0489873 0.110981
-0.259235 0.00626708 -0.208032
0.0272556 0.039426 0.12011
-0.0770019 0.0240459 0.0464362
0.141738 0.0312051 0.203801
0.0485783 -0.112299 -0.123275
0.00453578 -0.105535 0.218157
0.042602 0.038319 0.161795
-0.281921 -0.0994592 0.242654
-0.176475 -0.119572 -0.173874
-0.31555 0.085329 -0.24429
0.216248 -0.0950161 -0.206946
-0.063762 -0.0523267 -0.210148
-0.181468 -0.0380021 -0.0685376
-0.0608905 -0.165839 0.210741
-0.165544 -0.135568 -0.202478
0.203342 -0.111058 0.0928519
-0.243052 0.0433335 0.227411
-0.166754 -0.0769656 0.0474273
-0.167797 -0.021429 -0.030561
0.0455345 0.0416285 0.1264
-0.0215592 0.0347525 -0.0618487
-0.180918 -0.123321 0.138277
-0.295098 -0.205862 0.22807
-0.143104 -0.119572 -0.151233
-0.199445 0.0975468 0.217036
0.227852 -0.0726819 0.225391
-0.29084 0.280161 -0.0258166
0.0515904 0.0327412 0.218689
-0.185568 0.0701306 -0.218597
0.0717245 -0.110526 0.103667
-0.165544 -0.155618 0.126701
-0.181347 -0.170237 -0.215585
0.243258 -0.139764 0.213642
0.313781 -0.00965547 -0.0165826
-0.0646221 0.0244235 -0.105733
0.158116 0.122338 -0.22045
0.226811 0.0541669 0.115378
-0.165544 -0.150441 -0.119184
0.0788245 -0.105901 -0.169136
0.302197 -0.0914951 0.0408339
0.087119 -0.105891 -0.169239
-0.0482475 0.0258379 0.132286
-0.194652 0.00629662 0.00282765
-0.241745 0.148532 -0.195267
-0.0970477 -0.0584282 0.20553
-0.0265457 -0.139937 0.210013
-0.258044 -0.000833431 0.20822
0.050385 -0.106022 0.163144
-0.197313 0.0133242 0.176316
0.0710586 -0.119572 0.194433
-0.231359 -0.0203941 0.219142
-0.230671 0.0891761 0.0923477
0.195391 0.0621862 -0.236378
0.236793 -0.101672 -0.0589563
-0.157669 -0.100977 0.00328721
0.0882555 -0.142582 -0.210004
-0.139377 0.00316152 0.149442
-0.20166 0.0740612 0.179349
0.225829 -0.11941 0.123966
0.315035 -0.046133 0.0249284
0.232576 -0.0922987 0.222682
-0.176426 -0.0964405 -0.208672
-0.253228 -0.1219 0.224183
-0.00845379 -0.134371 0.226643
0.116589 0.0535244 0.00591889
-0.0921 0.021351 -0.0213692
-0.269325 -0.13175 -0.21137
0.0984059 0.144301 -0.233339
-0.0818107 0.0237169 0.00159995
0.00151554 0.0397068 -0.0270665
-0.263828 0.0937036 0.225727
-0.0758661 -0.117774 -0.153387
-0.261577 0.0906024 -0.209689
-0.26678 0.220959 -0.159258
0.188236 0.0175791 0.20553
-0.167653 0.0977266 -0.227318
0.16944 -0.113302 -0.0346822
-0.249105 -0.00042266 0.226381
0.0733659 -0.0947476 0.198435
-0.151662 0.00228346 0.0683507
0.0675756 -0.113472 0.012881
0.167796 -0.108139 0.172478
0.206261 -0.00477273 0.25003
-0.0398411 -0.124174 0.225835
0.242335 -0.119666 0.123151
0.0379732 -0.11483 -0.171533
-0.0488801 -0.0106577 0.20553
0.0938659 -0.111881 0.0761133
0.240068 -0.119572 0.15863
0.0382425 -0.00790975 -0.210148
-0.257197 0.0347024 -0.14016
-0.0355335 0.0244365 0.175855
-0.170496 0.0978233 -0.23997
-0.146606 0.0249556 0.217666
0.109744 -0.108694 -0.135328
0.222979 0.056657 -0.0725431
0.0802052 0.0430263 0.158308
-0.175723 0.0077689 -0.143614
-0.0909305 0.0199814 0.0767156
-0.165544 -0.127988 -0.120614
0.244803 -0.170108 -0.221131
0.0724247 -0.169831 0.214651
-0.0934089 0.0458088 -0.218823
-0.0856371 -0.113409 0.0769682
-0.173627 0.0332746 -0.217739
0.0187346 0.124531 0.23447
-0.0163099 -0.111809 -0.0821949
-0.275759 0.220947 0.159257
-0.27817 -0.0801828 -0.211809
0.201438 -0.105864 -0.169552
-0.265412 0.00369944 0.250563
-0.0949791 0.0169756 -0.119514
-0.133845 0.062057 -0.218504
0.2003 0.0417951 0.22776
-0.298753 -0.253277 0.212506
-0.0988686 -0.131846 0.226643
-0.27801 0.246506 0.148373
-0.181468 -0.119438 -0.132289
0.213457 -0.0404243 -0.207997
0.19214 0.0489338 0.176094
-0.261093 0.0794717 0.23547
0.163906 0.126105 -0.251976
-0.27502 -0.0629037 -0.210439
0.171005 -0.111665 0.080517
-0.298723 0.27221 -0.167098
-0.169154 -0.170108 -0.019658
-0.117206 0.0909623 0.239237
-0.023168 -0.0939797 0.199461
0.308123 0.00231465 0.108051
0.202849 0.0574375 -0.0421902
0.14252 0.0541692 -0.0726769
0.0560063 -0.113511 0.00896226
-0.214128 0.105426 0.172619
-0.296773 0.263513 0.133968
0.139098 0.146264 -0.212807
-0.251993 0.0455965 0.147492
0.019276 -0.0992635 -0.196578
-0.0383255 -0.118038 0.206732
0.256695 -0.11212 0.045513
-0.183577 -0.0215553 -0.0593523
0.00914882 -0.110471 -0.109398
-0.200451 0.0336319 0.193995
-0.0821307 -0.101672 -0.18643
-0.122645 0.00826771 -0.144194
0.0470531 0.0417517 0.12778
-0.177844 -0.0328392 -0.0286415
0.0391434 -0.10955 0.14436
-0.148592 -0.0966604 -0.184709
0.192505 0.056789 0.0531112
-0.226604 0.0870062 -0.167179
0.295408 0.0315334 -0.0746689
0.078668 0.127106 0.250024
-0.0588022 0.0234548 0.133844
-0.240252 -0.167302 0.211721
0.0380077 0.0441613 -0.0618539
0.214641 -0.119572 -0.191897
-0.235126 0.0988137 -0.0347043
0.233299 -0.101672 0.045902
-0.10902 -0.122424 -0.212125
0.0226637 -0.112754 -0.0556355
0.231244 -0.157783 -0.11948
0.21518 -0.0200282 -0.225434
-0.136448 -0.0556391 -0.218853
0.142615 -0.146944 0.226643
-0.0237064 -0.114435 0.10231
0.180216 0.111372 -0.249771
-0.0386324 -0.169637 -0.214361
0.269053 -0.0989927 0.185694
0.24236 -0.170108 -0.131026
0.231231 -0.101672 0.128598
-0.290039 0.280071 -0.124405
0.132361 0.0474571 0.159668
0.313484 -0.0424694 -0.0896572
-0.1665 -0.0432482 -0.0928498
-0.163329 -0.0400596 0.00261629
-0.259825 0.0825756 -0.217829
-0.153168 -0.135882 -0.226644
-0.260159 -0.0803447 0.217205
0.253544 -0.119572 -0.149158
-0.12799 -0.113429 0.017178
0.277092 -0.277252 -0.218428
0.243594 -0.134611 -0.180577
0.186653 -0.0903216 -0.218033
-0.259143 0.208644 0.102736
0.266409 0.0540854 -0.00498376
0.307716 -0.077802 0.0613409
0.120579 -0.112811 0.049069
-0.140761 -0.114615 0.035399
-0.290886 -0.226318 -0.209353
-0.285611 -0.130677 -0.242087
-0.139033 -0.139982 -0.226644
-0.262944 0.0607136 -0.218792
0.241324 0.0307459 -0.209699
0.246374 -0.106989 -0.157553
-0.27046 -0.152509 0.214927
-0.0523877 -0.107873 -0.217339
0.105544 -0.109478 0.119305
0.0507637 0.0279643 -0.218905
0.190435 0.00815249 0.248754
-0.180918 -0.158941 -0.00512126
0.14269 0.115355 -0.217364
-0.140761 -0.10386 -0.103585
-0.00977406 -0.0607507 -0.219087
-0.181468 -0.0479305 0.0177497
-0.180918 -0.143256 0.0678629
-0.115052 0.0918787 -0.216726
0.0698162 -0.10103 -0.192907
-0.273604 -0.152041 -0.209903
-0.164438 -0.11971 0.219945
0.31059 -0.0117118 -0.11886
-0.2286 0.124325 -0.159258
0.268489 -0.110734 -0.00366835
-0.282871 -0.244624 -0.233271
-0.0359536 0.101762 0.227803
0.0901781 0.0492752 -0.0870888
-0.127532 -0.157923 0.226643
-0.165544 -0.156955 0.120506
0.192161 0.0756057 -0.221029
0.0998307 0.010772 -0.210148
0.048235 -0.113643 0.154081
-0.165544 -0.120474 0.161499
0.302518 -0.0737351 -0.168277
-0.165963 -0.0447263 -0.1051
-0.272792 0.203191 -0.162815
0.185584 0.0150888 -0.22521
-0.171001 -0.119572 0.00124019
-0.186105 -0.0151984 -0.0598698
-0.170669 -0.119869 -0.220909
0.154786 0.161418 -0.244694
-0.181468 -0.0569153 -0.00302846
-0.106986 0.0458596 0.218974
-0.258959 0.202596 -0.126873
0.0391113 0.0452577 -0.0148623
-0.292907 0.25379 -0.124367
0.243157 -0.101672 0.181076
-0.234857 0.156153 0.189018
-0.196779 0.0840574 0.222892
0.264213 -0.111452 -0.0305018
-0.24276 0.166648 -0.00631884
0.085785 -0.159824 0.226643
0.248559 -0.101672 0.0855097
0.260162 -0.0791274 -0.210148
-0.161979 -0.119572 0.0773255
-0.181468 -0.100154 -0.12204
0.186601 0.0559834 -0.252558
-0.246592 0.161302 0.042894
0.178954 -0.119572 -0.206128
0.20035 0.167779 0.265581
-0.181468 -0.0743429 0.149892
0.159198 0.0523725 0.117162
-0.0395285 -0.106461 0.206732
-0.217081 0.112853 0.170761
-0.14175 0.00835739 -0.0467542
-0.140761 -0.117584 -0.131241
0.241499 -0.101672 -0.219298
0.274489 -0.0390065 -0.210148
-0.151924 -0.119572 0.201476
0.180577 0.0553734 0.0785705
0.181396 -0.108726 0.13024
-0.165544 -0.137609 -0.166154
0.280691 -0.106185 -0.0642555
-0.199638 0.0908593 0.252318
0.239906 -0.106269 -0.16707
0.030011 0.0343016 -0.18438
-0.180918 -0.153645 0.181007
-0.0487541 -0.0561232 0.20553
-0.0827178 0.00136072 -0.208687
0.1048 0.0191743 -0.210148
-0.180413 -0.0328392 -0.00541997
-0.154908 -0.103309 -0.0301754
-0.0731054 -0.0836658 0.20553
0.0945656 0.0214892 -0.210148
0.193601 0.0512444 0.150734
0.19933 -0.166042 0.210877
0.0844268 0.0194555 0.20553
0.255845 -0.126406 0.0763792
0.243681 -0.119666 -0.16976
0.0980481 -0.113416 -0.023151
0.251256 -0.101672 0.179545
0.234733 -0.170108 -0.11054
0.298659 0.0132638 -0.181644
0.243532 0.0558759 0.0867497
0.0804619 0.0424344 -0.169864
0.224426 0.0577512 -0.0311594
0.246768 -0.119666 0.0688691
-0.168601 -0.0101434 -0.111128
-0.147993 -0.0456519 -0.206593
-0.217171 0.0929455 0.195267
-0.181468 -0.0556889 -0.133433
-0.0153897 -0.0349123 0.20553
0.00419904 0.037165 0.104639
0.123666 -0.119572 -0.184722
-0.147456 -0.101672 -0.220938
0.207352 0.179751 -0.251805
0.218495 -0.168281 0.224233
-0.0842733 0.0228736 0.0330976
0.243293 -0.133271 -0.117558
-0.295305 -0.207594 -0.227481
0.172237 -0.101057 0.188237
0.0252227 -0.119572 0.203235
0.292931 -0.0981886 0.099191
0.205773 -0.163909 -0.226351
-0.0742359 -0.111392 -0.15027
0.193311 0.0558981 0.24973
-0.180918 -0.145962 0.143019
-0.165544 -0.152049 -0.13232
0.154619 0.161734 0.253601
-0.281445 -0.125317 -0.247273
0.203715 0.0171399 -0.211435
0.247203 0.0517911 0.146519
0.0452288 -0.0753329 -0.210148
0.100071 -0.135149 -0.226644
0.0474789 -0.109863 -0.0886185
0.0388989 -0.109753 0.157561
-0.181468 -0.0918358 -0.176833
-0.254187 -0.0371682 -0.228305
0.103924 -0.108411 0.134827
-0.152915 -0.108747 -0.219035
0.275876 0.0409987 0.162335
-0.294294 -0.202941 0.214741
-0.168475 -0.113334 0.16621
0.170425 -0.109799 -0.0533502
-0.191338 -0.00170457 0.179619
-0.14535 -0.109927 -0.0192707
-0.163329 -0.10733 -0.0912038
0.209247 0.00117792 -0.245333
0.225829 -0.105424 0.0660786
-0.133499 -0.0977756 -0.198484
0.03795 0.0390152 0.146524
-0.202799 0.0271237 -0.171469
-0.180918 -0.164594 -0.0981624
-0.309799 0.0827479 0.231194
-0.283728 0.277523 0.0834304
-0.0354393 -0.000274146 -0.210148
0.169114 0.166215 0.253473
-0.266227 -0.119169 -0.243196
0.174647 -0.124387 -0.225901
-0.163329 -0.0567913 0.0905306
0.0433725 0.132908 0.25941
-0.204965 -0.0102371 -0.217776
0.247349 -0.119572 0.0804326
-0.237442 0.0983735 0.0819254
0.0231007 -0.0236572 0.20553
0.128187 -0.167537 -0.211879
-0.199922 0.0451937 0.147589
0.142373 -0.075355 -0.218904
-0.12789 0.0913301 0.2509
-0.189102 -0.00766112 -0.0889097
-0.0302857 0.115365 -0.259437
-0.252838 0.163916 0.0611178
0.116725 0.136687 -0.218816
0.16179 0.0353011 -0.209154
-0.181468 -0.0710961 0.0976646
0.153688 -0.150848 0.226643
-0.259552 0.0851958 0.248243
-0.175909 0.00823748 0.0645236
-0.133295 0.0537094 -0.219149
0.241303 -0.12784 0.0874229
-0.220086 0.0936108 0.09389
-0.280968 0.0941647 0.233208
-0.0416455 -0.0982145 -0.198429
0.303424 -0.0901893 -0.0298493
0.17206 0.166823 0.210131
-0.0790306 0.0151543 -0.217409
0.103995 -0.118467 -0.0468329
0.183738 0.0223092 0.241773
0.230064 -0.152523 0.136
0.228541 -0.145735 -0.0527722
-0.242461 0.172396 -0.159258
0.252995 -0.131261 -0.111753
-0.204891 0.038356 -0.192419
-0.271673 -0.0298914 0.248023
0.0896208 -0.112968 0.0437004
0.15319 0.160668 -0.226409
0.186586 0.090737 0.2477
0.274065 -0.0198927 0.20553
0.0567463 -0.0123664 -0.210148
-0.165544 -0.141697 -0.10246
-0.200829 0.0570511 0.194575
-0.298301 -0.233816 -0.216047
0.266723 -0.249583 -0.241811
0.144638 -0.110791 -0.102886
-0.227739 0.095687 -0.240619
-0.295073 0.278478 -0.171665
-0.181468 -0.112609 -0.132031
-0.0753653 -0.122428 0.212122
0.196339 0.163077 0.237746
0.158981 -0.0839324 -0.217636
-0.165544 -0.139358 0.170982
0.163025 0.056303 -0.0260778
-0.181468 -0.0437005 -0.199351
-0.110309 -0.106336 -0.164218
-0.197492 0.06317 0.188262
-0.00945514 -0.112343 0.0650169
0.14793 0.0455876 -0.186889
0.296132 -0.0981337 0.0520301
0.115864 -0.0757063 0.218876
0.190239 -0.119572 -0.181145
0.0125822 0.120932 0.261256
-0.163329 -0.0930083 0.0575738
-0.213995 -0.119677 0.216977
-0.232183 -0.157466 0.226643
-0.198172 0.0453073 -0.102493
-0.0811284 -0.10725 -0.091522
0.21914 -0.11274 -0.206732
0.253544 -0.118263 0.017092
0.0243371 -0.0559303 0.20553
0.109847 -0.113296 -0.105623
-0.155834 -0.0118909 0.171003
0.11138 0.0290361 -0.208363
0.0183923 -0.0696499 -0.210148
0.187355 0.0504855 0.156454
0.112617 0.0486952 -0.130427
0.287357 0.0336293 0.14669
-0.241352 0.0904075 -0.167203
-0.163329 -0.0959236 -0.101712
-0.0119442 0.0363246 0.0624362
-0.207239 0.0980794 0.246522
-0.208752 0.0919017 -0.183113
-0.260324 0.221631 -0.176104
-0.180918 -0.157349 -0.194933
0.0435357 -0.118398 -0.142043
-0.280041 0.245698 -0.105622
0.250963 -0.167447 0.0238039
0.204559 -0.112371 0.0640626
0.126406 0.0505946 0.113264
-0.181468 -0.0395437 0.0567083
0.236634 -0.119572 0.155933
-0.167622 -0.012608 0.01483
-0.22132 0.120989 0.189851
-0.0152627 -0.109093 -0.0892498
-0.268733 0.203901 -0.0585794
-0.236742 0.0842634 0.245439
-0.0728738 0.0145054 -0.189257
0.148078 -0.168799 0.213107
-0.258627 0.208317 0.125034
0.036716 0.0394362 0.139579
0.271792 -0.104189 -0.145809
0.213582 -0.057288 -0.250174
0.244879 -0.133108 0.191207
0.164761 0.0512186 0.13717
0.0964648 -0.113098 0.039276
0.163476 -0.108484 0.101894
0.20349 -0.119572 -0.204547
0.268427 0.0525173 0.0435072
0.231945 -0.160912 -0.167477
0.266057 -0.110672 -0.0473059
-0.247071 0.171978 0.194893
-0.163329 -0.0564863 0.168805
-0.148636 -0.106383 -0.0841281
-0.295401 0.0928005 -0.209832
-0.165544 -0.122732 0.15525
-0.0332613 -0.000790621 -0.210148
-0.258312 -0.066991 0.220972
-0.0603921 -0.163356 0.226461
0.19983 0.0437528 -0.238936
-0.168306 -0.0455309 0.0383432
-0.0771618 0.0241913 -0.0450284
0.245307 -0.142245 -0.114297
0.153103 -0.131676 0.210047
-0.161139 -0.0861334 -0.130241
-0.247643 0.0961491 0.248367
0.245666 -0.143846 0.00793932
-0.252909 0.155308 0.159257
-0.0817366 -0.105623 0.167657
0.175582 -0.169869 0.214709
0.238329 -0.119572 -0.0683606
0.253544 -0.114293 -0.0471961
0.108914 0.0526004 0.217688
0.000370972 0.0329441 -0.157641
0.227687 -0.101672 -0.149175
0.203191 -0.113287 0.0315426
-0.182894 -0.124162 -0.225831
-0.269092 -0.144964 -0.235965
-0.22309 0.110723 0.195107
0.229518 -0.101672 0.0571828
-0.165989 -0.0207108 -0.0324049
-0.24721 0.0404699 -0.0447604
0.197783 0.0566762 0.0623579
0.0107711 -0.101672 -0.184916
0.249531 -0.132049 -0.117706
0.159005 0.119148 -0.219425
0.241591 -0.170108 -0.06431
-0.0104489 -0.0329367 0.218928
0.203311 -0.110271 -0.11238
0.209873 0.0288127 -0.210023
0.0075586 0.123615 0.218056
-0.222366 0.0917197 0.0728709
0.223733 -0.124299 0.0119194
-0.268058 0.0198608 0.232945
-0.112425 0.0154733 0.050515
0.256952 -0.263259 -0.216636
-0.171867 -0.00192908 -0.139968
0.208097 -0.11059 -0.106984
-0.204573 0.0549988 -0.082618
0.032378 0.0440113 -0.03959
-0.163329 -0.07177 -0.0474008
-0.267508 0.00194948 -0.211867
-0.262422 0.224701 -0.159258
0.189368 0.0872146 0.229686
0.228984 -0.113104 -0.0436782
-0.286933 -0.14013 -0.215114
-0.251344 0.170642 0.110144
-0.00774838 -0.154614 -0.20998
-0.0233829 -0.119134 0.219103
-0.241263 0.0901931 0.188627
0.198759 -0.101672 -0.19823
-0.238082 0.137679 0.159257
0.0624319 -0.107368 0.147929
0.0661696 0.0408798 -0.16973
-0.275901 0.254891 0.192399
-0.110122 -0.0699645 -0.217923
-0.163329 -0.057101 0.0537947
0.146343 0.0543061 -0.076182
-0.29776 0.275264 -0.0769346
-0.250199 0.19616 -0.159915
0.236898 -0.110246 -0.233989
0.206974 -0.113481 0.0119568
-0.280656 -0.228622 0.226807
0.245646 0.0538928 0.120232
0.0568184 0.041476 0.146964
0.120639 0.0351465 0.202248
-0.235393 0.082947 0.236038
0.182294 -0.112365 0.0642598
-0.0328199 -0.107284 0.206732
-0.261238 0.209969 -0.00523435
-0.194604 0.0276942 -0.195267
-0.0668744 -0.142424 0.226643
-0.21461 0.0934213 0.140142
0.219665 0.0515279 0.15032
-0.0301599 -0.119572 0.20335
-0.0971116 0.104661 0.228937
0.304066 -0.0818299 0.110126
0.14773 0.0552422 -0.0491449
-0.151781 -0.119572 -0.114751
0.185091 0.087897 -0.210934
-0.232749 0.147101 -0.191826
0.0815538 0.14169 -0.262555
-0.163329 -0.0557678 -0.0703924
-0.258107 -0.0655201 0.234513
0.236194 0.0562242 0.0788097
-0.0738809 -0.111733 0.0791279
0.1353 0.0418349 0.189372
-0.0609348 -0.113209 -0.0401089
0.14061 -0.0932831 -0.20501
-0.295768 -0.211456 0.231353
0.0708788 -0.036593 -0.218254
0.185503 0.0163562 0.20553
-0.109985 0.0158191 0.0637999
-0.198713 0.0877477 -0.251466
-0.0870457 -0.0653942 -0.210148
-0.176521 0.0857009 0.238275
0.153696 -0.138357 -0.210021
-0.125872 0.00764562 0.136901
0.00679884 -0.112409 0.0627656
0.227872 -0.101672 0.0758927
0.0685775 0.0427077 -0.152203
0.190027 0.0844789 -0.237044
0.249343 -0.16023 -0.12436
0.130208 -0.0837692 0.20553
0.260699 -0.27818 -0.233752
-0.165544 -0.143295 -0.0164306
0.18088 0.122476 0.228788
0.174188 0.0554042 -0.0773373
0.0412507 -0.108083 -0.144217
-0.258506 0.167255 -0.182122
-0.138381 -0.0945907 -0.219088
-0.0753326 -0.115686 -0.0967768
-0.0573513 0.00670867 -0.206583
0.0232147 0.127471 -0.217085
0.051883 0.130759 -0.262765
-0.185889 -0.129562 -0.226644
0.249058 -0.132157 -0.0758226
0.161244 0.0537027 -0.101292
0.0495794 0.040578 -0.218833
-0.292919 0.253821 0.150801
0.303362 -0.0887979 0.0598282
0.159272 -0.113605 -0.000560869
-0.0764069 -0.119572 0.188629
0.14298 0.000949655 0.21889
-0.238068 0.126756 -0.169067
-0.254222 0.168257 -0.145177
0.0195386 -0.0634769 0.218721
0.0499303 -0.101672 0.20339
0.189182 -0.105472 0.169359
0.196435 -0.156778 0.226643
-0.241094 0.0953739 -0.155204
-0.160485 -0.0253745 -0.169141
0.000739099 0.0727951 0.217816
0.159319 -0.103111 0.183024
-0.163329 -0.111638 0.00198258
-0.163329 -0.0390134 0.0489722
-0.16635 -0.0826157 0.0071698
-0.223384 0.0908754 -0.133637
0.00660683 0.122726 0.249696
0.0553213 -0.15549 -0.226644
0.225272 -0.111579 0.082252
0.0113443 -0.105982 0.179025
-0.247287 0.160578 0.195267
0.248189 -0.179523 -0.245272
0.269651 -0.10582 0.125186
0.289803 -0.0390922 -0.209686
0.0997646 0.0344341 0.217419
-0.0786085 0.109261 0.249212
-0.235056 0.0709237 -0.219058
-0.160326 -0.092236 0.0972629
-0.140761 -0.103857 0.0194268
-0.192469 0.000805903 -0.100047
-0.270726 0.215315 -0.159258
0.178287 0.0438335 -0.194338
-0.16348 -0.0914024 -0.0372267
0.246655 -0.170108 0.113493
-0.251153 0.170801 -0.166239
-0.0555707 -0.110515 0.103894
0.231546 -0.15913 -0.199596
0.150565 -0.101672 0.181135
0.080068 -0.109077 -0.12976
-0.0848841 -0.115305 0.170841
-0.180281 -0.170108 -0.193957
-0.198124 0.0453104 0.0182381
0.110918 -0.119572 0.205146
0.242352 -0.13221 0.174588
0.192004 -0.107607 -0.149847
-0.266971 0.0282424 0.218671
-0.0306056 -0.101672 0.200638
0.24787 -0.153664 0.0693161
-0.0999878 -0.0304918 0.20553
0.101437 0.0264825 -0.209339
0.148598 0.0490802 -0.15934
-0.291057 -0.172109 0.231434
-0.131216 -0.132519 0.210044
-0.00477151 0.119742 -0.226705
-0.167435 -0.0258624 0.0411727
0.297786 0.0217707 -0.141812
0.225829 -0.107977 0.0118848
0.112907 -0.13302 -0.226644
-0.140761 -0.117547 -0.0602518
-0.236912 0.123849 0.0866316
-0.273152 0.248438 -0.160318
0.0746861 -0.0828406 -0.219051
0.104538 -0.107043 0.113748
-0.180918 -0.167323 0.0186042
0.164784 -0.105048 0.174151
0.130379 -0.0279373 0.20553
0.0421681 -0.111902 0.0756843
-0.236504 0.0987619 -0.140056
-0.277014 -0.202278 -0.232905
0.253565 -0.107812 0.137772
-0.143811 -0.119572 -0.121099
-0.179372 0.0901714 0.210052
-0.170281 -0.0328392 0.0566948
-0.214559 0.0567076 0.160945
-0.163329 -0.0337742 0.111605
-0.275487 -0.187677 -0.214486
-0.140761 -0.111701 -0.14533
0.310159 -0.0561088 0.117765
-0.145719 -0.0808705 -0.20651
-0.0362713 -0.166451 0.22546
-0.2339 0.0868499 -0.152063
0.128348 -0.0775432 -0.217991
-0.0223264 -0.112248 0.068258
-0.0844754 0.107303 0.256852
-0.165388 -0.139786 0.210014
-0.0662112 0.0687702 0.219113
-0.298593 0.273821 -0.0514885
0.0300743 0.0440435 0.00105099
-0.229595 0.136762 -0.192887
-0.124481 -0.110831 0.0974666
-0.170863 -0.00445413 0.0840686
0.300874 0.0102662 0.166954
-0.160918 0.0891303 0.252102
-0.0210866 -0.108478 -0.0996184
0.195935 0.0599273 -0.230009
-0.0733976 0.0253953 0.0148853
0.25133 -0.101672 -0.187079
-0.267355 0.200434 0.0211099
0.165531 -0.10678 -0.129061
-0.0320188 -0.10698 0.152319
0.286724 0.0388515 -0.0991255
0.0419189 -0.118503 -0.0968652
-0.0956758 -0.062866 -0.210148
0.246722 -0.074613 0.20553
0.30919 -0.0524127 -0.145534
-0.278919 0.232844 0.194414
-0.234665 0.0986222 0.201008
-0.266294 0.236648 -0.172669
0.174171 -0.13795 0.210023
-0.181468 -0.0677401 0.179146
0.313325 -0.0565153 -0.0495348
-0.163113 -0.0923988 -0.018543
-0.181755 0.00703394 -0.195041
-0.248196 0.0425064 -0.250997
-0.154895 -0.119572 0.147122
0.0669199 -0.119572 0.18689
-0.104504 -0.0438844 0.20553
0.0716186 0.125086 -0.219957
-0.0131048 -0.112925 -0.0765463
-0.0900774 -0.111875 -0.0808538
0.113618 -0.113344 0.0257583
-0.223707 -0.168232 0.212344
0.227516 -0.119572 -0.201269
-0.0177465 0.0341633 0.0876067
0.252323 -0.101672 -0.0310641
0.0818084 -0.166676 -0.211302
-0.254323 0.0335112 -0.179766
-0.00723513 0.119027 0.209985
0.203186 0.00420008 0.250791
-0.279079 -0.217222 -0.217277
-0.131249 -0.111519 -0.0880978
-0.011581 -0.136384 0.21003
-0.181468 -0.0625686 -0.0496429
-0.222205 0.0868588 -0.0752285
0.124008 0.154505 0.259431
-0.115263 -0.160836 0.209974
-0.0166044 0.0292533 -0.164754
-0.15037 -0.104989 0.206732
-0.0165778 0.117478 0.225543
-0.179283 -0.0328392 0.157103
0.0839667 -0.106747 -0.15957
-0.0525908 -0.105816 -0.170092
0.227051 0.048394 -0.184304
-0.288727 0.243277 0.0635886
0.0824183 -0.108118 0.139094
-0.0814511 -0.108247 0.137215
-0.163329 -0.108041 -0.101298
0.225829 -0.116046 0.0678807
-0.243148 0.165129 -0.145835
-0.181468 -0.058628 0.150886
-0.249841 0.161092 -0.163117
0.124907 -0.119572 0.190159
-0.0108196 0.0419877 0.217426
-0.276698 0.262819 0.0559323
0.29246 -0.0987058 0.0962511
-0.271173 0.0849156 0.211062
-0.168068 -0.0114849 -0.0735339
0.189217 -0.10718 0.15006
0.15992 -0.112061 -0.110761
-0.163329 -0.0459952 0.149613
-0.00241517 -0.103413 -0.186492
0.0849689 0.128326 -0.23113
-0.181468 -0.0422736 -0.0107811
-0.052331 0.0140926 0.194138
-0.282697 0.276202 0.186553
-0.0190842 -0.118469 -0.0782235
-0.147763 -0.101672 0.0599846
0.155265 0.0100875 -0.210148
-0.260402 0.0854901 0.240669
-0.289589 0.245445 0.07831
-0.268257 -0.0489587 -0.251306
-0.106246 -0.101672 -0.18105
-0.256327 0.0449646 0.114534
-0.26938 0.0961649 0.215431
0.188162 -0.113023 0.0418348
0.0284245 -0.106924 -0.157576
0.0470604 -0.100182 -0.218617
-0.226443 0.136403 -0.185836
-0.221844 -0.17048 0.219813
0.179303 -0.170672 0.21776
0.117856 -0.144452 -0.209997
-0.181468 -0.039117 -0.118811
-0.201658 0.0242557 -0.171047
-0.013567 -0.114735 -0.0509064
0.0409727 0.0269744 -0.207692
0.180359 0.0559693 0.0643098
-0.0110442 -0.119468 -0.217968
-0.156003 -0.00867273 -0.151128
0.233386 -0.0844863 -0.210033
0.0538922 0.0470666 -0.0329911
-0.163329 -0.0809799 -0.0971459
-0.247921 0.177002 -0.194231
-0.166772 -0.073771 0.0554304
-0.165743 -0.0206129 -0.0339542
-0.126002 -0.165712 -0.210656
0.206427 0.166703 0.236143
0.0900574 -0.119266 0.206732
-0.0891921 0.0163403 0.141662
-0.246767 0.140089 0.189723
0.13232 -0.161436 -0.226644
0.0972675 -0.111625 -0.0859357
0.19832 -0.119572 0.194247
0.184159 -0.121323 -0.223594
-0.289439 0.245066 -0.166127
0.140428 -0.119574 -0.219129
0.103853 0.145812 -0.234301
-0.165544 -0.135213 0.179203
-0.0626507 -0.104019 -0.206732
0.216065 0.0579111 0.00553929
0.0201191 -0.0395848 0.20553
0.0755349 0.0477674 -0.0851553
-0.292668 0.25319 -0.0671967
0.0555482 -0.121186 -0.213451
-0.192658 -0.130175 -0.210056
-0.265077 0.210942 -0.087996
0.0597841 -0.106861 -0.158281
-0.192638 0.0075926 -0.0560325
-0.286815 -0.181484 0.245989
-0.252921 0.0459806 0.147444
-0.185307 -0.0172056 -0.0743078
0.228015 -0.141553 0.211272
0.302409 0.0161615 0.119198
-0.27742 -0.205216 0.236915
0.152134 -0.0572726 -0.210148
-0.21967 0.0695649 0.179021
0.124158 0.151769 -0.252045
-0.231571 0.0878162 -0.177181
0.223975 -0.134783 -0.216057
-0.113006 0.00961942 -0.156228
0.0494455 -0.123447 -0.211383
-0.140761 -0.106625 -0.0567114
0.129488 -0.00641201 0.20553
-0.126741 -0.013766 0.20475
-0.169059 -0.0328392 0.0936896
0.24379 -0.106262 -0.167416
0.24823 -0.170108 0.163221
0.107556 -0.118236 -0.104238
0.227823 0.180787 -0.222228
-0.181468 -0.0764623 -0.0905872
-0.180918 -0.144575 -0.117943
-0.181937 -0.141737 0.226643
-0.170501 -0.145005 0.209359
-0.240075 -0.156944 0.209976
-0.234455 -0.144412 -0.209997
0.0386688 0.129242 0.239862
-0.223677 0.0796429 -0.186641
0.0329209 0.11603 -0.22025
-0.121564 -0.105414 0.170013
-0.180918 -0.167664 -0.00460989
-0.179682 -0.0328392 -0.107206
-0.13511 -0.00416604 -0.197008
0.251459 -0.170763 -0.218897
-0.174463 0.00460036 -0.146361
-0.166179 -0.0273961 0.0810193
-0.141385 -0.0068771 0.193255
0.0988122 -0.104098 -0.183877
-0.131073 -0.108562 0.132827
-0.0804269 -0.106793 0.0528235
-0.163329 -0.102647 -0.166585
0.30385 0.0203376 0.0441853
-0.164775 -0.019769 -0.142967
-0.140761 -0.106959 -0.0271267
-0.181468 -0.0976402 -0.000146858
0.156028 -0.156137 -0.209977
0.0921574 0.0495163 0.0819728
0.230337 0.057727 0.0324123
-0.108668 0.0141214 0.218272
0.189206 0.0652073 -0.251081
-0.25677 -0.055849 -0.233958
-0.106344 -0.109744 -0.12004
-0.166749 -0.0201523 -0.0310617
-0.167724 -0.0541125 -0.0614389
-0.29891 0.269888 0.0944178
-0.108632 -0.119572 0.189878
-0.165544 -0.127577 0.00217038
-0.243094 0.0828718 0.219134
0.0363045 0.0439534 -0.0605738
-0.271012 -0.121022 -0.223083
-0.130463 -0.0123417 -0.208128
-0.233588 0.133815 0.0115549
0.0954658 -0.0143108 0.218896
0.311865 -0.0334679 -0.124451
-0.0512738 -0.0476265 0.218691
-0.162913 -0.0622887 0.142858
0.0915342 -0.0410971 0.20553
0.153206 0.14946 -0.216603
-0.275547 0.259925 0.0809538
0.139654 0.0150003 0.20553
0.0222663 0.024771 0.197236
0.182835 0.165942 -0.209737
0.144131 -0.084523 -0.210027
-0.270666 -0.0540384 0.20823
0.0790739 0.0413224 0.176017
-0.148864 -0.101672 0.156551
-0.0400753 0.0322346 0.0233453
-0.181468 -0.107566 -0.123893
-0.0817583 -0.101672 -0.187718
-0.163329 -0.109174 0.117258
0.181467 0.118898 -0.218509
-0.165544 -0.16093 -0.0541582
-0.0458211 0.100307 0.223627
0.0204687 0.115542 -0.259502
-0.148543 -0.0384782 0.201172
0.0712312 -0.0946005 -0.206482
-0.187493 0.0384245 0.171613
0.0714219 -0.107054 0.151478
0.30754 -0.00229205 -0.138084
0.251198 0.0509298 0.151234
-0.133291 0.0102859 -0.059412
-0.186718 0.00994744 -0.0403937
0.124094 0.0528725 -0.0699031
0.0489566 0.0625605 -0.218765
-0.248649 0.192262 -0.169166
0.163921 -0.101672 -0.204941
0.0218318 -0.111828 0.0772031
-0.245122 -0.170146 0.21513
0.243519 -0.119666 0.0687419
-0.271916 0.216121 0.194619
-0.180918 -0.12021 -0.115461
-0.263151 0.228741 0.160956
-0.163329 -0.0747007 -0.191031
-0.194751 0.00654579 0.11108
-0.0300139 0.030733 0.110097
0.101671 0.092115 -0.219102
-0.0725916 -0.111184 -0.0949104
0.131776 0.141783 0.221476
0.261374 -0.211952 0.225756
-0.114437 -0.112942 -0.0492225
0.115707 0.149107 -0.236964
-0.247212 0.0388244 0.195475
0.154869 0.00799409 -0.210148
0.312471 -0.0284136 0.110184
-0.180918 -0.14652 0.182122
0.313203 -0.0387744 -0.101482
-0.0160542 0.106219 -0.2503
0.079361 0.0304716 0.201279
-0.137889 0.0898417 0.215407
0.247062 -0.119572 -0.0786318
-0.31395 0.0828914 0.232654
-0.251548 0.0454122 0.0171681
0.24635 -0.201986 -0.244382
-0.239037 0.129193 -0.166255
0.196719 0.0566674 0.220077
-0.221127 0.0841521 -0.0805003
-0.159968 -0.0137395 -0.137651
-0.249671 -0.00451739 -0.240633
0.227983 0.18037 0.221366
0.132721 -0.124568 -0.225957
-0.0716982 0.0161603 -0.184008
0.228177 -0.0194591 -0.210148
0.141679 -0.111041 -0.0978144
0.137189 -0.110835 -0.101994
0.0392465 -0.112866 -0.0518089
-0.052628 0.0438489 -0.217693
-0.215613 0.0838852 -0.134585
0.174394 -0.00542966 0.20553
0.114963 0.0534437 0.00172839
0.207825 -0.11268 -0.0581382
0.084591 -0.107565 -0.150329
0.068265 0.136037 0.234502
-0.172316 -0.152847 -0.226644
-0.181468 -0.067192 0.187414
0.237813 -0.119572 -0.139129
0.119456 -0.0972636 -0.199695
0.0637931 0.12327 -0.248277
-0.163329 -0.0619867 0.0474555
0.149253 -0.164445 -0.210369
-0.163329 -0.0961081 -0.142682
-0.218596 0.0668626 0.17285
-0.0277324 0.0329812 -0.0799217
-0.0689654 0.0264914 0.000895362
0.160673 0.0380869 -0.202287
0.306356 -0.00533615 0.157345
0.225829 -0.106161 0.031869
-0.283071 -0.235161 -0.24059
0.283569 0.0399752 0.11698
-0.276928 0.263398 0.0313527
0.18377 0.173788 0.259759
0.10022 -0.163489 -0.210181
-0.187269 0.0870709 0.212294
0.0651089 -0.111183 -0.0949185
-0.161938 -0.0134662 -0.217927
0.166627 -0.1074 -0.101938
0.1445 0.158048 0.237244
-0.0536596 0.0257321 0.117207
-0.0806414 -0.0850858 -0.219107
-0.14362 -0.109824 -0.0616672
0.224147 -0.126144 -0.011078
-0.253691 0.0460571 0.175743
-0.0509898 0.0271087 0.105806
-0.0354565 -0.0161262 -0.210148
-0.163329 -0.0803834 0.0762299
-0.149751 -0.0914708 0.188696
-0.166952 -0.119572 -0.083541
0.0432869 -0.0396243 0.218217
-0.12185 -0.113381 -0.0266284
0.312348 -0.0102912 0.0759127
0.0246162 0.128814 0.256352
0.230423 -0.101672 -0.0986195
-0.274512 0.247897 0.0678967
0.196068 -0.00207029 0.20842
-0.174247 0.00405759 0.115265
-0.101178 -0.0448718 -0.210148
-0.101871 -0.107479 0.146679
0.0916319 -0.109158 -0.206732
0.048522 -0.105039 0.174255
0.247386 -0.0279267 0.20553
0.23011 -0.101125 -0.247322
0.115589 -0.044044 -0.210148
-0.165544 -0.150191 -0.102035
-0.14199 0.0997909 0.22771
0.274392 -0.0182085 0.20553
-0.24086 0.0959388 0.0642467
0.0817499 0.127315 -0.226512
0.274576 0.00860698 -0.210148
-0.2463 0.171423 0.142319
0.118292 0.0534788 -0.0278236
0.297057 -0.0865396 0.166083
0.283519 0.0260192 0.192338
-0.0529617 -0.082569 0.217707
-0.268779 0.0940883 0.235732
-0.167391 -0.060267 0.0620647
0.0789685 -0.118751 0.179025
-0.180918 -0.154244 0.139215
0.109399 -0.115053 0.164043
-0.165544 -0.138322 0.043889
-0.0735758 0.016795 0.173765
0.00236709 -0.150531 -0.226644
0.240993 -0.119572 -0.06024
-0.15678 -0.101672 0.0425752
0.225542 0.0578214 -0.0247326
-0.107856 -0.11337 -0.0278034
-0.241321 0.094825 0.204133
-0.134795 -0.0102026 0.218776
0.290676 -0.0317431 -0.209536
0.187061 -0.110765 0.0987988
-0.244041 0.161633 0.122413
-0.275785 -0.187911 0.213669
-0.137942 -0.112055 -0.0436999
-0.263812 0.0409462 0.214308
-0.11032 -0.108797 0.129207
-0.153457 -0.128354 0.226643
0.135238 -0.0292935 0.217471
-0.252676 -0.0948838 -0.217416
0.311241 -0.0367996 0.12963
0.264994 0.0476587 0.151307
0.225565 -0.132467 -0.138081
0.0801368 -0.119572 -0.197995
-0.0751196 -0.14737 0.226643
0.211384 -0.111462 -0.0892618
-0.133842 0.0586304 0.21765
-0.0130486 -0.105513 -0.173516
-0.156898 -0.0051497 0.104916
0.171623 0.069601 -0.241551
0.14178 0.0482109 -0.163753
0.20192 -0.0949451 -0.206867
0.0898041 0.0472391 -0.122338
-0.0118729 -0.119572 0.194975
0.274566 -0.0776733 -0.210148
-0.147778 -0.108712 -0.0200741
0.180437 0.0205684 -0.210148
0.0506281 -0.0581851 -0.210148
0.17013 -0.118149 0.174358
0.105317 -0.107535 0.178201
-0.00445964 -0.101672 0.179162
-0.268079 -0.100328 0.248851
-0.163329 -0.0415603 0.0670759
-0.0166375 -0.160085 -0.209974
0.267069 0.0422079 0.183648
0.120815 0.0508359 0.103182
-0.142129 0.00598188 -0.0998229
-0.198118 -0.126945 -0.226644
0.0486882 0.0454999 -0.0687049
-0.0127739 0.0256145 0.186223
-0.112537 0.0161744 -0.0360431
0.236158 -0.107174 -0.235933
-0.181484 -0.140031 -0.210013
0.0940386 0.0508228 -0.0579352
-0.230432 0.132368 0.107259
0.250062 -0.163432 -0.123562
0.0261515 0.128785 -0.259021
0.237477 -0.170108 0.145108
0.247271 -0.150998 0.188535
-0.173698 0.00267529 -0.0892224
0.209797 -0.0794359 -0.227187
0.280689 0.0442693 0.0824621
0.0110507 0.018158 -0.207733
0.253712 0.0286076 0.205225
-0.142128 -0.119572 -0.0904566
0.0909648 0.0472807 -0.123571
0.198833 -0.112369 0.0641329
-0.181468 -0.0417019 -0.130884
-0.0191125 -0.106842 -0.148021
-0.250413 -0.133593 0.21004
0.00683743 -0.107559 -0.15039
-0.193835 0.00424187 0.0311017
-0.0623019 -0.109188 0.123513
-0.106568 -0.111719 0.0794158
-0.297909 0.275062 -0.171886
-0.157627 0.097489 -0.254093
0.253544 -0.108357 0.174405
0.247575 -0.152352 0.139579
-0.163329 -0.079434 -0.110093
-0.163329 -0.08069 0.0958083
0.283892 0.0167709 0.2005
-0.102945 -0.113334 0.0267951
-0.174902 -0.0242519 -0.152001
0.225599 -0.0717114 -0.245761
0.153452 0.149499 -0.216718
-0.16655 -0.0747599 -0.0652744
0.124529 0.100541 -0.218859
-0.0650847 0.105695 -0.258668
0.184918 0.0573196 -0.0123381
-0.258696 0.0426079 0.0365707
-0.123851 0.0122963 0.065544
0.304596 0.0202688 0.000182973
0.286046 0.0319961 0.170864
0.000963446 -0.0261037 -0.210148
-0.1943 0.00541187 -0.112391
-0.017199 0.0306199 -0.148394
-0.0218794 0.104453 -0.228259
0.238077 -0.119572 -0.215573
0.239648 -0.119572 0.176843
0.0239704 0.0418724 0.0660085
-0.152185 -0.123912 -0.211047
-0.278885 0.246158 -0.0682032
0.263537 -0.244287 -0.243057
-0.27991 0.221097 -0.182204
-0.147552 -0.00718225 -0.190923
0.0167413 0.0178781 -0.2173
-0.259546 0.200332 -0.0800402
0.22966 -0.150724 -0.165828
-0.116439 0.0912099 -0.244171
-0.0202505 -0.101672 0.2003
-0.11091 -0.139749 -0.210014
0.236435 0.0545542 -0.115181
0.234993 -0.144076 -0.24729
-0.167186 -0.118546 0.218091
-0.0595455 -0.101672 0.180227
0.147864 -0.111824 -0.0818893
-0.101045 0.0148902 -0.127415
