ply
format ascii 1.0
comment Created by Open3D
element vertex 1609
property double x
property double y
property double z
end_header
-0.106387 -0.0472842 -0.130759
-0.119729 -0.0811848 -0.105739
-0.251018 -0.0911186 0.125212
0.0803816 -0.0822339 0.0528917
-0.230129 0.338746 0.00887563
0.0879734 -0.13325 -0.0955313
-0.249394 0.163677 0.0769901
-0.246641 0.216098 0.130634
-0.267522 0.0403723 0.179983
0.200181 -0.246581 0.148861
-0.242373 0.0246518 -0.0338431
-0.262337 0.0367184 -0.0657571
0.0200131 -0.0765117 0.142635
-0.290836 0.117676 0.116052
-0.1973 -0.263 -0.135131
-0.262994 0.219815 0.187817
0.160246 -0.0628182 0.107503
0.24537 -0.297728 -0.123732
-0.23534 0.303972 -0.023805
-0.261876 0.0327152 0.0241387
-0.293153 -0.0829253 -0.113431
-0.239002 -0.016052 -0.186353
-0.249659 0.147467 -0.164369
0.224033 -0.265146 -0.131747
-0.173312 -0.277331 -0.110257
-0.256635 -0.00550723 -0.0276971
0.00839429 -0.057619 0.141906
-0.254829 0.298958 0.0734319
-0.172673 -0.294819 0.119648
-0.242375 0.0246623 -0.0891494
-0.245143 0.233106 0.169145
-0.122739 -0.0807511 0.0717463
-0.207067 -0.274024 0.0921278
-0.243918 0.244564 0.00353321
-0.0820843 -0.0859778 -0.0852382
-0.258868 0.273119 -0.038714
-0.166426 -0.0720268 0.0579958
-0.223649 -0.279552 -0.0963614
0.0305085 -0.0518407 -0.0202893
0.142904 -0.143963 -0.0900506
-0.305156 -0.0688617 -0.102328
-0.159301 -0.0923591 -0.101038
-0.173395 -0.322061 -0.0996225
-0.177723 -0.253566 0.133357
0.00788558 -0.0530986 -0.030086
-0.258274 0.277119 -0.0349954
-0.23657 -0.0153351 0.168927
-0.0337184 -0.0532261 0.0697442
-0.172028 -0.182348 -0.0857312
-0.0999641 -0.0482096 0.0722147
-0.21266 -0.284091 -0.0811328
-0.184151 -0.0871149 -0.111527
-0.215537 -0.248541 -0.113288
-0.19207 -0.329495 -0.0754532
-0.252101 0.0364606 -0.189111
-0.232665 0.320545 0.183981
-0.267652 0.107036 -0.168348
-0.268075 0.125413 -0.0241199
-0.244205 0.0405694 0.156525
-0.0590759 -0.0612002 0.131871
0.152836 -0.0336863 0.0640226
-0.101306 -0.083839 -0.140066
-0.266063 0.0768761 -0.144385
-0.263575 0.101439 -0.168927
-0.250945 -0.012619 0.166409
-0.249557 0.128905 0.0792256
-0.242717 0.0276359 -0.101356
-0.249414 0.162448 -0.0777453
-0.252271 0.312967 -0.0397565
-0.0527853 -0.0982529 0.11267
0.00549206 -0.0889702 -0.0300038
-0.258945 0.272604 -0.167164
-0.0983277 -0.0484453 -0.0755339
0.174333 -0.231936 -0.0788703
-0.153144 -0.106861 -0.110352
-0.299006 0.0940233 0.111126
0.220813 -0.297408 -0.130334
-0.216152 -0.345241 0.098831
0.111331 -0.162464 0.119568
-0.215008 -0.255323 -0.127582
0.220352 -0.260856 -0.106937
-0.132212 -0.134781 0.136139
-0.153862 -0.0748974 0.0860821
-0.0782887 -0.0505448 0.0379203
-0.199965 -0.208984 -0.125761
-0.191773 -0.231936 -0.0778039
0.0870764 -0.0844383 -0.0996849
0.144876 -0.0696249 0.126613
0.159207 -0.0336863 0.117014
-0.18009 -0.040046 -0.167392
-0.253929 0.0492261 -0.189117
-0.0489147 -0.0667307 0.138631
-0.164645 -0.12347 -0.0925842
0.199652 -0.283045 0.109091
-0.254691 -0.017081 -0.15659
-0.0463112 -0.0886622 -0.0594911
0.0700668 -0.0783638 0.149049
-0.242252 -0.0623874 0.0136744
-0.303544 -0.0646791 -0.11513
-0.112126 -0.0773681 0.152268
0.247247 -0.277442 -0.0921883
0.095794 -0.0440367 0.106912
-0.250657 0.321802 -0.0547998
-0.262654 0.274361 0.170528
-0.278595 0.117216 0.112711
-0.25906 0.00788239 0.166142
-0.173242 -0.338347 0.115022
-0.0621039 -0.0518691 0.0472913
-0.258658 0.00810518 -0.00731061
-0.172927 -0.255438 0.121573
-0.238732 0.344759 -0.0846933
0.167117 -0.207859 0.0977441
-0.179494 -0.0339721 -0.023025
-0.261989 0.248942 0.139949
-0.0342098 -0.0857679 0.0998346
-0.25343 -0.0239842 -0.0821753
0.144514 -0.069708 -0.15532
-0.185998 -0.161019 -0.122721
-0.179895 -0.232917 -0.0889493
-0.25926 0.00393261 0.185666
-0.245393 0.0588826 0.182345
0.238316 -0.327046 -0.122825
-0.255834 0.066445 0.167252
0.164153 -0.0437934 -0.0260645
-0.186945 -0.0628223 -0.163151
-0.251423 0.339891 0.149434
-0.163754 -0.0368146 0.116025
-0.157667 -0.119338 -0.0896679
-0.263157 0.0438469 -0.0450786
-0.259396 0.269569 0.155476
-0.243925 0.244507 0.0248169
-0.0715779 -0.0512333 -0.0214476
0.183802 -0.258011 -0.127705
-0.220711 -0.302515 0.135072
-0.262164 0.24742 -0.0774067
-0.240075 0.274597 0.0853799
-0.262978 0.240345 0.0713582
-0.0394076 -0.0580168 0.130585
-0.00316291 -0.0533246 0.0997909
-0.244538 0.34457 0.033857
-0.259252 -0.0925882 -0.115563
0.206311 -0.258028 -0.1351
-0.137304 -0.127098 -0.12687
-0.273125 -0.10102 0.117148
-0.23222 0.321053 0.0405814
-0.176138 -0.199598 -0.0870213
-0.266954 0.0927861 0.0636937
-0.100508 -0.083954 -0.0519236
-0.120055 -0.0908179 -0.122112
0.0880712 -0.129201 -0.0909182
0.161563 -0.224463 0.109827
0.144083 -0.0698061 0.105161
0.0857123 -0.0814662 -0.0634632
0.204378 -0.288111 -0.0950058
0.102646 -0.0427623 0.118316
-0.249668 0.250639 0.167757
-0.0568837 -0.0880126 0.0889007
-0.0384247 -0.069168 0.140283
-0.178864 -0.281114 -0.130639
-0.248452 0.188362 0.104596
-0.251278 0.294113 0.168927
-0.22927 0.32688 -0.116354
0.0217417 -0.070796 -0.0847134
-0.22892 -0.0537275 -0.0493153
0.0391429 -0.106977 0.119708
0.185715 -0.283405 -0.104784
-0.0122457 -0.0893332 -0.112945
0.0839477 -0.0617604 -0.148544
-0.260974 0.0248858 0.147164
-0.133973 -0.0980285 0.112328
-0.246327 0.219918 0.000104335
-0.180549 -0.228528 -0.0884473
0.0469886 -0.0862892 -0.0799975
-0.253746 0.304888 -0.168466
-0.303596 0.00248072 -0.101463
-0.0610252 -0.0877581 -0.101371
-0.246742 0.0677762 0.0900977
-0.172392 -0.0706639 -0.133205
-0.267234 0.186314 0.186558
-0.0648045 -0.0517031 -0.096457
0.20126 -0.27331 -0.131093
-0.26211 0.0347533 0.134327
-0.304437 0.00719086 -0.11476
-0.17591 -0.295979 -0.0937601
-0.135032 -0.120781 0.097501
-0.252875 -0.0959493 0.125388
0.2271 -0.257053 0.101892
0.161594 -0.0610889 -0.0389822
0.0648443 -0.0486345 0.0624303
-0.260723 0.0227049 -0.0138337
-0.253962 0.303708 0.107701
-0.177916 -0.0694436 -0.0858063
-0.0748115 -0.0684388 0.103868
-0.139642 -0.0418447 0.104302
0.0780313 -0.116156 0.138426
0.154448 -0.212024 0.109484
0.219218 -0.311095 0.116123
-0.267564 0.105228 0.140546
-0.105116 -0.077186 -0.0923016
-0.30548 0.00141391 0.124035
-0.143561 -0.102556 0.106061
-0.26592 0.075131 0.0995302
-0.249376 0.117847 0.0189307
-0.263292 0.0649019 -0.168927
0.0405893 -0.0970903 0.10082
0.257229 -0.320343 -0.0833243
0.1584 -0.0650785 -0.0810183
-0.0946915 -0.113539 -0.114296
0.0356449 -0.0841437 0.0973242
0.0162804 -0.077604 -0.127496
0.118052 -0.0757196 -0.117691
-0.18806 -0.0378492 -0.00316535
-0.0720341 -0.0511865 0.06475
-0.251828 -0.032755 -0.156361
-0.174574 -0.236344 -0.0966846
-0.193043 -0.051453 0.152674
-0.143783 -0.154064 -0.114698
-0.169902 -0.270006 -0.0887362
-0.240021 0.284566 -0.168669
-0.0564376 -0.0637914 0.143503
0.0354501 -0.0907584 -0.126067
0.177368 -0.228118 0.141245
0.10332 -0.0426368 -0.00183427
-0.262164 -0.0945863 0.111007
-0.248851 0.102425 -0.0342043
0.105 -0.0423244 0.123785
-0.0691762 -0.0872575 0.00251286
0.203553 -0.231936 0.139834
-0.0902502 -0.0851401 0.0559624
0.273398 -0.305551 0.127219
-0.07913 -0.0658959 -0.142001
0.137671 -0.0690567 -0.165996
-0.166172 -0.0720851 -0.0644351
-0.0268474 -0.0649082 0.099977
-0.0441023 -0.0887979 0.0131103
-0.246019 0.223681 -0.0641659
-0.235691 -0.0194124 0.116792
-0.244894 -0.0902636 0.124857
-0.128487 -0.132918 0.134871
0.0975423 -0.0437116 0.146258
-0.0669324 -0.0873951 0.0910964
-0.0272164 -0.0891815 0.0072878
-0.245132 0.0486218 -0.093799
0.0593767 -0.0724905 0.130993
-0.299039 0.00502928 -0.115481
-0.0897022 -0.0493737 -0.0650994
-0.243117 0.251521 0.144158
-0.0642395 -0.0967679 0.135049
-0.0722092 -0.0869912 -0.118993
0.198046 -0.231464 0.134206
-0.235895 0.301658 -0.183758
-0.191812 -0.187061 0.140432
-0.229704 0.326224 -0.0258303
-0.244901 0.0144472 0.168227
0.18839 -0.241766 0.140552
-0.267488 0.103677 -0.0551142
-0.185648 -0.249941 -0.133798
-0.165876 -0.333345 0.12752
-0.252662 0.310822 0.162509
-0.0397579 -0.06872 -0.125785
-0.161649 -0.0372958 -0.153079
0.209493 -0.274437 0.141571
-0.178642 -0.231936 0.14458
-0.248181 0.193877 -0.109355
-0.261582 0.0532427 -0.166008
-0.232871 0.306186 -0.175606
0.122496 -0.169896 -0.120372
0.149587 -0.0338402 -0.0168835
-0.0910057 -0.0873315 -0.127168
0.0796473 -0.0465174 -0.117012
0.262083 -0.329934 -0.0831672
0.107262 -0.0578513 -0.155121
-0.24554 0.0531142 -0.0933834
0.113864 -0.0764986 0.0839148
-0.198806 -0.267603 0.089822
0.0550461 -0.083851 0.146614
0.205486 -0.28441 -0.0889635
-0.133752 -0.0429403 -0.124865
-0.216825 -0.322577 -0.108358
-0.236517 0.297525 -0.144854
-0.306684 -0.0595302 -0.103829
-0.251144 -0.0413659 0.00414308
-0.181128 -0.281626 -0.131925
-0.23646 -0.0152035 -0.0894741
-0.247062 0.210953 -0.0913942
0.203647 -0.225808 0.12041
0.125941 -0.165428 -0.0857833
-0.253622 -0.0229321 0.0943336
0.15609 -0.0364663 -0.129592
-0.16487 -0.278898 -0.106096
0.087204 -0.0812513 0.0148351
-0.192785 -0.211298 0.141744
-0.0384633 -0.053129 -0.0575717
0.23979 -0.271635 0.136762
0.125169 -0.116574 0.128057
0.0722468 -0.0834061 -0.0311131
-0.128825 -0.141522 0.120892
0.113282 -0.0407841 0.0978309
-0.213238 -0.243081 0.109846
0.0238833 -0.0522477 0.0945163
-0.266375 0.0809864 -0.068113
0.10775 -0.104684 0.135017
0.0131219 -0.0529089 0.034421
-0.267956 0.118106 0.048158
-0.253818 0.33429 -0.0895713
-0.178785 -0.136278 0.111165
-0.264829 0.220817 -0.111407
-0.253602 0.30568 -0.0238014
-0.261444 0.168536 0.189169
-0.248678 0.0988853 -0.0753003
0.0998921 -0.0432744 0.0367436
-0.166248 -0.28976 -0.0963345
0.163568 -0.0471818 0.117042
0.257553 -0.289895 -0.119073
-0.04554 -0.0858172 0.0992933
-0.269261 0.0946941 -0.18452
0.0305269 -0.07962 -0.0832024
-0.252813 0.337819 0.148963
-0.232791 -0.0593646 -0.141525
0.0376922 -0.087222 0.0856879
0.164153 -0.0402384 0.0489211
-0.261846 0.250179 -0.153627
0.0567928 -0.113817 -0.100328
0.104739 -0.0423729 0.0127033
-0.19377 -0.0561875 -0.0632296
-0.168569 -0.0715372 -0.010287
-0.172691 -0.0982359 -0.114125
-0.249572 0.129857 -0.162221
-0.192376 -0.341189 0.0896514
-0.239109 0.00154282 0.10815
-0.10922 -0.046876 -0.128846
-0.185432 -0.243081 -0.108468
0.138593 -0.197256 -0.114094
0.0130328 -0.0529144 -0.0373625
-0.262041 0.279571 0.181656
-0.235135 -0.0224575 0.0733728
0.206571 -0.274342 0.0977944
-0.261142 0.0742024 -0.188914
-0.0748585 -0.0753616 0.139677
-0.23014 -0.0561258 -0.0141226
-0.253045 0.232986 -0.168927
-0.26963 0.212572 0.171356
-0.249756 0.141566 0.0749056
0.21767 -0.305542 0.105407
-0.267979 0.119608 -0.151423
-0.217891 -0.256709 0.100245
0.079564 -0.0465294 -0.0924669
-0.183729 -0.142108 -0.109301
-0.098879 -0.0657097 -0.14568
-0.160644 -0.0679227 0.16593
-0.247837 -0.0368131 -0.166173
0.0199362 -0.0575405 0.123396
-0.247526 0.343337 -0.103631
-0.235929 0.344093 -0.0188903
-0.266053 0.205884 0.0919523
-0.200663 -0.243081 -0.104251
-0.101905 -0.0785393 -0.121267
0.134705 -0.0361264 -0.134811
-0.23863 -0.00168071 -0.00747219
0.188919 -0.238111 0.0986589
-0.129167 -0.0796158 -0.0987928
-0.245034 0.234871 -0.0590211
0.111964 -0.0410291 -0.0737845
-0.208206 -0.317701 0.137175
0.00693268 -0.0689325 0.141863
0.0225397 -0.0523303 -0.00136968
0.138699 -0.0352139 -0.122149
-0.250785 -0.0384651 0.0525687
-0.0518489 -0.088322 -0.0642628
0.00342871 -0.0769148 -0.0830258
0.0251937 -0.0879898 -0.100352
-0.155853 -0.171625 0.130517
-0.0697709 -0.087221 -0.0660596
-0.238988 0.000731493 -0.138287
0.105815 -0.0645828 -0.154667
-0.264312 0.227128 -0.043199
0.176009 -0.206444 -0.12684
-0.00842552 -0.064045 -0.0862905
0.198848 -0.25113 0.0894463
-0.240741 0.302521 -0.187815
-0.218056 -0.231936 0.126621
-0.265507 0.212543 -0.139779
-0.258788 -0.0174174 0.170687
-0.249595 0.131248 0.110367
-0.272078 0.131611 0.181623
-0.261028 0.0253523 -0.0747125
0.240771 -0.27031 0.10547
-0.251936 0.314798 0.100263
-0.248675 0.0988279 -0.0323477
-0.251242 0.3186 0.0185857
-0.191071 -0.230425 -0.127038
0.0612935 -0.0489988 0.0833225
0.23419 -0.267723 -0.08504
0.0214747 -0.0882183 0.0210838
-0.043021 -0.0574044 -0.113757
0.158734 -0.0386923 -0.163228
-0.241136 0.0151834 -0.042306
0.202747 -0.21772 -0.105721
-0.233985 -0.0287526 -0.0808549
-0.248968 -0.0597382 -0.0992159
0.0126749 -0.0529364 -0.1135
-0.263665 0.00628132 -0.177939
-0.294969 -0.0803113 0.123807
0.0123631 -0.0887781 0.110836
-0.0606425 -0.0877816 -0.00850854
-0.249308 0.168916 -0.0319382
-0.267628 0.17609 0.144185
-0.0694132 -0.0514202 0.0573396
0.0229443 -0.0853474 0.140693
-0.267977 0.119421 -0.0482572
0.151925 -0.0336863 -0.0493885
-0.252929 0.209771 0.167877
0.164153 -0.0381955 -0.0669343
-0.248908 0.103583 0.0455686
-0.264286 0.0742176 -0.165829
-0.248615 0.0976055 -0.0913328
-0.151154 -0.0396936 -0.147906
0.252399 -0.292763 0.142585
-0.167958 -0.307724 0.106448
0.0610029 -0.0490286 -0.131634
-0.246839 -0.0262809 0.168927
-0.248938 0.1042 0.0656455
0.000744231 -0.0920295 -0.119998
-0.238739 0.283585 0.0558939
-0.247873 0.200159 0.0885884
-0.240298 -0.0624331 -0.067557
0.125991 -0.168206 0.137995
-0.0106343 -0.0886255 0.141349
-0.248379 0.189846 0.131729
-0.238727 0.283662 0.11002
-0.167393 -0.262442 0.131183
-0.0247709 -0.0892315 0.0790533
-0.305795 -0.0738319 -0.102819
-0.249727 0.139332 -0.141128
-0.238423 0.285712 -0.0544596
0.111094 -0.0770138 -0.141598
0.201084 -0.2625 0.097371
-0.250612 0.2426 0.168927
0.197233 -0.219992 0.103731
-0.0708319 -0.0843452 0.141616
-0.255485 0.252541 -0.168927
-0.266416 0.0818256 0.0591628
0.250034 -0.296343 0.146232
-0.251624 0.316508 -0.0132949
-0.267971 0.163569 0.164956
-0.262791 0.112142 -0.115677
0.159197 -0.228478 0.11943
-0.238278 0.286683 -0.0590123
0.159985 -0.0631482 0.0890834
-0.159245 -0.112933 -0.109177
0.21479 -0.270486 -0.126111
0.0872102 -0.0889933 0.106138
-0.106219 -0.083131 0.031004
-0.198213 -0.243081 -0.125821
-0.258095 0.00431862 -0.00179072
-0.266479 0.0831064 0.0998927
-0.238285 0.34467 0.165549
0.110516 -0.108202 -0.0892615
-0.263583 0.23509 -0.0471582
-0.252257 0.0110026 -0.166805
-0.255123 0.297354 0.138942
-0.216534 -0.235783 0.114193
0.125255 -0.0741078 0.0843291
-0.266391 0.0813161 0.15897
-0.254709 0.261775 -0.168927
-0.0702525 -0.060393 0.120042
0.227807 -0.31273 -0.11588
-0.0711953 -0.0894072 -0.12662
-0.267842 0.171439 0.152783
0.262366 -0.321595 0.149092
0.270308 -0.322556 0.136847
-0.0149122 -0.0893877 -0.115696
-0.00551945 -0.056791 0.108844
-0.181236 -0.277771 0.0927836
-0.177569 -0.307654 0.133156
-0.254908 0.255739 0.168927
-0.264715 0.0604369 0.102703
-0.144938 -0.0766828 0.0598877
0.239353 -0.321261 -0.128958
-0.0970802 -0.0486167 -0.132929
0.00797014 -0.0530969 -0.0652928
-0.296284 0.0537017 0.112522
-0.252951 0.309243 -0.0523696
-0.154642 -0.108098 0.122885
0.117938 -0.158092 0.13664
-0.237625 -0.00844018 -0.0765336
-0.161352 -0.183045 0.127516
-0.133941 -0.1466 -0.102799
-0.248973 0.177721 0.163398
-0.0908037 -0.0849792 0.147968
-0.193901 -0.048067 0.148871
-0.130126 -0.0909964 0.129189
-0.268079 0.156904 0.027165
0.157411 -0.171368 0.102679
-0.179198 -0.152424 -0.123842
-0.242013 0.0215247 0.0151909
-0.296277 -0.00251808 0.124126
0.223436 -0.267087 0.130695
0.164153 -0.0409292 0.0244353
-0.249275 0.111697 -0.0817889
-0.247847 0.0819401 0.147262
-0.13452 -0.0506105 -0.155254
0.00549229 -0.0531476 -0.0505626
0.240086 -0.307525 -0.127242
-0.0544144 -0.0881643 0.099932
0.0550036 -0.0854667 -0.057764
-0.261437 0.028904 -0.0200794
-0.25133 -0.0354806 -0.0603523
-0.239908 0.275719 0.0832367
0.0545513 -0.0855131 0.0110452
-0.264351 0.226651 0.137024
-0.267137 0.0965208 0.0273769
-0.241601 -0.097164 0.111769
-0.249392 0.163826 0.0892454
-0.201357 -0.25377 0.140759
-0.218396 -0.280941 0.138089
-0.21556 -0.299413 0.12747
0.122984 -0.181816 0.119537
0.0589409 -0.0850627 0.0269896
-0.25253 0.211587 0.167922
-0.182026 -0.150146 0.135123
-0.190133 -0.0632388 -0.0643119
-0.268277 0.137841 0.0320109
-0.273279 0.111797 0.11098
-0.246687 0.0671112 -0.0664551
-0.192565 -0.182158 -0.125223
-0.267934 0.165801 0.029139
-0.2472 0.209266 0.0902672
0.246918 -0.335339 -0.109086
-0.241306 0.0163277 -0.132992
-0.201638 -0.220683 0.0983497
0.129401 -0.0731607 -0.14318
-0.0853721 -0.0816671 0.140724
0.182545 -0.243081 -0.116909
-0.16676 -0.294897 -0.115415
-0.242986 0.252661 0.0688547
0.0943505 -0.126493 0.139219
-0.265244 0.0668839 0.0470157
-0.19844 -0.21224 0.141039
-0.176718 -0.0338531 0.151213
-0.253184 0.327081 0.12015
0.2535 -0.309524 0.0993887
-0.158207 -0.151835 0.140723
0.0377758 -0.0643617 -0.116056
0.15993 -0.198306 0.0975427
-0.242217 0.259344 -0.0754597
-0.0170906 -0.0893888 -0.122606
-0.251255 -0.0358912 -0.0120658
0.181279 -0.24542 0.0919497
0.118031 -0.0757235 0.143026
0.051304 -0.101629 -0.0871236
0.119233 -0.115351 -0.0908414
0.00930514 -0.0530696 0.107531
-0.257769 0.00212156 0.16848
0.125623 -0.0382013 -0.0123279
-0.268209 0.148954 0.0742932
0.02192 -0.0523683 0.0437648
-0.246353 0.190101 -0.17885
-0.143775 -0.0768989 -0.00101989
0.110702 -0.0770867 0.0962118
-0.0156781 -0.0535805 0.0738989
-0.249047 0.176223 0.0987053
-0.265028 0.0642532 0.147126
-0.179586 -0.208139 -0.124014
0.159998 -0.194102 0.141711
-0.15015 -0.0398905 -0.0283845
-0.24716 0.0728842 -0.0874311
-0.254508 0.241009 -0.168927
-0.241626 0.264159 0.143413
0.0828375 -0.116823 0.0995074
0.158061 -0.231936 0.10489
-0.26177 0.250842 0.15439
-0.267071 0.0951768 0.0528698
-0.250808 0.320977 0.141522
0.0196959 -0.0525051 -0.122977
-0.208174 -0.24766 -0.0875551
-0.237716 -0.0078265 -0.0792429
-0.267828 0.110611 0.0801637
0.256004 -0.341503 0.142732
-0.0305487 -0.0532908 0.0499941
-0.253514 0.335802 0.16687
-0.222959 -0.242052 -0.0946963
0.164153 -0.0347583 0.0950765
-0.19529 -0.33891 0.149633
-0.118731 -0.0813283 0.138063
-0.233439 -0.0317383 0.154542
-0.256794 0.287072 0.12716
-0.261663 0.251771 0.109861
-0.248039 0.0858591 0.0583602
-0.233835 0.312209 0.0851373
-0.0283872 -0.0891576 0.12112
0.21537 -0.306512 0.123309
-0.126433 -0.0801243 0.0614286
-0.0752664 -0.105111 0.110719
-0.248246 0.192554 0.162189
0.110189 -0.157508 0.111531
-0.173787 -0.0345225 -0.0170346
-0.0657142 -0.0595559 -0.0992765
-0.24662 0.0662921 -0.121493
-0.249383 0.118262 -0.160615
-0.253355 0.327677 0.0952484
0.284073 -0.323074 0.102795
-0.236492 -0.0133676 -0.169622
-0.266744 0.0885086 0.1411
-0.215424 -0.328309 -0.096956
-0.215266 -0.345241 0.137523
0.298444 -0.345241 0.107813
-0.234185 -0.0276574 -0.124367
-0.235694 0.30203 -0.0875619
0.124977 -0.0383488 0.126873
0.164023 -0.0506171 -0.0606788
-0.258201 -0.0274419 0.178267
-0.184859 -0.243081 -0.0879966
-0.0964519 -0.0724672 -0.0946438
-0.264828 0.220824 -0.0262185
-0.151796 -0.0395468 -0.0527422
0.0244925 -0.0880329 -0.103278
-0.0300223 -0.0590457 0.141761
-0.0135171 -0.0893592 -0.0825011
0.113258 -0.102229 0.116512
-0.248895 0.259258 0.188493
0.0495544 -0.0502032 0.1245
0.211234 -0.268842 -0.0752993
-0.144883 -0.148396 -0.0889346
0.207982 -0.250084 0.147316
0.0632384 -0.0984351 -0.0835442
0.138081 -0.0711778 -0.141833
-0.248473 0.263878 0.168927
-0.248874 0.179751 -0.154169
-0.0831588 -0.0500451 0.0366535
0.073563 -0.0832164 0.0817122
0.00576841 -0.0889645 0.028085
-0.239144 0.00177605 -0.0800736
0.193706 -0.261481 -0.0836486
-0.264885 0.0625066 0.0567383
0.209973 -0.294192 -0.122387
-0.254376 0.024814 0.189166
-0.268261 0.136874 -0.145538
-0.272953 0.148222 -0.173082
-0.25049 0.341282 -0.0540378
0.265741 -0.325576 0.0981727
-0.296925 0.0495611 0.11203
-0.1139 -0.083788 -0.0911795
-0.14749 -0.0762079 -0.137155
-0.0678211 -0.0873406 0.0672263
0.159345 -0.0639565 0.150465
0.261524 -0.333563 -0.134573
-0.108089 -0.0470391 -0.142297
0.163553 -0.0561271 -0.138893
-0.247551 0.204991 -0.157927
-0.0138524 -0.0535076 -0.102581
0.0897642 -0.0450597 -0.109215
-0.265557 0.211926 0.142649
-0.24947 0.123596 -0.0213329
-0.0149653 -0.0893888 -0.0383613
-0.0284286 -0.0533341 -0.0905205
-0.263409 0.236604 -0.153985
-0.13437 -0.131238 0.139112
-0.115628 -0.0459528 -0.0780069
-0.0627073 -0.0716074 0.144055
-0.263969 0.0513286 -0.0583309
-0.250662 0.0456074 0.188154
-0.244722 0.0450597 0.0370856
0.235293 -0.321367 -0.0853222
0.23256 -0.281517 0.102953
-0.233953 -0.0289258 0.137618
-0.230709 -0.0569737 -0.020418
-0.268251 0.136201 0.0823243
0.159388 -0.0639015 0.096895
0.157805 -0.240721 -0.111819
0.136181 -0.035789 -0.102436
-0.254347 0.301599 0.00702614
0.205788 -0.274042 0.0978602
-0.241558 0.336293 -0.189166
-0.106793 -0.0472257 0.105107
-0.29345 0.00456278 -0.108753
0.203744 -0.236999 -0.10508
-0.265702 0.210163 0.124663
0.118525 -0.0756317 -0.045846
-0.249704 0.137877 -0.0463316
-0.293659 0.0190625 -0.106321
-0.257127 0.284837 -0.094841
-0.247829 0.20106 -0.150354
0.20976 -0.249478 -0.104839
0.242628 -0.330092 0.139298
-0.235575 -0.0200448 -0.0897953
-0.25687 0.286566 0.0466205
-0.11232 -0.102055 -0.127547
-0.190211 -0.289967 -0.0756978
-0.201392 -0.288681 0.140744
-0.259264 0.270456 -0.142574
0.176329 -0.243081 -0.101621
-0.176971 -0.284354 0.106616
0.116951 -0.170573 -0.110359
0.193769 -0.247899 0.149506
-0.256905 0.309628 0.170352
0.192213 -0.261344 0.14595
-0.281781 0.116671 -0.102268
0.0406377 -0.0652081 -0.115637
-0.138977 -0.0938889 -0.115696
-0.249346 0.166613 -0.145812
-0.249355 0.116584 0.0676795
-0.266548 0.0845108 -0.158327
-0.102286 -0.0998408 -0.127054
-0.257001 -0.00304688 0.0550463
0.0428649 -0.0508896 -0.0299796
0.146072 -0.206114 -0.108034
-0.29537 0.104408 0.111071
-0.265688 0.210333 0.132478
-0.249343 0.166798 0.140408
-0.268323 0.140612 -0.103673
-0.152765 -0.0751481 0.0395127
-0.250564 -0.0404912 -0.0453341
-0.249319 0.194383 0.184818
0.164153 -0.0443749 -0.149881
-0.104453 -0.0833856 -0.0916537
-0.145377 -0.0766011 0.0128425
-0.232128 -0.0389164 0.120011
0.0572584 -0.0852353 -0.000424951
0.0742903 -0.0472892 0.0207087
0.153799 -0.0351285 0.0918604
0.180518 -0.192985 0.109353
-0.296489 -0.0172977 -0.114248
0.182092 -0.243081 0.122236
-0.250693 0.321605 0.166383
0.186913 -0.267421 -0.122077
-0.247116 0.210299 0.0680167
-0.205249 -0.0983494 0.112574
-0.249083 0.107153 0.0828566
0.162056 -0.0432068 0.0152075
0.04483 -0.050688 -0.0615886
-0.249739 0.142598 -0.138835
-0.105519 -0.0832319 -0.0718445
-0.266582 0.0852075 -0.144765
-0.165462 -0.0722471 0.0701647
-0.1956 -0.286339 -0.0830548
0.141504 -0.0703954 0.119254
0.0720791 -0.0740464 -0.104711
-0.247151 0.0727674 0.125727
0.164045 -0.0524136 0.0989924
0.180188 -0.264346 0.113398
-0.24961 0.132162 0.122324
0.0527206 -0.085701 -0.0330945
-0.252593 -0.0555109 0.0354228
-0.170933 -0.276733 0.137362
0.241904 -0.337226 0.125984
-0.0639951 -0.0943976 -0.122631
-0.184035 -0.144649 -0.0973765
-0.203505 -0.260794 -0.125631
-0.249105 0.107589 -0.127296
-0.0707444 -0.0956792 -0.123487
-0.182942 -0.232236 0.138143
-0.131976 -0.0432707 -0.14812
-0.104687 -0.108314 -0.0854272
-0.25834 0.276676 0.16835
0.295296 -0.332129 0.129114
-0.246173 -0.0616013 -0.0154575
-0.252906 0.324064 -0.184397
-0.179799 -0.0340147 0.164555
0.118019 -0.0757258 0.00558529
-0.143229 -0.145866 0.102709
0.0125978 -0.0529411 -0.049422
-0.165179 -0.0401954 0.167443
-0.248007 0.0851979 0.13857
-0.0208571 -0.0534891 -0.0827218
-0.0197734 -0.0535113 0.0935649
-0.252699 0.32635 -0.132863
-0.212958 -0.27898 0.0955999
-0.0100296 -0.0534651 -0.0702939
0.164153 -0.0432292 -0.0560537
-0.106441 -0.0472764 0.120111
0.112344 -0.0409586 -0.156323
-0.134334 -0.0741257 0.157826
-0.264287 0.227426 0.0656177
0.223899 -0.285056 0.141426
-0.26774 0.108828 0.00298272
0.205435 -0.276821 0.140126
0.026774 -0.102056 0.115479
-0.24122 -0.0248773 -0.167754
0.246841 -0.305833 0.140917
-0.246504 0.267104 0.167967
-0.172726 -0.288929 0.0992942
-0.212694 -0.345241 0.0972544
-0.253262 0.337054 -0.149795
-0.273127 0.158826 -0.174807
0.155272 -0.0336863 -0.148029
-0.039479 -0.0861739 0.0997486
0.159201 -0.0456005 0.166085
-0.255467 -0.0128323 0.0797991
-0.299577 -0.0660227 0.125594
-0.251228 -0.0575454 0.0432715
-0.252067 0.338932 0.120863
-0.234266 -0.0232995 0.18213
-0.252011 0.314387 -0.166711
-0.263008 0.0425536 0.121611
-0.242864 0.0289147 -0.148038
-0.249629 0.14931 0.0513845
0.164153 -0.0413491 8.90121e-05
-0.170401 -0.0352961 -0.0763091
-0.105006 -0.0876293 0.114197
-0.248765 0.175623 0.169653
-0.246856 0.0691704 0.102317
-0.26794 0.165442 -0.095939
-0.246785 0.214336 0.124794
-0.258384 0.00626127 -0.0462773
-0.240293 -0.062432 0.0376359
-0.0314518 -0.0890949 0.0404161
-0.247905 0.083123 0.166762
-0.262803 0.240347 -0.186924
0.164153 -0.0490562 0.0309014
-0.264601 0.223599 0.150312
-0.147606 -0.0403637 -0.0224859
0.110748 -0.0996401 -0.108221
0.0319845 -0.0875726 0.0490073
-0.237693 0.344553 0.0567899
0.281262 -0.345241 -0.0780201
-0.231906 -0.0401327 -0.113076
-0.0975991 -0.0485503 -0.0592686
0.111624 -0.162205 -0.108402
0.18025 -0.212558 -0.12696
0.00558053 -0.0889684 0.0967798
0.177989 -0.254818 0.138685
0.0600974 -0.084944 -0.0788813
-0.258144 0.262881 -0.187964
-0.267978 0.163135 -0.125634
-0.253054 0.179838 0.187438
-0.0515786 -0.0883386 -9.80869e-06
-0.247351 0.343453 0.185449
-0.251634 0.324742 0.0238462
-0.168367 -0.267221 0.133533
-0.268051 0.15866 0.127349
-0.104529 -0.0730989 0.115416
-0.224669 -0.317197 0.116026
0.221036 -0.288141 0.148426
-0.261921 0.282372 -0.17168
0.0278137 -0.101778 0.12626
-0.187261 -0.175625 0.140617
-0.299293 0.00301269 0.111098
-0.297946 -0.0019062 -0.101503
0.133154 -0.148244 -0.0836377
0.145418 -0.173596 -0.127234
-0.175252 -0.146783 -0.124221
-0.0936964 -0.0489639 -0.116642
-0.228433 0.333946 -0.0314163
-0.240748 0.0125695 0.0417201
0.162613 -0.0586642 -0.0440703
-0.241154 0.304038 0.16788
0.118341 -0.0756658 0.114325
-0.261713 0.251336 0.0576451
-0.253467 0.306415 0.110595
0.0670763 -0.0841513 0.114825
0.136882 -0.035629 -0.123844
0.163646 -0.0554224 0.115325
-0.245684 -0.0617062 -0.158046
-0.247036 0.21127 0.147714
-0.00773592 -0.0568875 -0.136568
-0.193956 -0.0485089 -0.0873656
-0.179424 -0.161342 -0.0844235
0.0570231 -0.0852594 -0.110999
-0.261586 0.0301943 -0.140806
-0.214044 -0.254072 -0.0821953
0.0226443 -0.0881465 -0.0503743
0.204416 -0.260084 -0.0841806
-0.192052 -0.321481 0.149299
0.0876174 -0.105088 -0.127073
-0.228961 0.336567 0.0742022
-0.148265 -0.040241 -0.0629137
0.266438 -0.312294 -0.115875
-0.23039 -0.0425525 -0.13576
-0.193622 -0.166655 0.133184
-0.235843 0.294182 0.180724
0.0838885 -0.0817892 0.11795
-0.164583 -0.0377736 -0.166027
-0.148514 -0.136174 0.0976465
0.162 -0.0430729 0.0935236
-0.244672 0.0446284 -0.0419286
-0.184103 -0.243081 0.112715
-0.24925 0.110547 0.0646674
-0.173277 -0.293173 0.124231
-0.248239 0.314227 -0.188635
-0.252296 -0.0301899 0.143963
-0.263951 0.23153 0.0368909
-0.248448 0.188438 0.158932
0.0200709 -0.0572643 0.121081
-0.110693 -0.124363 0.127395
0.180099 -0.189053 0.120254
0.136779 -0.0356523 0.0207748
-0.268198 0.149619 -0.121098
-0.2682 0.133127 0.0499142
0.216976 -0.257132 0.120071
-0.257913 0.279543 -0.100336
-0.165383 -0.321016 0.114763
-0.191093 -0.0619118 -0.0990205
-0.214555 -0.286577 -0.127929
0.209528 -0.274075 -0.0831332
-0.141669 -0.0414678 0.0410344
-0.267882 0.169001 -0.13166
-0.249609 0.150564 -0.0758474
-0.173586 -0.0703912 0.0740932
0.119157 -0.0396786 0.141857
-0.204463 -0.254793 0.0910492
0.0534482 -0.0856263 -0.0755391
-0.165368 -0.263207 -0.109877
-0.256612 0.288299 0.149465
0.186574 -0.232138 -0.0836392
-0.228637 -0.0523207 -0.0624452
-0.0729472 -0.0671259 -0.0904645
-0.243422 0.0337679 -0.130949
0.137303 -0.0713553 0.0181725
-0.128023 -0.137569 0.129405
-0.25705 0.00506514 0.168927
-0.194934 -0.241612 0.149678
0.143958 -0.200615 0.131523
-0.242608 0.255947 -0.127284
-0.258523 0.165174 -0.168927
-0.262925 0.041827 0.0270209
-0.253388 -0.0537921 -0.134
-0.211914 -0.32003 -0.0805601
-0.244358 0.0418983 0.118608
0.253104 -0.345241 -0.121846
0.189229 -0.206825 0.132842
-0.00125727 -0.0899445 -0.0886111
0.102953 -0.132804 -0.125753
-0.267849 0.0395343 0.177147
0.196786 -0.211399 -0.111558
-0.121255 -0.0451421 0.0666917
-0.264935 0.219518 0.0552985
-0.0497256 -0.0884524 -0.0766574
0.163969 -0.0502062 -0.0176739
-0.00713709 -0.0598542 0.104195
-0.0490162 -0.0689187 -0.125411
0.103909 -0.0783501 -0.152444
0.232325 -0.301852 -0.126926
-0.268037 0.159516 0.00557013
-0.214304 -0.290995 -0.116265
-0.0255227 -0.0892161 0.0298907
-0.249279 0.111898 0.0672765
-0.218245 -0.241534 -0.0864688
-0.0623833 -0.0876746 0.113774
0.11571 -0.0761553 -0.0896596
-0.248376 -0.0890783 0.12403
0.105362 -0.0780799 -0.129999
0.0840752 -0.0458794 -0.0359225
-0.268225 0.134618 -0.146899
-0.266705 0.183039 0.187223
0.0304485 -0.0518443 0.0341505
0.0542677 -0.0500346 0.146499
-0.188188 -0.0652424 0.117791
-0.176484 -0.177442 -0.12703
-0.245337 0.0506351 0.0113721
-0.25862 0.274792 -0.123979
-0.187524 -0.314417 0.148703
-0.141985 -0.0535013 -0.157593
-0.10967 -0.0468111 0.125411
0.1566 -0.0368302 0.0494826
0.178432 -0.243081 0.100136
-0.192322 -0.0599243 0.0526407
0.140185 -0.0520276 0.16797
0.217856 -0.241129 -0.11455
-0.265109 0.2174 0.0323811
-0.0541231 -0.0720258 -0.138669
0.20808 -0.293688 0.125955
-0.109407 -0.0863363 0.11817
0.0319618 -0.087574 -0.00905059
-0.173374 -0.225875 -0.110728
-0.243372 0.249312 0.0620227
-0.304169 -0.0626201 -0.114871
-0.247128 0.210148 0.0147803
-0.178887 -0.211533 -0.0878817
-0.256652 0.288027 0.0771563
-0.084328 -0.0857476 -0.0852292
0.124965 -0.183356 -0.0990196
-0.195208 -0.28136 -0.0751098
-0.204185 -0.258168 -0.0766955
0.143227 -0.0341791 0.0944814
-0.249308 0.113712 0.109284
-0.207074 -0.266459 0.138043
0.248974 -0.345241 -0.0995829
0.130547 -0.0370763 -0.13597
0.192941 -0.247627 0.149427
-0.265301 0.0675873 0.152033
-0.230723 0.339632 0.168285
-0.187124 -0.0370871 -0.0290511
0.135399 -0.0359676 -0.0696759
-0.304441 0.105417 0.121157
-0.238161 0.287472 -0.148484
-0.247744 0.0887818 -0.169949
-0.293607 -0.00132614 0.116669
0.0169814 -0.0884944 0.0962277
0.0749966 -0.0830098 -0.00198627
-0.236927 0.295281 -0.0560141
-0.211763 -0.252475 -0.0908761
-0.245493 0.0525406 -0.150981
-0.197711 -0.255595 -0.135076
-0.26064 0.0219804 0.0372819
0.0823514 -0.080653 -0.105812
-0.174428 -0.0343762 -0.0137991
-0.223229 -0.303547 -0.0953489
-0.211695 -0.27971 -0.119728
0.032823 -0.0644618 -0.118626
0.197337 -0.267752 -0.131571
-0.211908 -0.249979 -0.0910653
-0.237842 -0.00698244 0.0321028
0.163688 -0.0551101 -0.114266
0.296044 -0.345241 0.141423
0.0670996 -0.0976343 0.0974005
0.227452 -0.262486 -0.0828333
-0.179851 -0.034022 -0.148265
-0.244139 0.0102454 0.168252
0.272859 -0.338633 0.149623
-0.239201 0.00216128 -0.0360194
-0.2387 0.283843 -0.0278178
-0.263694 0.0485122 -0.0245311
0.238177 -0.292171 -0.0855987
-0.185594 -0.0359546 -0.00751168
0.280084 -0.342361 -0.0756637
0.122444 -0.0747501 -0.0898536
-0.26751 0.178501 -0.0746805
0.035349 -0.0515433 -0.123032
-0.180996 -0.250738 0.14611
0.290342 -0.337963 0.095957
-0.215885 -0.246947 0.126684
-0.107367 -0.103911 -0.0835549
-0.257153 0.28466 0.0680735
-0.257579 0.281791 0.111612
-0.0880598 -0.097116 0.140166
-0.25775 0.0893005 0.167186
-0.305936 -0.0635825 0.112968
-0.251383 0.0221165 0.167239
-0.271378 0.164558 0.182726
0.164153 -0.043101 -0.0879441
-0.21752 -0.235826 -0.0855237
-0.0347354 -0.0532053 0.0601329
-0.205398 -0.268759 -0.0856686
-0.163551 -0.150618 -0.0831037
-0.146576 -0.0405551 0.0170756
-0.263748 0.233654 0.0143542
-0.267813 0.172326 -0.0420877
-0.165655 -0.341544 0.112697
-0.268254 0.146236 0.160564
0.163664 -0.0552899 -0.0252642
-0.25169 0.339493 0.097912
-0.263294 0.0840695 0.166128
-0.260536 0.0210813 -0.0540791
0.219608 -0.260513 -0.131944
-0.239548 0.278139 -0.0781277
-0.203282 -0.208373 -0.0864286
-0.0202809 -0.0535486 -0.109737
0.0681282 -0.048177 -0.0515102
0.052158 -0.0984792 0.139585
-0.253349 0.336623 0.0757429
-0.247096 0.198137 -0.170971
0.1879 -0.212522 0.100678
-0.104387 -0.0833951 -0.000920672
-0.229936 0.331092 -0.182781
-0.246585 0.0658603 -0.0657146
0.162182 -0.0596884 -0.149437
-0.267415 0.102195 0.0639702
-0.267288 0.183026 0.143823
-0.246126 0.222379 -0.0416748
0.167998 -0.228231 -0.12277
-0.263606 0.0477487 0.0754356
0.244163 -0.309857 -0.127488
-0.193892 -0.0552002 -0.0716971
-0.249519 0.126593 0.0973378
-0.206242 -0.275928 -0.124443
-0.249025 0.105971 -0.167565
-0.15201 -0.0753205 -0.0527903
-0.247646 0.137463 0.177168
0.145083 -0.184722 0.141146
-0.249315 0.114145 0.110479
-0.233064 0.316431 -0.103785
-0.229159 -0.054662 0.133523
-0.261882 0.132545 -0.166687
0.203644 -0.225838 -0.104325
0.260667 -0.339364 -0.0779994
-0.0677337 -0.0515232 -0.016461
0.162887 -0.231485 0.131571
0.164153 -0.0346805 0.136906
0.121096 -0.0750582 -0.107579
0.151124 -0.0610451 -0.167937
-0.0422083 -0.0750496 0.0974535
-0.0397336 -0.0889255 -0.115545
0.215098 -0.299476 -0.115449
0.0302518 -0.087679 -0.0533423
-0.147108 -0.105195 -0.117727
-0.250269 0.159983 0.184461
-0.252099 -0.056247 0.0949763
-0.248477 0.187856 -0.130174
0.109486 -0.077313 -0.0321643
-0.191333 -0.239466 0.0976821
0.25414 -0.29838 0.128043
-0.249044 0.106353 -0.0760624
-0.253181 0.307984 -0.0830893
-0.0864587 -0.0497065 0.122813
0.226622 -0.261981 -0.0825265
-0.155634 -0.03867 -0.0925952
0.186317 -0.208559 -0.0876008
-0.252075 -0.0562835 -0.161406
-0.183096 -0.315906 -0.0864934
-0.259032 0.272016 0.139581
0.114159 -0.0764437 0.124846
0.0933083 -0.109955 0.0975409
-0.266898 0.0916558 0.00363119
0.00382951 -0.0531816 0.06763
-0.203734 -0.204644 0.101942
-0.245296 0.232506 0.0610869
0.13102 -0.036968 0.0495357
-0.237363 -0.0102036 -0.0397562
0.108655 -0.0774675 0.0794039
0.192148 -0.238153 -0.124758
-0.241987 -0.0296864 -0.167458
-0.266257 0.0792506 0.0439022
-0.114777 -0.0460753 0.0764675
-0.249319 0.168298 -0.0227229
0.143385 -0.201257 -0.0951678
0.24574 -0.289892 -0.0790214
0.243171 -0.3196 -0.132248
-0.253332 -0.0245203 -0.162661
-0.26487 0.220313 0.160917
-0.0868095 -0.085493 -0.0600666
-0.265642 0.0717484 0.134713
-0.0643787 -0.0716898 -0.125467
-0.215661 -0.246154 -0.112988
-0.26265 0.243196 0.106404
-0.186307 -0.327715 -0.134071
-0.235787 0.301522 -0.0599421
-0.16464 -0.0366123 0.103065
-0.205951 -0.278719 0.100136
-0.260569 0.127355 -0.168927
-0.17857 -0.194255 0.0990445
-0.246325 0.0626935 -0.0357416
-0.147799 -0.10083 0.11734
0.162128 -0.0598183 -0.0689365
-0.0262021 -0.0950194 0.126782
-0.0222762 -0.0536109 -0.102102
0.163896 -0.0496566 -0.0307865
-0.0415006 -0.066029 -0.124511
0.163461 -0.170776 -0.114348
-0.17458 -0.0343412 -0.0481671
0.2701 -0.316602 -0.0801588
0.197475 -0.212729 0.126639
0.246025 -0.292753 -0.0918731
-0.106901 -0.0472101 -0.0845605
-0.178028 -0.187933 -0.126335
-0.267321 0.182351 -0.0684302
-0.234542 -0.0916105 -0.101197
-0.253382 0.150942 -0.168237
-0.0666287 -0.0874137 0.0418094
-0.299059 -0.0312562 -0.101088
0.170628 -0.249184 -0.121114
0.169439 -0.247418 0.103229
0.129398 -0.147016 0.141474
-0.0267596 -0.0958835 0.12369
-0.262207 0.0355933 0.0704635
0.164153 -0.0502439 -0.0384074
-0.183224 -0.0682813 0.0140982
-0.247871 0.200212 0.0157949
-0.190015 -0.29491 -0.0757236
-0.174876 -0.231936 0.134696
-0.157356 -0.0740992 -0.0990419
-0.174277 -0.327827 0.0976344
-0.0236223 -0.089255 -0.00158787
-0.259223 0.0119073 0.014079
0.26582 -0.338005 -0.13464
-0.216262 -0.285736 0.113218
-0.0766767 -0.085124 -0.0829687
-0.249629 0.133307 0.143495
-0.228809 -0.0531755 -0.085144
-0.254103 0.332881 0.140298
-0.0138706 -0.0953502 -0.109244
-0.135518 -0.0784346 -0.0809372
-0.237101 0.29433 0.125649
-0.219762 -0.0904137 -0.101692
-0.230383 0.339124 -0.0749039
-0.266831 0.192349 -0.0348192
-0.146609 -0.130619 -0.127454
-0.043723 -0.0529987 -0.0111496
-0.25851 0.0705106 -0.168927
-0.231479 0.323545 -0.148888
-0.233105 0.316206 0.150244
-0.28291 -0.0893129 -0.102384
-0.303501 -0.090285 -0.108839
-0.249476 0.158678 0.0467666
0.191643 -0.261057 -0.0789393
0.306468 -0.344806 0.128231
-0.257392 -0.000411364 -0.100713
-0.180851 -0.0341617 0.0670954
-0.242093 0.260422 0.111365
-0.175551 -0.249902 0.130428
-0.0614715 -0.051908 -0.052214
-0.212041 -0.34183 0.133516
-0.265008 0.0640088 -0.0572351
0.304657 -0.345241 -0.105771
-0.155136 -0.0967449 -0.115016
-0.0302036 -0.0551796 0.112897
-0.097635 -0.0843678 0.116506
-0.261347 -0.00960014 0.175628
0.0661833 -0.0514256 0.148256
0.000488021 -0.0532499 0.0271786
0.138018 -0.0353694 -0.0173556
0.184424 -0.244574 -0.0761097
0.146608 -0.206277 0.113944
-0.252605 -0.0285015 0.110345
-0.147325 -0.0404159 -0.141841
0.267407 -0.308083 0.141089
-0.244655 0.247217 -0.184689
0.289895 -0.327905 -0.0912965
-0.114232 -0.046154 -0.02746
-0.250936 -0.032673 0.165753
-0.181751 -0.345241 0.140075
-0.128528 -0.0797347 0.0150044
-0.0667576 -0.0515831 -0.0384112
0.155817 -0.036271 0.00628218
-0.268321 0.142094 0.00183286
-0.255231 0.296758 0.0557473
-0.249611 0.150421 -0.060863
0.0667595 -0.0841969 0.0859835
-0.262194 0.247159 0.00676302
-0.173082 -0.268772 0.12275
0.114856 -0.157482 0.134421
-0.180768 -0.31249 0.102518
-0.2385 0.28519 0.00550203
0.117669 -0.167641 -0.116214
0.0278731 -0.0727636 -0.138728
-0.190449 -0.0403935 -0.139053
0.113733 -0.165549 -0.109044
0.208033 -0.263533 -0.126188
0.0402444 -0.0511585 -0.0326122
0.0436948 -0.0508045 -0.136606
0.174996 -0.258659 -0.0982601
-0.0703989 -0.087177 -0.0282138
0.0502844 -0.0501284 0.0172369
0.118408 -0.123945 -0.125086
0.00995776 -0.0845538 0.141952
0.0745624 -0.04725 -0.0300203
0.212861 -0.293298 -0.0899301
-0.258925 0.00989727 -0.0416729
-0.040987 -0.097911 0.11843
-0.222505 -0.345241 -0.0953351
0.125847 -0.0634009 -0.161396
0.159848 -0.0633214 -0.0753902
-0.265553 0.0706633 0.0165415
-0.21647 -0.316079 -0.0994817
-0.243591 0.247407 0.128839
0.0364746 -0.0796919 -0.139601
-0.173545 -0.284563 0.125583
-0.237332 -0.0104141 0.114541
-0.161601 -0.180901 -0.116524
-0.103797 -0.0476573 -0.0565986
0.0540233 -0.072964 0.104923
-0.244766 0.0454415 -0.116079
-0.268094 0.12662 -0.0927203
-0.17178 -0.159017 -0.0832087
-0.138401 -0.0778985 -0.00911553
-0.0789505 -0.0504769 0.063701
0.174951 -0.183377 0.124729
-0.173009 -0.248065 -0.102554
0.139957 -0.0707491 -0.158568
-0.076919 -0.0865078 -0.112041
0.0401526 -0.0511679 -0.071866
-0.295244 -0.0753738 -0.113121
-0.191438 -0.194767 0.141215
-0.259056 0.0299954 -0.168927
0.179972 -0.219031 0.097405
-0.267791 0.109863 0.00720466
-0.238568 0.28481 -0.183635
0.15906 -0.0643158 0.14193
-0.163831 -0.0367972 -0.0655099
-0.0579364 -0.0521252 0.0754408
0.00574483 -0.0531424 0.0773668
-0.293547 -0.0651125 0.119529
-0.308173 0.00618632 0.118907
0.190148 -0.233213 0.148681
-0.267966 0.163855 0.0729382
-0.266419 0.20075 -0.0786303
0.0465411 -0.0863352 0.112762
0.13406 -0.0362736 0.133156
-0.264963 0.0634573 0.0189314
-0.0382984 -0.0531325 0.0656518
0.104571 -0.0424041 -0.0129848
0.080586 -0.129661 0.120781
-0.236136 0.299612 0.0355885
-0.173085 -0.239942 -0.101977
0.175151 -0.249046 0.141169
0.0633646 -0.0846089 -0.106724
0.149856 -0.0336863 0.14707
-0.229434 0.326632 0.0933638
-0.247122 0.210223 0.162441
-0.245393 0.231326 0.0783517
0.00837764 -0.0530885 0.109038
0.0434308 -0.0508316 -0.135338
0.266094 -0.326218 0.0898723
-0.148251 -0.104702 -0.0946138
-0.236805 -0.0133125 0.130822
0.124676 -0.0384175 0.0959799
-0.24335 0.249502 -0.121674
-0.249557 0.15371 0.11239
-0.245881 0.330159 -0.18842
0.14293 -0.0342469 0.132263
-0.249541 0.127908 -0.148434
-0.236255 -0.0118376 0.181873
-0.245991 0.212727 -0.181579
0.102724 -0.136303 -0.0858953
-0.23429 0.309718 -0.0921207
-0.0853541 -0.0498198 -0.133156
0.112825 -0.0766918 -0.147249
-0.26798 0.119579 0.0627483
-0.247269 0.0742043 0.0456746
0.249611 -0.300891 -0.122772
0.242486 -0.308719 0.0973451
-0.294139 0.0968437 -0.112487
-0.253951 0.138114 0.168927
0.113923 -0.0764875 0.141338
-0.249396 0.163584 0.0124795
-0.244427 0.344592 0.0894296
-0.257521 0.0440226 0.166583
-0.249433 0.161313 -0.11564
-0.232712 -0.0357189 -0.0748768
-0.111929 -0.123944 0.129984
0.105267 -0.0422746 -0.0740959
-0.0201758 -0.0623519 0.101228
0.100796 -0.0789292 0.0787406
-0.243487 0.0343284 -0.107579
-0.268075 0.157208 -0.162936
-0.247094 0.0720752 -0.0932167
0.149578 -0.0338399 0.144067
-0.16485 -0.119895 -0.0979723
-0.240595 0.271099 0.0760328
0.207984 -0.302372 -0.103557
-0.192809 -0.243081 -0.105428
0.269071 -0.312174 0.0965046
-0.256365 0.289958 0.0964798
-0.248791 0.1012 -0.0468843
-0.263385 0.045825 0.0338314
-0.256149 0.291415 -0.15681
0.239951 -0.310015 0.0904554
-0.25937 0.161639 -0.167111
0.0161423 -0.0899555 -0.0870193
-0.28786 -0.0856019 0.121031
-0.175474 -0.285736 0.0967161
0.190268 -0.243081 0.115339
-0.249943 0.341725 -0.0811181
-0.263149 0.043773 0.0738579
-0.0874807 -0.0854242 0.0314741
0.159 -0.0643921 0.0638569
-0.266287 0.0796138 0.0697482
-0.130112 -0.07944 -0.101589
0.0700056 -0.0837292 -0.0589675
-0.253769 0.334537 -0.0900134
-0.261664 0.0308774 0.128296
-0.267928 0.116429 0.0271521
-0.186708 -0.180644 -0.0835186
-0.218053 -0.340557 -0.0862182
0.0386549 -0.0513215 -0.0493288
-0.24669 -0.0612566 -0.0168572
-0.249354 0.166157 -0.0301274
-0.266114 0.0775011 0.0704505
-0.243008 0.0170817 -0.185241
-0.216416 -0.293247 0.14067
-0.196515 -0.263775 -0.12734
0.198409 -0.282278 0.110341
-0.191965 -0.310873 0.097599
0.213937 -0.281022 0.147999
0.257932 -0.325605 -0.0755218
-0.220149 -0.239943 0.103189
0.164105 -0.051961 -0.0671045
-0.17952 -0.0874329 0.1222
-0.249358 0.116738 -0.0415533
-0.239288 0.279889 -0.0577384
-0.0363622 -0.0531719 -0.0886043
-0.0683697 -0.062052 0.129178
-0.0368115 -0.0531627 -0.101928
-0.229816 0.322746 -0.178031
0.0788739 -0.0824511 0.0917722
-0.250839 0.340762 0.137324
0.148891 -0.0693809 0.132686
-0.246125 0.0602459 -0.0572652
-0.223943 -0.100083 0.122168
-0.267955 0.164553 -0.156562
-0.253225 0.165744 0.187302
0.090353 -0.0807975 0.0265813
-0.254294 -0.0192513 0.093908
0.0237739 -0.0880771 -0.0846646
-0.247401 0.0758202 -0.131004
-0.256447 -0.00676917 -0.130623
0.137276 -0.0713613 0.0154776
-0.259585 0.2683 -0.0281382
-0.235943 0.293611 0.171888
0.143099 -0.0342083 0.126633
-0.0392139 -0.0852857 -0.137246
-0.154858 -0.108495 0.123862
-0.26647 0.152119 0.187705
-0.0688639 -0.0872767 -0.129704
0.160577 -0.213555 -0.0893483
-0.297034 0.0819906 -0.114667
-0.266029 0.206175 0.0724792
0.154343 -0.233768 0.110577
0.00529274 -0.0584081 0.141815
-0.245915 0.224948 0.0535157
0.0343795 -0.0516029 -0.138331
-0.253837 -0.0515608 0.109531
-0.248647 0.342589 0.06523
0.281995 -0.314732 -0.107127
-0.235717 0.301905 0.134141
0.235849 -0.298837 0.0896636
-0.222181 -0.316641 -0.0928185
0.160242 -0.0336863 0.0830866
-0.236172 -0.0221737 -0.184621
-0.255233 -0.0141111 0.0702914
-0.216811 -0.3349 0.11629
-0.144013 -0.0410318 0.0714551
-0.238024 0.288394 -0.106257
-0.102313 -0.083694 -0.0890714
0.0777013 -0.0826204 -0.1453
-0.176661 -0.33003 -0.0927821
-0.305338 -0.0172302 -0.114103
0.10997 -0.077223 -0.0619385
-0.308188 -0.0509959 0.118787
-0.0179924 -0.0797833 0.140941
0.0984707 -0.0793616 0.0885038
-0.254287 0.133022 -0.187646
0.174527 -0.254918 0.132156
-0.262488 -0.0015797 -0.178389
-0.249714 0.138534 0.0854955
0.164153 -0.0408077 0.0635413
-0.267738 0.108781 -0.146233
-0.0851722 -0.085661 0.0734946
-0.244825 0.243407 0.184414
-0.161311 -0.131956 0.0994702
0.281624 -0.317956 -0.0918031
-0.243221 0.0320153 0.166809
0.058422 -0.0851159 -0.00198647
-0.263781 0.232408 -0.186792
-0.00302929 -0.0891446 0.0302653
-0.240476 0.0107409 0.0867974
-0.231057 0.332701 -0.1846
-0.159812 -0.0377154 0.156729
-0.164806 -0.151571 0.0972614
-0.208067 -0.212212 -0.0891451
-0.241538 0.0178875 -0.166535
0.265379 -0.295222 -0.103508
0.142575 -0.0701508 -0.0482636
-0.137068 -0.0423236 -0.0551525
-0.244947 0.235625 -0.109393
-0.220647 -0.231936 0.105581
-0.101661 -0.0837879 0.131164
-0.0287327 -0.0533279 0.0863457
-0.161677 -0.0924679 0.125589
-0.245756 0.22689 0.0948965
-0.0105658 -0.0892988 -0.125421
-0.238385 -0.00332757 0.128826
-0.203907 -0.237972 -0.0850509
-0.000439704 -0.0532689 0.0790438
0.244035 -0.312952 -0.0759314
-0.234578 -0.0255029 -0.0726157
-0.26788 0.169139 0.143899
-0.143844 -0.155144 0.127136
0.236029 -0.297613 0.0895026
-0.245416 0.231038 -0.138231
0.138782 -0.0351949 -0.123704
-0.238487 -0.00263927 -0.0961459
-0.249279 0.170705 0.111581
-0.192518 -0.331699 -0.127228
-0.268091 0.126448 -0.108055
-0.254847 -0.0162249 0.0599209
0.0624776 -0.0715984 -0.143734
-0.179369 -0.326698 -0.131027
-0.0158999 -0.053585 0.0525169
-0.249382 0.118229 -0.116755
0.163356 -0.243081 0.108752
-0.249289 0.342161 0.082742
0.0690053 -0.0480507 -0.0586037
-0.0811993 -0.0860685 0.141909
-0.265681 0.0722172 0.0800051
0.264246 -0.297393 0.132586
-0.259517 0.268754 0.118863
0.164153 -0.0353305 0.0444606
-0.236804 -0.0133191 0.00852467
0.148302 -0.0694025 0.103208
-0.242536 0.0260656 -0.0980601
-0.249674 0.341905 0.0353826
0.224198 -0.321549 0.119889
0.285513 -0.334414 0.14442
-0.193063 -0.276006 0.0895609
-0.249638 0.133843 0.15158
0.0232335 -0.100609 -0.0998654
-0.102115 -0.10781 -0.124667
-0.0369154 -0.0922468 -0.119767
-0.235415 -0.0209196 -0.164069
-0.212179 -0.333878 -0.129752
0.192408 -0.272366 0.105033
-0.114532 -0.0819332 -0.123036
-0.115172 -0.0684138 0.152901
-0.262425 -0.0926459 0.125612
-0.0858084 -0.0497732 0.040679
-0.236011 -0.0104101 0.180628
-0.265532 0.0704041 0.0959591
-0.258107 0.165704 -0.189118
-0.174958 -0.257378 -0.0957569
-0.301632 -0.0128638 -0.115608
-0.130542 -0.0613351 0.156803
-0.2602 0.0184803 -0.0950436
-0.245185 0.233555 -0.148564
-0.172205 -0.265586 -0.0857345
0.189768 -0.246271 -0.0755922
-0.268176 0.131608 -0.149532
-0.308045 0.0111734 0.116777
0.112409 -0.0767692 0.153588
-0.256308 -0.00770427 0.105657
0.158655 -0.0336863 0.10575
-0.209896 -0.210747 -0.0919029
0.15542 -0.0359875 -0.0321543
-0.0693283 -0.0769508 0.144802
0.08579 -0.0456323 -0.1153
-0.246794 0.0684171 -0.0559704
0.147481 -0.18886 -0.126684
0.102608 -0.0427691 -0.0767003
-0.1746 -0.0343369 0.0212394
0.164153 -0.0446296 0.0330997
0.0177472 -0.0884474 -0.041529
0.0943648 -0.0443023 -0.0938894
-0.240656 0.0119505 0.0285175
-0.243782 0.245747 0.0806489
-0.111926 -0.0770936 0.116153
-0.136219 -0.137737 0.102198
-0.0374579 -0.0567766 0.11097
-0.245362 0.299979 -0.189124
-0.248281 0.0907976 0.10516
0.110401 -0.0990621 0.121226
-0.266522 0.0839832 0.027127
0.186406 -0.245475 0.141435
-0.222879 -0.345241 -0.0971202
-0.249622 0.149765 -0.0383347
-0.236966 -0.00418039 -0.171911
-0.218267 -0.33405 0.138257
-0.101127 -0.0838648 -0.0954907
-0.246518 0.0650446 0.130495
0.00642251 -0.0558509 -0.102455
-0.247669 0.203547 -0.150208
-0.248369 0.190056 0.130347
-0.262379 0.0370884 0.102667
-0.228991 -0.054081 -0.0631778
0.15179 -0.0336863 0.0507432
-0.238432 0.285648 -0.0233611
-0.10243 -0.0478543 -0.0405689
-0.307411 0.0404036 0.114993
-0.208562 -0.263046 -0.132007
-0.129597 -0.0437132 -0.12456
-0.167767 -0.0358978 0.0772666
0.0785523 -0.0466751 0.0203209
-0.269989 0.138879 -0.167663
-0.179865 -0.224466 -0.0889721
-0.166857 -0.168833 0.0988623
-0.258818 0.177031 0.168927
-0.135018 -0.147396 0.115301
-0.0690593 -0.0514419 -0.0751441
0.270351 -0.302828 0.129032
-0.260101 0.0118012 0.166613
-0.240629 0.290598 -0.168397
-0.164818 -0.0365718 0.00481645
-0.264701 0.115637 0.11168
0.286191 -0.343958 -0.133829
-0.151836 -0.157148 -0.121511
-0.306935 -0.00283663 -0.112415
-0.215891 -0.314255 -0.126904
-0.248165 0.0884188 0.0752995
-0.253242 0.30765 0.0634578
0.0457797 -0.0505905 0.0206345
-0.259247 0.270574 -0.146165
0.164153 -0.0499103 0.0565082
0.220249 -0.287533 0.141357
0.0768043 -0.046927 0.045192
-0.246867 0.0693084 -0.0764228
0.149066 -0.0693745 0.151767
0.104229 -0.0424677 -8.10148e-05
-0.175585 -0.142508 -0.122212
-0.267899 0.114644 0.11986
-0.14195 -0.0772384 -0.0663578
0.133351 -0.0722584 -0.118446
-0.145926 -0.0455705 -0.158828
-0.187402 -0.33664 0.140292
-0.243848 0.245174 -0.0198778
0.18203 -0.206348 0.138833
-0.261125 0.0654246 -0.168927
0.186958 -0.231936 0.0932365
-0.244763 0.237219 0.039871
-0.244208 0.043542 -0.169715
-0.24933 0.115038 0.115537
-0.0912782 -0.0850346 0.132186
-0.00509547 -0.0869593 -0.136657
-0.212812 -0.304278 -0.118272
-0.238523 -0.00239847 -0.0809641
0.154963 -0.0675347 -0.154363
-0.204937 -0.344718 0.0912457
-0.239083 0.00137087 -0.0539375
-0.247838 0.134526 0.179354
0.0200226 -0.0883076 -0.130428
-0.139649 -0.0632283 0.15926
-0.0370724 -0.0531574 -0.0866313
-0.246738 0.21491 -0.141571
-0.251856 0.339247 0.128683
-0.131412 -0.0791983 -0.0629759
-0.260654 0.0220977 -0.0964979
-0.1688 -0.0356619 0.0312621
0.161252 -0.0615479 -0.106919
0.0949725 -0.0441895 0.114157
0.0299614 -0.0876969 -0.101091
0.145994 -0.0694867 0.0892399
