ply
format ascii 1.0
comment Created by Open3D
element vertex 808
property double x
property double y
property double z
end_header
0.127651 -0.182222 -0.445161
0.127313 -0.18235 -0.427689
0.112138 -0.18198 -0.446529
0.129311 -0.181424 -0.413877
0.0866055 -0.180771 -0.446568
0.129193 -0.181531 -0.376692
0.0733713 -0.180144 -0.446588
0.0529031 -0.180619 -0.44662
0.130237 -0.177449 -0.364392
0.0316557 -0.181112 -0.446653
0.00203556 -0.182806 -0.446699
0.133652 -0.161324 -0.433707
0.118325 -0.161872 -0.446515
0.133353 -0.162389 -0.406938
0.0986217 -0.162192 -0.446142
-0.0291707 -0.181489 -0.446746
0.133312 -0.162151 -0.388463
0.0791842 -0.162308 -0.446208
-0.0454083 -0.180804 -0.446771
0.129286 -0.165914 -0.343952
0.133497 -0.161421 -0.372739
0.0590294 -0.162428 -0.446275
-0.0706053 -0.181345 -0.44681
-0.0879932 -0.180634 -0.446837
0.0797355 -0.155643 -0.431719
0.0415326 -0.159343 -0.444794
0.00202936 -0.164678 -0.446696
-0.105874 -0.179902 -0.446865
0.0614678 -0.155611 -0.429445
0.0199978 -0.159397 -0.444868
-0.13367 -0.180451 -0.446908
0.133779 -0.152381 -0.353348
0.133652 -0.142344 -0.433707
-0.022389 -0.16201 -0.446279
0.132916 -0.152139 -0.332607
0.118325 -0.140108 -0.446515
-0.0392283 -0.161207 -0.446001
-0.00669771 -0.155642 -0.430841
-0.0640166 -0.161312 -0.446085
-0.0251676 -0.155079 -0.429581
-0.0898498 -0.161423 -0.446169
0.116551 -0.137406 -0.401201
-0.0489552 -0.154933 -0.429618
-0.108859 -0.160593 -0.445811
0.116589 -0.137416 -0.376045
0.0747152 -0.13653 -0.429424
-0.0736965 -0.15478 -0.429657
-0.13367 -0.160213 -0.446908
0.0479004 -0.136884 -0.429466
-0.0994504 -0.154622 -0.429697
0.132204 -0.136432 -0.314769
0.0269234 -0.136411 -0.429499
0.133385 -0.131374 -0.332901
0.116613 -0.13046 -0.359776
0.133652 -0.120654 -0.433707
0.118325 -0.121064 -0.446515
0.0125036 -0.135074 -0.429522
-0.00981236 -0.134552 -0.429557
-0.0251676 -0.136281 -0.429581
-0.115216 -0.141326 -0.446806
0.116546 -0.117271 -0.404272
-0.0653399 -0.134331 -0.429644
0.0747152 -0.11641 -0.429424
-0.0994504 -0.134671 -0.429697
0.132105 -0.120141 -0.296817
0.0479004 -0.116278 -0.429466
-0.0329942 -0.12455 -0.429593
-0.0489552 -0.126182 -0.429618
0.131068 -0.181105 0.399707
0.133153 -0.179012 0.379161
0.127997 -0.177966 0.362156
0.109836 -0.180088 0.365529
0.116603 -0.112269 -0.366335
0.0269234 -0.115425 -0.429499
0.0125036 -0.116862 -0.429522
0.13239 -0.180031 0.441766
0.133811 -0.178078 0.421463
0.0925117 -0.176492 0.358787
0.0730671 -0.178754 0.362944
0.0528266 -0.181141 0.367628
0.123772 -0.112494 -0.323385
0.116625 -0.110529 -0.353147
0.133652 -0.101675 -0.433707
0.118325 -0.10202 -0.446515
0.1286 -0.167145 0.344692
0.111534 -0.168911 0.346433
0.0279453 -0.178152 0.361732
0.00671399 -0.180563 0.366354
-0.00803906 -0.182265 0.369876
0.0747152 -0.104913 -0.429424
-0.115216 -0.121374 -0.446806
0.0870048 -0.166206 0.342471
0.0746903 -0.16749 0.34425
0.0492539 -0.170166 0.348212
-0.0342012 -0.179141 0.363511
-0.0494345 -0.180822 0.366806
-0.0651761 -0.182578 0.37044
-0.0653399 -0.11491 -0.429644
0.13475 -0.162894 0.411075
0.134325 -0.161559 0.394374
0.13477 -0.15936 0.368117
0.109962 -0.158659 0.332596
0.0231983 -0.167354 0.343967
0.00302702 -0.169408 0.347002
-0.0926942 -0.179352 0.36382
-0.109015 -0.181097 0.367288
0.116546 -0.0974905 -0.404272
0.0125036 -0.104721 -0.429522
-0.00981236 -0.106714 -0.429557
-0.0994504 -0.11472 -0.429697
0.135016 -0.160243 0.437306
0.134527 -0.152156 0.335471
-0.0174153 -0.165859 0.341816
-0.0383614 -0.167908 0.344691
-0.0673592 -0.170766 0.348946
-0.129655 -0.177006 0.359342
0.132036 -0.103669 -0.274621
0.133876 -0.102223 -0.290736
-0.0251676 -0.104952 -0.429581
-0.0489552 -0.107015 -0.429618
0.07738 -0.151569 0.324364
0.0531068 -0.153805 0.326824
0.00212121 -0.158522 0.332264
-0.0890267 -0.167063 0.34338
0.0479004 -0.0956717 -0.429466
0.0269234 -0.0974366 -0.429499
0.130825 -0.141993 0.31706
0.110142 -0.14363 0.316366
0.0264429 -0.151016 0.323705
-0.119103 -0.164061 0.339145
0.116617 -0.0923472 -0.359778
0.117805 -0.144828 0.403926
-0.0207627 -0.149861 0.322423
-0.0477519 -0.15217 0.324825
-0.0686634 -0.153968 0.326818
0.116676 -0.0923822 -0.318896
0.133648 -0.0824864 -0.436587
-0.115216 -0.101422 -0.446806
0.135016 -0.14111 0.437306
0.132831 -0.140278 0.423102
0.117755 -0.137692 0.36991
-0.113415 -0.152198 0.324754
0.126876 -0.0938418 -0.243948
0.116584 -0.0851178 -0.379247
0.0747152 -0.0847926 -0.429424
0.120801 -0.128092 0.300595
0.0980474 -0.12991 0.302613
0.0806148 -0.131298 0.304079
0.0567843 -0.133195 0.306082
0.0446128 -0.134163 0.3071
0.00713438 -0.137135 0.310087
-0.0936519 -0.145084 0.317471
0.12779 -0.0935857 -0.199886
0.130458 -0.0921185 -0.218587
0.116647 -0.0849156 -0.339671
-0.0994504 -0.0947684 -0.429697
-0.0076912 -0.133105 0.305882
0.127084 -0.0938246 -0.1469
0.13118 -0.0915572 -0.177043
0.116704 -0.0844628 -0.301052
0.116537 -0.0773111 -0.410368
-0.00981236 -0.0850617 -0.429557
0.11778 -0.124753 0.386773
0.134776 -0.119304 0.318989
0.059623 -0.122921 0.294498
-0.0358389 -0.129984 0.302483
-0.0561525 -0.131479 0.304059
-0.0769357 -0.133008 0.305668
-0.0981864 -0.134571 0.30729
-0.127236 -0.136702 0.309431
0.128055 -0.0935509 -0.0961484
0.131166 -0.0916473 -0.122909
0.131664 -0.0818127 -0.278105
-0.0489552 -0.0846538 -0.429618
-0.0653399 -0.0857779 -0.429644
0.135016 -0.121976 0.437306
0.132831 -0.121258 0.423102
0.117749 -0.119023 0.36992
0.117715 -0.11752 0.345155
0.134695 -0.113379 0.295474
0.111302 -0.114201 0.283557
0.0339343 -0.119742 0.290563
0.00223571 -0.122005 0.293321
0.127323 -0.0938046 -0.0346742
0.129615 -0.0928748 -0.0474811
0.13183 -0.0910472 -0.0751493
0.0479004 -0.0750655 -0.429466
0.0269234 -0.0764503 -0.429499
0.0125036 -0.0774022 -0.429522
0.127375 -0.108233 0.275534
0.0875184 -0.110972 0.279083
-0.0183316 -0.118253 0.288632
-0.0868397 -0.122934 0.294278
0.128367 -0.09351 0.0244241
0.131126 -0.0918512 -0.000985742
0.133739 -0.0765246 -0.260663
0.116615 -0.0718257 -0.359777
-0.0251676 -0.0767561 -0.429581
-0.115216 -0.0814701 -0.446806
0.127613 -0.0937799 0.0965809
0.129958 -0.09279 0.0814534
0.131526 -0.0915786 0.0615269
0.132743 -0.0901128 0.0366768
0.133879 -0.0749214 -0.233364
0.116677 -0.0711796 -0.318897
0.116574 -0.0674504 -0.385602
0.127425 -0.0985825 0.260377
0.104929 -0.100001 0.262365
0.0635058 -0.102644 0.266595
0.128719 -0.0934637 0.166315
0.130481 -0.0925221 0.15067
0.132262 -0.0909004 0.122363
0.133652 -0.0610048 -0.433707
0.118325 -0.0612121 -0.446515
0.0747152 -0.0646723 -0.429424
-0.0907494 -0.0743103 -0.429684
0.134976 -0.102389 0.428403
0.117749 -0.100353 0.369919
0.117717 -0.0990856 0.345153
0.134763 -0.0947943 0.279939
0.130349 -0.0926913 0.23409
0.131946 -0.0913852 0.210334
0.132873 -0.0716364 -0.174122
-0.00981236 -0.0665028 -0.429557
0.117805 -0.0973433 0.403926
0.117678 -0.0932999 0.321015
0.1341 -0.0744553 -0.0468759
0.132707 -0.0712059 -0.114909
0.132071 -0.0703542 -0.133036
0.131505 -0.0697382 -0.146261
0.127535 -0.0673397 -0.19968
0.116769 -0.0649663 -0.259977
0.116533 -0.0574844 -0.413392
-0.0329942 -0.0646399 -0.429593
-0.0653399 -0.0663565 -0.429644
0.134725 -0.0845815 0.249882
0.134621 -0.0816055 0.185724
0.134131 -0.0740992 0.0236554
0.133486 -0.0723615 -0.0144423
0.131946 -0.0700806 -0.0652025
0.11674 -0.0609162 -0.278967
0.0479004 -0.057403 -0.429466
0.134235 -0.0739777 0.107209
0.133641 -0.0724101 0.0710043
0.133094 -0.0714178 0.0478991
0.117044 -0.0662978 -0.0857011
0.116705 -0.0568204 -0.301052
0.116646 -0.0551207 -0.33967
0.0269234 -0.0554639 -0.429499
0.0125036 -0.0561545 -0.429522
-0.107426 -0.0614515 -0.439845
-0.13367 -0.0623989 -0.446908
0.132831 -0.0832159 0.423102
0.117805 -0.083098 0.403926
0.117752 -0.081682 0.369915
0.117715 -0.0806512 0.345155
0.117642 -0.0786658 0.297467
0.133236 -0.0714143 0.140543
0.117124 -0.0648346 -0.0347664
0.116614 -0.0513042 -0.359777
-0.0489552 -0.0559035 -0.429618
0.135016 -0.0789258 0.437306
0.132824 -0.0706086 0.223389
0.116879 -0.0549937 -0.191092
0.126469 -0.0526726 -0.23969
0.116679 -0.0499771 -0.318898
0.11658 -0.0474831 -0.382434
-0.0907494 -0.0544942 -0.429684
0.117616 -0.0691086 0.282091
0.11744 -0.064884 0.167524
0.117014 -0.0548295 -0.105155
0.127148 -0.0525455 -0.155967
0.130887 -0.0505267 -0.206554
0.133652 -0.0420255 -0.433707
0.118325 -0.0421683 -0.446515
0.11768 -0.0659924 0.321012
0.117572 -0.0636144 0.252071
0.117174 -0.0548325 -0.00251728
0.126845 -0.0526555 -0.0550002
0.129261 -0.051783 -0.0776242
0.131597 -0.0499555 -0.127971
0.116722 -0.0449126 -0.290103
-0.00981236 -0.0448507 -0.429557
-0.0653399 -0.0469351 -0.429644
0.132831 -0.0641952 0.423102
0.117805 -0.0641041 0.403926
0.117726 -0.0624796 0.35334
0.117639 -0.0606853 0.297471
0.117481 -0.057389 0.194833
0.117347 -0.0546335 0.109034
0.117309 -0.0538381 0.0842674
0.127616 -0.0525109 0.0542253
0.129727 -0.0516127 0.0286007
0.133429 -0.0419393 -0.268066
0.135016 -0.0597923 0.437306
0.117754 -0.0583442 0.369912
0.117524 -0.0539756 0.223003
0.130246 -0.0514178 0.150973
0.116647 -0.0372437 -0.339671
0.116556 -0.0355058 -0.398113
0.0747152 -0.0359291 -0.429424
0.0479004 -0.0367968 -0.429466
0.0269234 -0.0374756 -0.429499
-0.107426 -0.0415213 -0.439845
-0.13367 -0.0421614 -0.446908
0.117617 -0.0512741 0.282091
0.1343 -0.042479 -0.0206989
0.134267 -0.0419006 -0.0418427
0.0125036 -0.0349069 -0.429522
-0.0251676 -0.0360284 -0.429581
-0.0489552 -0.0367366 -0.429618
0.134528 -0.0424476 0.125923
0.116683 -0.0318918 -0.315368
0.116616 -0.0307824 -0.359778
-0.0907494 -0.0346782 -0.429684
0.11779 -0.0449158 0.395317
0.117677 -0.0432366 0.321016
0.13465 -0.0415487 0.264924
0.13471 -0.0410402 0.242527
0.134632 -0.0399125 0.192629
0.1346 -0.039448 0.172074
0.133657 -0.0321196 -0.152671
0.13354 -0.0318225 -0.165923
0.133226 -0.0311523 -0.19587
0.132976 -0.030692 -0.216473
0.132642 -0.0301591 -0.240375
0.116591 -0.0274831 -0.376046
0.135016 -0.0406587 0.437306
0.117752 -0.0396741 0.369915
0.117713 -0.0391735 0.345158
0.134031 -0.0324196 0.0294684
0.133864 -0.03197 0.00709206
0.133227 -0.0307001 -0.0562995
0.132977 -0.0303009 -0.0762769
0.132712 -0.0299129 -0.0957214
0.132282 -0.029351 -0.123931
0.0614678 -0.0247233 -0.429445
0.132831 -0.035664 0.423102
0.13418 -0.0332319 0.288491
0.134221 -0.0320327 0.221437
0.133616 -0.0308255 0.153232
0.133187 -0.0301476 0.114831
0.132876 -0.0297133 0.0901973
0.132624 -0.0293968 0.0722122
0.108593 -0.0256691 -0.162506
0.106437 -0.0253506 -0.182677
0.106686 -0.0251123 -0.195738
0.107544 -0.0245637 -0.2255
0.116641 -0.0222856 -0.343068
0.133652 -0.0203349 -0.433707
0.118325 -0.020404 -0.446515
-0.0653399 -0.0242768 -0.429644
0.1058 -0.0256699 0.0554678
0.104715 -0.0255252 0.0449482
0.104726 -0.0251689 0.0219513
0.104737 -0.0248223 -0.000412464
0.104748 -0.0244851 -0.0221686
0.104755 -0.0242382 -0.0381017
0.104765 -0.0239166 -0.0588523
0.104926 -0.0235987 -0.0792024
0.105302 -0.0232823 -0.0992196
0.105668 -0.0229743 -0.118707
0.106024 -0.0226743 -0.137685
0.108722 -0.020945 -0.246399
0.128993 -0.0202582 -0.268686
0.133877 -0.0198343 -0.290736
-0.107426 -0.0215911 -0.439845
-0.13367 -0.0219239 -0.446908
0.124836 -0.0240857 0.256622
0.109013 -0.0241186 0.241924
0.108251 -0.023859 0.221284
0.107632 -0.0236008 0.200915
0.107142 -0.0232555 0.174029
0.106783 -0.023003 0.154377
0.106316 -0.0226748 0.128828
0.105862 -0.0223559 0.103998
0.105421 -0.0220458 0.0798569
0.116562 -0.0156631 -0.395011
0.040993 -0.0162889 -0.429477
-0.00981236 -0.0170123 -0.429557
-0.0251676 -0.017231 -0.429581
0.135016 -0.0215252 0.437306
0.117753 -0.0210039 0.369913
0.117715 -0.0207389 0.345156
0.13246 -0.0202389 0.31457
0.106934 -0.014927 -0.208558
0.108845 -0.0142895 -0.265926
-0.0489552 -0.0143752 -0.429618
-0.0907494 -0.0148621 -0.429684
0.132831 -0.0166432 0.423102
0.117805 -0.0166196 0.403927
0.111046 -0.0156165 0.276307
0.10465 -0.0138435 0.05676
0.104583 -0.0136503 0.0335198
0.116615 -0.0102608 -0.359777
0.130019 -0.0110952 0.286957
0.133839 -0.00747931 -0.315835
0.116585 -0.00721336 -0.379248
0.133784 -0.00679107 0.328534
0.104574 -0.00516146 -0.159149
0.104936 -0.00508028 -0.181468
0.106124 -0.00490755 -0.2285
0.0125036 -0.00455308 -0.429522
-0.00981236 -0.00463973 -0.429557
-0.0251676 -0.00469936 -0.429581
-0.0653399 -0.00485536 -0.429644
0.135016 -0.00239171 0.437306
0.117751 -0.00233379 0.369916
0.108529 -0.0022476 0.287544
0.107693 -0.00222298 0.265974
0.10341 -0.00204651 0.113207
0.103041 -0.00202517 0.0948874
0.103461 -0.00173921 -0.144653
0.106004 -0.00161232 -0.248382
0.131016 -0.00151446 -0.303307
0.128099 -0.00147067 -0.343229
0.133652 -0.00135567 -0.433707
0.118325 -0.00136028 -0.446515
-0.107426 -0.00166086 -0.439845
-0.13367 -0.00168647 -0.446908
0.132831 0.00713277 0.423102
0.117804 0.00712267 0.403928
0.134771 0.00683977 0.343241
0.129478 0.00674573 0.311174
0.109178 0.00682012 0.3099
0.104888 0.00664051 0.254985
0.103874 0.00654509 0.227187
0.103377 0.00649841 0.213585
0.102672 0.00642939 0.193508
0.102311 0.00635903 0.173433
0.101939 0.00629036 0.153817
0.101575 0.00622316 0.13462
0.100239 0.00594657 0.0557876
0.100233 0.00590472 0.0440699
0.100217 0.0058026 0.015485
0.100211 0.00576274 0.00432599
0.100199 0.00568463 -0.0175382
0.100187 0.00560862 -0.0388178
0.100175 0.00553461 -0.0595357
0.100405 0.00546078 -0.0799391
0.10076 0.00538796 -0.0999256
0.101107 0.00531705 -0.119386
0.101773 0.00518069 -0.15681
0.10225 0.00508293 -0.183642
0.102483 0.00503542 -0.196682
0.105845 0.00468795 -0.290232
0.116561 0.00427175 -0.39501
0.0747152 0.00431148 -0.429424
0.0479004 0.0044156 -0.429466
0.0269234 0.00449706 -0.429499
0.103792 0.00794667 -0.270075
0.132446 0.0162191 0.37184
0.128444 0.0101237 -0.363349
0.135016 0.0215252 0.437306
0.112299 0.0206298 0.329088
0.0904059 0.0208891 0.329451
0.0679559 0.021155 0.329823
0.0963189 0.0202297 0.274396
0.0927715 0.0185426 0.113207
0.0925938 0.0183459 0.0946696
0.116585 0.012984 -0.379248
-0.0489552 0.0143752 -0.429618
-0.0907494 0.0148621 -0.429684
0.134681 0.0251901 0.351602
0.0507264 0.0262103 0.338101
0.0920205 0.0193617 -0.139511
0.0956996 0.0181376 -0.22891
0.058152 0.0181296 -0.270368
0.0437012 0.0184068 -0.264943
0.132693 0.0150467 -0.424493
0.0973527 0.0153504 -0.439771
0.0735061 0.0156772 -0.44078
0.0545629 0.0159392 -0.441401
0.0280023 0.0163082 -0.442139
0.0070408 0.0166007 -0.442627
-0.00741106 0.0168027 -0.44294
-0.029888 0.0171175 -0.443375
-0.0695114 0.0176736 -0.444052
-0.115216 0.0182892 -0.446806
0.134987 0.0308166 0.419494
0.134957 0.030546 0.401997
0.112472 0.0300422 0.345005
0.0903177 0.0304262 0.345695
0.0323476 0.0314316 0.347533
0.00807256 0.0318526 0.348303
0.0843852 0.0262165 0.0674587
0.084391 0.0258506 0.0438448
0.0847186 0.0254842 0.020544
0.0850371 0.025128 -0.00210559
0.0169854 0.0224694 -0.247785
0.133788 0.0190211 -0.343337
0.126092 0.0182247 -0.403123
0.130889 0.0175132 -0.443843
0.0721812 0.0356446 0.356031
0.0487692 0.0361174 0.357017
-0.0125666 0.0373561 0.359595
0.0823837 0.0330135 0.219915
0.081778 0.0325384 0.192671
0.081336 0.0321908 0.172746
0.0809032 0.0318507 0.153242
0.0805498 0.0315148 0.134062
0.0864272 0.0259487 -0.170981
0.087388 0.0256047 -0.18918
0.0905607 0.0244696 -0.249245
0.0566877 0.0252618 -0.241766
0.0418735 0.0256572 -0.23576
0.0128222 0.0262747 -0.232818
-0.00573719 0.0265549 -0.237333
-0.0454761 0.0235849 -0.446746
0.131238 0.0408719 0.443722
0.104425 0.0398792 0.365539
0.0280815 0.0416467 0.369742
0.0094887 0.0420772 0.370771
-0.0321231 0.0431235 0.377153
-0.0547609 0.0437166 0.381807
-0.0563406 0.0431334 0.351296
-0.0276607 0.0413103 0.292492
-0.0272791 0.040687 0.262133
-0.027313 0.0402459 0.240321
-0.0273568 0.0396725 0.211964
-0.027389 0.0392531 0.19122
-0.0274206 0.0388424 0.170911
0.0774719 0.0327382 -0.0163369
0.0804319 0.0307605 -0.110756
0.0852458 0.0286689 -0.20878
0.0484914 0.0291734 -0.223861
-0.00871652 0.0304536 -0.222897
-0.0280517 0.03062 -0.235714
-0.0879846 0.0276644 -0.44684
0.127237 0.0451226 0.41473
-0.0561956 0.0502813 0.443039
-0.0562385 0.0496985 0.417248
-0.0562667 0.0493174 0.400383
-0.0274547 0.0429628 0.151026
-0.0274848 0.0425225 0.131545
-0.0275145 0.0420912 0.112459
-0.027553 0.0415295 0.0876055
-0.0275812 0.041118 0.0693963
-0.0276179 0.0405818 0.0456715
-0.0276359 0.0403189 0.0340394
-0.0276799 0.0396764 0.0056085
-0.0276971 0.039425 -0.00551182
-0.0277309 0.0389318 -0.027335
0.0315516 0.0334826 -0.203549
0.00716597 0.0340794 -0.203716
-0.0279816 0.0352897 -0.188491
-0.0280156 0.0347965 -0.210315
-0.0277734 0.0423674 -0.0538568
-0.0278059 0.041852 -0.0744939
-0.0278377 0.0413489 -0.0946348
-0.0278684 0.0408577 -0.114298
-0.0278981 0.0403781 -0.133499
-0.0279343 0.0397942 -0.156876
0.133689 0.0302333 -0.36315
-0.0279815 0.0563299 0.308179
-0.0280883 0.0408656 -0.256243
-0.0133669 0.0352069 -0.44672
-0.105873 0.0379609 -0.446865
-0.13367 0.0387885 -0.446908
-0.0562949 0.0641524 0.375548
-0.0563365 0.0634312 0.351291
-0.0272292 0.0607208 0.291965
-0.0272769 0.0598336 0.26213
-0.0273117 0.0591851 0.24032
-0.0273578 0.058342 0.211965
-0.0273918 0.0577253 0.191223
-0.0274456 0.0567258 0.157611
-0.027475 0.0561424 0.137994
-0.0280048 0.045913 -0.206002
0.0866019 0.0350332 -0.446566
-0.0706058 0.0401206 -0.44681
-0.0561956 0.0714524 0.443039
-0.0562337 0.0706238 0.417241
-0.0562569 0.0700818 0.40037
-0.0275007 0.0600164 0.118774
-0.02753 0.0594117 0.0999449
-0.0275602 0.0588192 0.0814933
-0.0275995 0.0580473 0.0574559
-0.0277381 0.0551516 -0.0327067
0.133103 0.0381821 -0.385214
-0.0276335 0.0615392 0.0340372
-0.0276778 0.0605585 0.00560659
-0.0276945 0.0601749 -0.00551409
-0.027772 0.0585074 -0.053858
-0.0278049 0.0577955 -0.0744948
-0.0281156 0.0508367 -0.276229
0.132408 0.039382 -0.4331
0.118332 0.0394474 -0.446519
-0.0575203 0.0474384 -0.40657
-0.0278346 0.0610386 -0.0946373
-0.0278644 0.0603135 -0.114301
-0.0278937 0.0596055 -0.133502
-0.0279319 0.0587436 -0.156877
-0.0279608 0.0580718 -0.175097
-0.0280547 0.0558367 -0.235712
-0.0281432 0.0536251 -0.295686
0.130289 0.0432089 -0.405328
-0.0574626 0.052095 -0.369009
-0.0574922 0.0513302 -0.389748
-0.0563118 0.0846828 0.37557
-0.05634 0.0837296 0.351295
-0.0272082 0.0807505 0.307221
-0.0272325 0.0801518 0.291969
-0.0272797 0.0789807 0.262133
-0.0273143 0.0781246 0.240323
-0.0565097 0.0575466 -0.314803
-0.0573944 0.057159 -0.325622
-0.0574419 0.0560124 -0.354836
-0.0575555 0.0530835 -0.42945
-0.0273565 0.0816787 0.211963
-0.0273884 0.0808151 0.19122
-0.0274208 0.0799697 0.170911
-0.027503 0.0777993 0.118776
-0.105867 0.0577662 -0.446867
-0.13366 0.0590253 -0.446912
-0.0274522 0.0836641 0.151024
-0.0275306 0.0814161 0.0999456
-0.0275593 0.080604 0.0814923
-0.0275974 0.0795461 0.0574539
-0.0276344 0.0785156 0.034038
-0.0277377 0.0755781 -0.0327071
-0.0280841 0.06574 -0.256246
-0.037649 0.0635159 -0.317104
-0.0706033 0.0593783 -0.446811
-0.0879879 0.0602109 -0.446839
-0.0276775 0.0814407 0.00560635
-0.0276942 0.0809247 -0.00551438
-0.0277706 0.0786821 -0.0538592
-0.0278028 0.0777248 -0.0744964
-0.0280335 0.0708303 -0.22312
-0.0563951 0.103257 0.335458
-0.0272292 0.0995822 0.291965
-0.027278 0.0981274 0.262132
-0.0278328 0.0807284 -0.0946387
-0.0278643 0.0797695 -0.114301
-0.0278943 0.0788331 -0.133502
-0.0279306 0.0776931 -0.156878
-0.0279871 0.0759361 -0.192906
-0.0574554 0.0690713 -0.365493
-0.0273088 0.101798 0.240316
-0.0273539 0.100348 0.21196
-0.0273879 0.099287 0.191219
-0.0274212 0.0982485 0.170912
-0.0274738 0.0965649 0.137993
-0.0281177 0.0753787 -0.276228
-0.0281495 0.0743837 -0.295683
-0.0275007 0.100027 0.118774
-0.0275316 0.0990197 0.0999466
-0.0275619 0.0980322 0.0814949
-0.0280651 0.0806099 -0.243994
-0.0574992 0.0743299 -0.393145
-0.0575318 0.0732573 -0.413185
-0.05809 0.117709 0.321844
-0.0275959 0.101045 0.0574524
-0.027634 0.099736 0.0340377
-0.0276804 0.0981468 0.00560886
-0.0276977 0.0975252 -0.00551122
-0.0277387 0.0960047 -0.0327061
-0.0280214 0.0858356 -0.214607
-0.0575622 0.0754247 -0.432656
-0.105926 0.0775765 -0.446847
-0.134541 0.0793332 -0.446609
-0.0272785 0.117706 0.269523
-0.0277733 0.0988574 -0.053857
-0.027805 0.0976545 -0.0744946
-0.0382603 0.0841732 -0.316783
-0.057391 0.0848722 -0.325623
-0.0710219 0.0786717 -0.446658
-0.089261 0.0798463 -0.446381
-0.0272965 0.121175 0.247533
-0.0273307 0.119871 0.226036
-0.0273532 0.119017 0.21196
-0.0273864 0.117759 0.191218
-0.0274393 0.11572 0.157604
-0.0278351 0.100418 -0.0946369
-0.0278675 0.0992259 -0.114298
-0.0278967 0.098061 -0.1335
-0.0281004 0.0901262 -0.264302
-0.0274994 0.11781 0.118773
-0.0279329 0.100433 -0.156877
-0.0279623 0.0992843 -0.175096
-0.028053 0.0954626 -0.235713
-0.0573781 0.0925112 -0.314354
-0.0574397 0.0899591 -0.354837
-0.0575518 0.0892967 -0.365449
-0.124349 0.0930442 -0.378776
-0.0584797 0.136287 0.29919
-0.0274674 0.123512 0.137986
-0.0275271 0.121024 0.0999421
-0.0275565 0.119816 0.0814896
-0.0275949 0.118244 0.0574515
-0.0281283 0.0959013 -0.284073
-0.0281455 0.0951416 -0.295685
-0.0573944 0.0952651 -0.325622
-0.0948101 0.0947925 -0.37354
-0.0276301 0.120956 0.0340341
-0.0276756 0.119028 0.00560457
-0.027693 0.118275 -0.0055154
-0.0277351 0.116431 -0.0327093
-0.110267 0.10033 -0.359581
-0.125377 0.101649 -0.356593
-0.0569366 0.14489 0.282246
-0.0296057 0.14004 0.242987
-0.0273568 0.137687 0.211964
-0.0277684 0.119032 -0.053861
-0.0278003 0.117583 -0.0744984
-0.0273836 0.140848 0.191214
-0.0274166 0.139375 0.170907
-0.0274742 0.136987 0.137994
-0.0278316 0.120108 -0.0946396
-0.0278624 0.118681 -0.114302
-0.0280349 0.110786 -0.223119
-0.0281006 0.107798 -0.264302
-0.0573565 0.107585 -0.299057
-0.0908963 0.106796 -0.346413
-0.115571 0.109035 -0.342449
-0.0274971 0.140038 0.11877
-0.0275301 0.138627 0.0999451
-0.0278917 0.121133 -0.133504
-0.0279288 0.119382 -0.15688
-0.0279569 0.118016 -0.1751
-0.0568565 0.157887 0.259895
-0.0275558 0.141601 0.081489
-0.0275936 0.139743 0.0574502
-0.0276355 0.137933 0.034039
-0.0977432 0.115489 -0.33204
-0.0565124 0.160945 0.237726
-0.0276748 0.13991 0.00560385
-0.0276945 0.139025 -0.00551409
-0.0277543 0.13601 -0.0433486
-0.0280644 0.120019 -0.243994
-0.0417729 0.118 -0.284206
-0.0817224 0.117933 -0.328505
-0.125708 0.122227 -0.322572
-0.0565497 0.164004 0.216454
-0.0565698 0.16286 0.202515
-0.0565997 0.161173 0.181968
-0.0566322 0.159522 0.161845
-0.0277876 0.138355 -0.0642403
-0.0280195 0.126014 -0.214608
-0.0573275 0.122976 -0.283442
-0.0566635 0.162481 0.142129
-0.0567022 0.160312 0.116454
-0.0278164 0.140643 -0.0846297
-0.0278503 0.138963 -0.104527
-0.0567247 0.163736 0.103876
-0.0567605 0.161594 0.0792034
-0.0567983 0.159507 0.0551713
-0.027878 0.14119 -0.123959
-0.0279088 0.139542 -0.142934
-0.0279309 0.138332 -0.156878
-0.0279719 0.135972 -0.184054
-0.0307415 0.12939 -0.262741
-0.0554875 0.13158 -0.264486
-0.0573464 0.129085 -0.295186
-0.0827892 0.12996 -0.312806
-0.103437 0.132143 -0.310182
-0.0572913 0.177162 0.203297
-0.0568178 0.162826 0.0433873
-0.0568523 0.160763 0.020264
-0.0280517 0.135088 -0.235714
-0.0583527 0.178966 0.170319
-0.0568892 0.162986 -0.00227803
-0.0569134 0.16147 -0.0188202
-0.0569476 0.159494 -0.0404018
-0.122233 0.142479 -0.296886
-0.0616191 0.181771 0.147174
-0.0593843 0.180106 0.131917
-0.0570932 0.176095 0.0917954
-0.0569803 0.161657 -0.0614621
-0.0570125 0.159726 -0.0820187
-0.0280097 0.145086 -0.205998
-0.051991 0.144162 -0.241904
-0.0581344 0.178402 0.0683767
-0.0571169 0.17591 0.0436594
-0.057044 0.161836 -0.10209
-0.0570744 0.159947 -0.121693
-0.0573091 0.145513 -0.27151
-0.0768697 0.145533 -0.292581
-0.0995184 0.148296 -0.288596
-0.123265 0.1512 -0.284342
-0.0577418 0.177521 0.0153478
-0.0571458 0.175735 -0.00205743
-0.0571046 0.162006 -0.140843
-0.0571335 0.160158 -0.159557
-0.0351957 0.155419 -0.183609
-0.0547946 0.154023 -0.219048
-0.0636185 0.148165 -0.287887
-0.0583449 0.178526 -0.017616
-0.0570773 0.175015 -0.0509047
-0.0571625 0.162168 -0.177849
-0.057197 0.159914 -0.200141
-0.0572581 0.156011 -0.238744
-0.1043 0.157624 -0.274001
-0.0611838 0.18131 -0.0736767
-0.0581893 0.178043 -0.101231
-0.0572278 0.165599 -0.217532
-0.0760563 0.162735 -0.265021
-0.120934 0.169228 -0.252615
-0.059922 0.180254 -0.119619
-0.0581303 0.17782 -0.140118
-0.0647935 0.1657 -0.259155
-0.0939508 0.17004 -0.250845
-0.10939 0.177548 -0.23361
-0.0620005 0.181694 -0.17916
-0.0590149 0.179084 -0.198974
-0.0645957 0.175291 -0.238553
-0.0857316 0.178833 -0.230255
