ply
format ascii 1.0
comment Created by Open3D
element vertex 1666
property double x
property double y
property double z
end_header
0.0271499 0.147264 0.411543
0.00768566 0.166151 -0.411543
0.178873 0.165919 0.00022838
-0.162187 0.137178 0.41009
-0.0775955 0.182908 0.390127
-0.0677824 0.137178 -0.259912
-0.0524261 0.137178 -0.0244738
0.0166541 0.182908 -0.398506
-0.0806307 0.0133969 0.299024
0.120742 0.0196319 -0.270365
0.0335728 -0.182908 0.225173
-0.0864359 0.137178 0.319246
0.0539108 0.137178 -0.102125
-0.0640722 -0.182908 0.279604
-0.081587 0.0442545 0.29158
-0.0790852 -0.182908 -0.281157
-0.0206218 0.137178 0.0820621
-0.0722188 -0.182908 -0.270886
0.115371 -0.0708483 -0.295312
-0.217203 0.151948 -0.38631
-0.189219 0.182908 0.314289
0.117326 -0.0379268 -0.286233
-0.120702 0.182908 0.00551798
0.0255576 0.182908 0.0241972
-0.170669 0.137178 0.0320649
0.104266 -0.169189 0.322944
-0.0836708 0.137178 0.0377511
0.0882087 0.153199 0.00022838
-0.0448334 0.137178 -0.203665
0.140717 0.182908 -0.227965
0.007314 0.137178 0.321052
0.108702 -0.0145378 -0.270202
0.0718053 0.182908 0.398195
-0.217203 0.138329 -0.0190844
0.103654 0.17523 -0.000228891
-0.103197 -0.0666844 0.311628
-0.0680973 0.0673999 -0.277535
-0.042424 0.137178 -0.0131768
-0.208341 0.137178 -0.311238
-0.189479 0.137178 -0.335364
0.111734 -0.0225098 -0.289183
0.0365452 0.182908 0.184618
0.0831393 0.0906365 0.305056
-0.104337 -0.0786104 -0.291174
0.0924341 0.100563 -0.27617
0.108501 0.169547 0.411543
0.209668 0.137178 0.352775
-0.0533579 0.154127 0.00022838
0.195127 0.182908 0.352442
0.202925 0.137178 0.383768
-0.106007 0.182908 -0.0835695
-0.00894868 0.182908 0.074472
-0.0814592 0.126525 0.274634
0.09106 0.182908 -0.182685
-0.0186677 0.137178 0.281286
0.109633 -0.0119813 -0.289296
0.217203 0.178651 -0.160734
-0.167983 0.13758 0.411543
-0.0251596 0.137178 0.252775
0.0850301 0.137178 0.292839
-0.0932353 0.137178 -0.237626
-0.142429 0.182908 0.0233456
-0.136395 0.182908 0.014905
0.182626 0.182908 0.0502742
0.180936 0.182908 0.23452
-0.20597 0.137178 -0.0439436
-0.105288 0.182908 -0.282683
-0.0173432 -0.182908 0.224272
-0.0953328 0.121338 0.281105
0.0647317 0.137178 -0.156015
-0.217203 0.15339 0.0829246
-0.0976834 -0.0137031 0.286174
-0.10925 0.137178 -0.0218665
-0.0659295 0.137204 -0.276277
-0.00278167 0.137178 0.159406
-0.172968 0.17195 -0.000228891
-0.14975 0.137178 0.202601
0.14259 0.137178 0.272728
0.118782 0.182908 -0.217361
0.118765 -0.145194 -0.28651
0.176934 0.15483 -0.000228891
-0.173908 0.182908 -0.253648
-0.108613 -0.0902942 0.310661
0.0309497 0.137178 0.219941
-0.150381 0.137178 0.0699633
-0.171494 0.137178 0.252587
0.215616 0.182908 -0.0195726
-0.00939603 0.137178 0.141529
0.0985949 0.182908 -0.34451
0.165563 0.137178 -0.0390756
0.140216 0.140143 -0.000228891
0.0354735 0.137178 0.0565712
0.169624 0.158367 -0.411543
0.0212301 -0.182908 0.216656
-0.217203 0.182446 -0.361312
-0.166378 0.182908 0.219666
0.065996 -0.169189 -0.247535
0.0421792 -0.182908 0.245803
-0.00959938 0.182908 -0.119088
-0.0121065 0.137178 0.0392968
0.186222 0.182908 -0.330212
-0.0860553 -0.0647478 -0.286391
-0.018246 0.137178 0.0111862
0.113694 -0.14341 -0.291747
0.0127938 0.137178 -0.374471
0.0696176 0.182908 -0.0228297
-0.136868 0.182908 0.283519
-0.209735 0.137178 -0.325607
-0.0423845 0.182908 -0.301502
-0.217203 0.143064 0.0869918
0.110518 0.182908 0.348205
0.114386 0.137178 0.36873
0.00666849 0.177347 -0.000228891
0.11653 0.0523041 -0.268163
0.100349 -0.0366186 0.321446
0.0476346 0.182908 0.144041
0.116631 -0.0184899 -0.28292
-0.123033 0.182908 0.365362
-0.0115581 0.137178 0.0901659
-0.051333 0.137178 0.313852
-0.0416166 0.137178 0.324202
0.160989 0.137178 0.362937
0.0328342 0.182908 -0.193943
0.124288 0.137178 0.157369
-0.175217 0.182908 0.240351
0.134556 0.137341 0.00022838
-0.0260044 0.182908 0.402325
0.119297 0.00477452 -0.263466
-0.0911488 0.182908 -0.0222791
-0.00323269 0.137178 0.0937022
0.125547 0.182908 0.200406
-0.128373 0.137178 -0.219167
0.0500692 0.137178 -0.23959
-0.217203 0.139671 0.403716
0.14422 0.14313 0.00022838
-0.0304607 0.182908 -0.122822
0.0167074 0.137178 0.0319365
0.00147536 0.147792 -0.000228891
-0.0197152 0.182908 0.400062
0.0883352 0.182908 0.119141
0.0324976 0.137178 0.324458
-0.094951 0.182908 0.409171
-0.107565 0.182908 0.0796468
-0.211806 0.137178 -0.100642
-0.1485 0.137178 0.0210873
0.191006 0.182908 0.188664
0.0336659 -0.182908 -0.221194
0.191695 0.178966 -0.000228891
-0.046849 0.137178 -0.278256
-0.168452 0.137178 -0.205883
-0.112496 -0.182908 0.316994
0.0550746 0.142879 0.411543
0.143092 0.148228 0.00022838
-0.0905713 0.182908 0.0302126
-0.183825 0.182908 -0.0967953
0.0475858 0.182908 0.0339756
0.211345 0.137178 -0.120426
0.0876034 0.182908 -0.301319
-0.135386 0.182908 0.280031
-0.150711 0.137178 0.14677
0.00384488 0.137178 0.165787
0.0608633 0.182908 0.317639
-0.0803821 0.134191 0.27421
-0.187541 0.137178 0.110604
0.155999 0.182908 0.170409
0.0974039 0.137178 -0.159218
0.160334 0.182908 0.273172
0.0446085 0.182908 0.0853993
-0.0203888 0.182908 -0.290474
-0.10809 0.182908 0.299824
-0.137844 0.182908 -0.237116
0.149217 0.137178 -0.25156
-0.0854567 0.182908 -0.039726
-0.0703767 0.182908 -0.189602
-0.217203 0.150281 -0.391785
-0.0844316 -0.0319414 0.30534
-0.105228 0.137178 0.0802874
-0.0673864 0.0305646 -0.285171
-0.0703185 0.137178 -0.0782205
-0.217203 0.150723 -0.258469
-0.0693983 0.137178 -0.355585
-0.081013 0.145937 0.00022838
0.0890537 0.182908 0.373877
0.0420018 0.182908 -0.244479
-0.217203 0.161697 -0.0260105
0.124477 0.137178 0.222245
-0.000923522 0.176749 0.411543
-0.0298669 0.137178 -0.0997917
-0.0907515 0.137178 -0.345166
-0.15502 0.182908 -0.388597
-0.133523 0.137178 -0.222619
-0.137908 0.182908 -0.403868
0.208229 0.182908 -0.224082
-0.217203 0.172751 0.0473596
0.192243 0.15471 0.00022838
-0.15642 0.182908 -0.145099
-0.0771248 0.0340878 0.298526
0.217203 0.144926 -0.0338435
-0.157749 0.182908 -0.329231
0.170366 0.182908 0.11873
0.00758074 0.137178 -0.221021
0.0306712 0.182908 0.246315
0.0860995 0.137178 -0.270068
0.110572 0.143938 -0.000228891
0.0883902 0.137178 0.154608
0.171268 0.137178 0.125374
0.197467 0.137178 -0.24473
0.170945 0.137178 -0.252358
-0.0172361 0.137178 -0.303349
-0.0193188 0.182908 0.140632
0.0709606 0.137178 0.269571
-0.000700943 0.182908 0.318599
0.176116 0.137178 -0.224856
-0.119475 0.175687 -0.411543
-0.0691961 0.137178 0.282472
-0.0879864 0.137178 0.0649019
0.155305 0.182908 0.0619008
-0.190409 0.182908 0.193931
0.0994921 0.114586 -0.273932
0.0111582 0.137178 0.3292
-0.194852 0.137178 0.160661
0.130808 0.182908 0.246649
-0.0704516 0.137178 -0.0292217
0.108976 0.137178 -0.0870991
-0.0509988 0.182908 -0.265826
-0.0857518 -0.131084 -0.306103
0.0486405 0.142755 0.00022838
0.112559 0.182908 0.320887
0.156456 0.137178 0.189578
-0.0615471 0.182908 0.238483
0.206778 0.137178 0.318618
0.00709683 0.137178 0.0644592
-0.065943 0.0834379 -0.276438
-0.198043 0.182908 0.181215
0.137172 0.137178 -0.041107
0.188092 0.182908 -0.300772
0.0944228 0.137178 -0.156639
-0.097724 0.182908 -0.227984
-0.0822189 -0.179561 -0.261276
-0.0178915 0.137178 0.047137
-0.013316 -0.169189 0.23031
0.0307524 0.182908 -0.112355
-0.076546 0.137178 -0.0558617
0.055796 0.182908 0.377884
0.0961135 0.137178 -0.0272814
-0.182451 0.182908 -0.124555
-0.111752 -0.135434 -0.293952
0.180084 0.137178 0.0141685
-0.217203 0.144162 0.202363
-0.111782 0.182908 0.201505
0.121686 0.00343343 -0.265625
-0.217203 0.162107 -0.120334
0.120424 -0.182908 0.315717
-0.0518708 0.137178 0.145587
0.113436 -0.106538 0.322769
0.217203 0.144882 -0.248843
-0.105592 0.182908 -0.21769
0.12881 -0.140775 0.31514
0.0152034 0.182908 -0.346289
0.19012 0.137178 0.229852
0.100671 0.182908 0.0733625
0.0396472 0.137178 0.265118
0.000251889 0.137178 -0.330391
-0.120793 0.182908 0.204305
0.0226261 0.182908 -0.0686158
-0.0492373 0.137178 0.33461
-0.0288139 0.182908 -0.293575
0.0514123 0.137178 -0.019967
0.0561623 0.137178 0.221615
-0.107863 -0.0675543 0.28963
0.0876723 0.137178 0.0301651
-0.0991343 0.182908 0.0578558
0.0203137 0.156145 -0.000228891
0.00838744 0.182908 0.250429
-0.148171 0.182908 -0.100794
0.130018 0.141613 0.411543
-0.0883105 0.137178 -0.366707
-0.17261 0.137178 0.159208
0.0765308 0.137178 0.201861
0.149851 0.182908 0.236219
-0.0827889 -0.182792 0.303824
0.163411 0.137178 -0.385581
0.082558 0.0803902 0.304427
0.121359 0.182908 0.0670338
-0.119528 0.137178 0.34508
0.137205 0.18286 -0.000228891
-0.044156 0.182908 -0.185914
-0.134886 0.137178 0.355758
0.0284681 0.182908 -0.123294
-0.181925 0.167359 -0.000228891
0.102236 0.0600586 0.285295
0.0198455 0.182908 -0.206827
-0.172993 0.182908 -0.084511
0.0755101 0.182908 0.220018
0.0625532 0.182908 0.125244
-0.0632917 0.153491 0.00022838
-0.0929701 0.166348 0.411543
0.0242673 0.182908 -0.341535
0.183864 0.182908 0.266523
-0.137154 0.162364 0.411543
-0.110128 0.182908 -0.162482
-0.156247 0.137178 -0.129113
0.0114694 0.137178 0.0192582
-0.127294 0.137178 -0.22981
-0.156847 0.137178 -0.341502
0.114917 0.182908 -0.158946
0.132526 0.182908 0.0678132
-0.172984 0.182908 0.110712
0.189437 0.150609 0.411543
0.217203 0.154838 -0.209806
0.083273 0.137178 -0.0234414
-0.185881 0.137178 -0.107705
-0.102758 -0.0995159 0.318921
-0.109894 -0.126137 -0.291897
0.0125295 0.137178 0.219303
0.217203 0.139787 0.0759279
-0.0876633 0.0505441 -0.2673
-0.0813446 -0.0980452 -0.301227
0.150486 0.137178 -0.0970792
-0.00538217 0.137178 -0.205096
0.0188804 0.182908 0.128338
-0.209526 0.137178 -0.223179
0.056737 0.182908 0.398527
0.197024 0.137178 0.205727
-0.211323 0.137178 0.216136
-0.106281 0.139192 0.00022838
0.182248 0.137178 -0.0615107
-0.0307806 0.152282 0.411543
-0.0655444 0.182908 -0.0244403
0.125097 0.182908 0.36551
0.0760609 0.124528 0.297387
0.200647 0.182908 -0.115554
0.117308 0.137178 -0.270568
-0.104957 0.173669 0.00022838
-0.030237 0.182908 -0.0620321
-0.00332037 0.182908 -0.134862
0.203618 0.137178 0.154037
0.0637298 0.137178 0.35987
-0.0369441 0.182908 -0.294564
-0.0239247 0.158491 -0.411543
-0.0130428 0.182908 -0.339705
0.0179692 0.137178 0.0794723
-0.0471328 0.137178 0.0369636
0.0347933 -0.169189 -0.215489
-0.0673133 0.137178 0.323541
0.0775897 0.182908 -0.36511
0.1089 0.137178 -0.169325
0.11177 0.182908 0.200108
0.160554 0.137178 -0.118564
0.148787 0.137178 0.410356
-0.0971823 0.137178 -0.304274
-0.0710844 0.137178 -0.0961873
-0.116766 0.137178 0.0334924
-0.110561 0.137178 -0.367206
-0.217203 0.159831 -0.213972
0.0566753 0.137178 0.26452
0.0807562 0.182908 0.228504
-0.204616 0.137178 0.260695
-0.0169708 0.153199 0.00022838
-0.000457128 0.182908 -0.0237953
0.173199 0.182908 -0.297759
-0.190318 0.137178 0.223663
-0.182203 0.137178 -0.16186
-0.0939048 -0.0127247 0.290065
-0.00943225 0.182908 0.0105521
0.094633 0.00357107 0.31751
-0.0200661 0.149102 -0.411543
-0.217203 0.150089 -0.354628
0.0531296 0.137178 0.148288
0.0259178 0.182908 -0.237769
0.0749003 0.182908 -0.138411
-0.14954 0.137178 0.0961039
-0.208659 0.137178 -0.0831283
-0.0746616 0.0990602 0.287703
-0.185636 0.154646 -0.000228891
-0.149927 0.137178 -0.125232
-0.0320703 0.182908 -0.202853
-0.0384851 0.182908 0.165667
0.0582579 0.137178 -0.279697
0.136549 0.137178 0.252652
0.217203 0.151942 -0.0341802
-0.0201126 0.137178 -0.321923
-0.20977 0.182908 0.118599
-0.0893988 -0.0476078 0.309924
0.183033 0.182908 0.151792
0.0593914 0.176327 0.00022838
0.166773 0.182908 0.148899
0.000268266 0.182908 -0.153659
0.164063 0.182908 0.304083
0.00445671 0.137178 -0.209008
0.128454 0.182908 0.247378
-0.216134 0.137178 -0.378598
0.00660576 0.182908 0.236745
0.0945089 0.17727 0.00022838
0.156292 0.182908 0.37944
0.0270684 0.137178 0.03593
0.0948653 -0.0548071 0.317763
0.12328 0.137178 0.0581046
0.114009 0.0193866 0.298106
0.114653 0.137541 0.00022838
0.0660767 0.137178 0.222108
0.0919541 0.0021641 0.314608
0.0665245 -0.173045 0.2466
0.066832 0.178367 0.411543
-0.14221 0.137178 0.238025
-0.213379 0.163931 -0.411543
-0.159363 0.182908 -0.404205
0.118623 0.182908 -0.255793
0.0791287 0.146905 -0.411543
0.0104902 0.155681 -0.411543
0.0354569 0.182908 0.315288
0.0184395 0.182908 0.314658
-0.0689469 0.0347793 -0.287509
0.0830432 0.182908 0.0487225
0.1782 0.14427 -0.000228891
0.0434359 0.137178 0.0377167
0.0509519 0.137178 0.0385196
0.21289 0.182908 0.279544
-0.0462666 0.137329 -0.411543
0.0971077 0.137178 0.38754
0.110848 0.182908 0.222245
0.207733 0.137178 -0.23972
-0.126953 0.137178 0.00531133
-0.216289 0.137178 -0.300215
-0.217203 0.142448 0.255729
0.0461888 0.182908 0.370095
-0.200777 0.137178 -0.0827602
-0.0850025 0.0897118 0.298865
-0.0522022 -0.182908 0.256451
0.0348077 0.182908 -0.0164351
-0.163935 0.182908 -0.346299
-0.090707 -0.0137766 -0.291185
0.0527359 0.182908 -0.368911
-0.083711 0.182908 0.356535
-0.0894125 0.182908 0.287663
-0.029908 0.137178 0.385978
-0.16312 0.182908 -0.406738
-0.0558371 0.182908 -0.183011
0.164056 0.182908 -0.300745
0.0654884 0.17839 -0.000228891
0.128637 0.137178 0.0755392
-0.217203 0.162664 -0.0894534
-0.203461 0.182908 -0.100838
0.0601268 0.137178 -0.119556
0.119311 0.182908 0.254501
-0.213429 0.182908 -0.0979181
0.0983478 0.135546 -0.250135
0.108148 0.0737027 0.293105
-0.155705 0.182908 -0.130358
-0.169261 0.167492 0.411543
0.0609344 0.156895 -0.000228891
-0.0507825 0.137178 0.0960281
-0.111038 0.182908 -0.247679
0.0711498 -0.169189 -0.245758
-0.200845 0.137178 -0.391573
-0.0261092 0.137178 0.063065
-0.0352234 0.137178 0.0848
0.0319841 0.137178 -0.13836
-0.155666 0.182908 -0.251121
-0.119835 0.137178 -0.369263
0.143415 0.182908 0.137143
0.0260291 0.158436 0.411543
0.118821 0.157599 0.411543
0.0265767 0.182908 0.372051
0.127393 -0.124002 -0.272513
-0.0871783 -0.0466323 -0.281937
-0.0494891 0.182908 -0.151362
0.1663 0.152674 -0.411543
-0.0835513 0.146427 0.411543
-0.163079 0.182908 -0.19295
-0.0340636 0.182908 0.133537
-0.051546 0.137178 -0.290088
0.191159 0.182908 0.410851
0.117517 0.0058368 -0.27683
-0.164597 0.137178 -0.0621546
0.138943 0.137178 0.171611
0.217203 0.145644 0.139197
-0.02141 0.182908 0.268389
-0.209553 0.137178 0.171534
-0.217203 0.14863 0.312145
0.164185 0.182908 -0.200836
-0.0815071 0.182908 -0.104256
0.182421 0.137178 -0.312922
0.0418696 0.137178 -0.0269722
0.171479 0.137178 -0.388039
0.206574 0.182908 0.206283
0.000645887 0.137178 -0.206326
-0.100834 -0.0233286 -0.283845
-0.217174 0.168639 0.00022838
0.212346 0.182908 0.149138
-0.0835342 0.137178 -0.0437789
-0.179831 0.182908 0.370315
0.186312 0.182908 -0.234481
-0.0663772 0.137178 -0.256598
0.0965868 0.053083 -0.269404
0.16063 0.137178 0.392697
0.198243 0.137178 0.0473993
-0.00637404 0.182908 0.242949
-0.13192 0.182908 0.235643
-0.20523 0.182908 0.110632
0.129295 0.182908 0.149288
-0.0868019 0.137178 -0.0609326
0.207898 0.182908 -0.013373
0.0765791 -0.169444 0.297949
-0.105474 0.137178 0.196673
-0.0451376 0.177246 0.00022838
-0.217203 0.151533 0.269961
-0.109808 0.182908 0.194675
0.124739 0.137178 0.341368
0.0921974 0.182908 0.0213455
-0.0069399 0.182908 0.342835
-0.144735 0.137178 0.341932
0.195701 0.137178 0.341676
0.0336871 0.137178 0.0233205
0.210487 0.137178 -0.10088
0.107287 0.137178 -0.0869983
-0.149564 0.182908 -0.39188
0.190958 0.137178 0.0348413
0.110196 0.137178 0.277371
0.102218 0.136119 -0.266394
-0.142123 0.137178 0.173701
0.172015 0.137178 -0.32916
0.196572 0.182908 -0.0789624
-0.110617 0.182908 0.288535
-0.0963156 0.00835548 0.303501
0.10197 -0.0494146 0.322402
0.0579156 0.137178 -0.370259
-0.18239 0.182908 -0.173201
-0.107838 -0.182908 -0.304096
0.217203 0.138036 -0.160507
0.13522 0.182908 -0.234916
0.0842802 0.137178 0.332997
0.071082 0.137178 0.0229895
0.184973 0.137178 0.276605
0.134489 -0.171886 -0.295381
-0.180471 0.175028 -0.411543
0.111406 0.11763 -0.260112
-0.101901 0.0180231 0.295441
-0.0484738 0.154073 0.00022838
0.204518 0.137178 -0.114652
0.214644 0.137178 0.344462
-0.025527 0.182908 -0.197316
0.00983128 0.137178 -0.254631
-0.153744 0.137178 -0.263547
-0.079853 0.0663718 0.301114
-0.0439634 0.182908 0.203914
0.0549191 0.160827 0.411543
0.149891 0.137178 -0.258509
0.0912402 0.137178 0.101586
-0.153388 0.137178 -0.212139
-0.217203 0.163588 -0.374692
-0.127968 0.182908 -0.209021
-0.217203 0.16464 -0.275776
0.131564 0.137178 0.379073
0.0128738 0.182908 -0.212842
0.0389837 0.182908 0.249416
-0.175995 0.14994 0.00022838
-0.100824 -0.144548 0.320468
0.134877 -0.11338 -0.277547
0.000232305 0.182908 0.153034
0.0410105 0.182908 0.224115
-0.0243661 0.137178 -0.0640448
0.208265 0.158575 0.411543
0.0990542 0.182908 0.106824
0.120407 0.137178 0.40644
-0.120938 0.137178 -0.0859456
-0.139862 0.182908 -0.0645378
-0.12572 0.137178 0.000115134
-0.195054 0.182908 -0.3111
-0.217203 0.150923 0.00972956
0.14616 0.137178 -0.404082
-0.113375 0.182908 0.279169
-0.0930266 0.132025 0.275937
-0.0996882 0.021806 0.282085
0.0874164 0.124959 0.302415
0.102124 0.0719878 0.285173
0.117343 0.137178 -0.105138
-0.0141322 0.137178 0.358035
0.173497 0.137178 0.0136012
-0.100631 0.137178 -0.0603171
0.169762 0.137178 -0.181159
0.0869077 0.137178 0.404669
0.120865 -0.182908 -0.299449
-0.186098 0.182908 -0.0516477
-0.170005 0.137178 -0.390946
-0.0696855 0.182908 0.34065
-0.190979 0.141461 0.411543
0.0182347 0.137178 -0.145616
-0.142154 0.182908 -0.0320021
-0.0805484 -0.182908 -0.273648
-0.0263122 0.182908 0.299728
-0.0276127 0.182908 -0.0107662
0.0208016 0.182908 -0.400141
0.0674474 0.182908 -0.277269
-0.0715524 0.058776 -0.27605
0.0746377 -0.181452 0.255391
-0.0423017 0.173644 -0.000228891
-0.208113 0.182908 -0.222973
0.0786044 0.175507 0.00022838
0.0520103 0.182908 -0.332791
0.213464 0.182908 -0.0448123
-0.178867 0.182908 0.256321
-0.140702 0.182908 0.00646853
-0.118665 0.137178 0.237191
-0.19374 0.137178 0.103503
0.169272 0.137178 0.160593
0.0706926 0.139762 -0.411543
-0.00329673 0.137178 0.0371252
0.164787 0.137178 0.0934321
-0.178064 0.182908 -0.10656
-0.126712 0.137178 0.343413
-0.144863 0.137178 -0.214854
-0.0499627 0.182908 -0.155643
-0.0158043 -0.178512 0.20467
0.179511 0.137178 -0.155463
0.093382 0.182908 -0.400189
-0.0936825 0.137178 0.394537
-0.104269 -0.154934 -0.305723
-0.0792663 0.182908 -0.0958158
-0.149118 0.173458 0.411543
-0.195621 0.137178 -0.0729565
-0.115091 0.168229 -0.000228891
0.127776 -0.0777806 -0.271129
-0.101803 0.182415 0.00022838
0.161142 0.137178 0.264547
-0.0690157 0.101271 -0.270276
-0.0854711 -0.0806891 -0.289945
0.0896524 -0.0208132 0.312114
0.0461268 0.18141 0.411543
0.0989851 -0.114807 0.322227
0.024206 0.137178 0.36845
0.213592 0.137178 -0.33896
0.111868 0.104021 -0.256752
-0.0641265 0.137178 0.198276
0.172312 0.137178 -0.309329
-0.143904 0.182908 -0.351535
-0.0503904 0.182908 0.34243
0.0122476 0.137178 -0.21827
0.126136 -0.040625 -0.269648
0.0887666 0.182908 0.358386
0.0633375 0.182908 0.18079
0.16756 0.137178 0.300958
0.202531 0.137178 0.330214
0.00701939 0.182908 -0.342058
0.171923 0.156875 0.00022838
-0.159929 0.179434 0.00022838
-0.0987606 0.137178 -0.174825
0.0849561 0.182908 0.0597362
0.0378011 0.182908 -0.0629712
-0.133056 0.137178 -0.340986
-0.0819096 0.182908 -0.273268
0.0681996 0.182908 -0.205488
0.0490364 0.182597 -0.411543
0.013002 0.182908 0.276792
-0.101109 0.137178 -0.279903
-0.0577838 0.155472 0.00022838
-0.0596187 0.137178 0.35861
0.0934902 -0.0327913 0.30819
0.0346476 0.182908 -0.278513
0.217203 0.162347 -0.0103373
-0.0210733 0.137178 0.348127
0.0973024 0.182908 0.274357
0.0354744 0.182908 0.181308
0.0260817 -0.169189 -0.179987
0.133374 0.137178 -0.197366
0.0922819 0.116779 0.299492
0.0340536 0.137178 0.212218
0.00213166 0.137178 -0.386423
-0.15796 0.182908 0.179036
0.0697439 0.137178 -0.189683
0.0772198 0.137178 -0.173237
0.0327638 0.182908 -0.0271393
0.112259 0.182908 -0.100539
-0.0190188 0.137178 0.120997
0.0842321 0.137178 -0.104596
0.0899572 0.0813738 0.289572
-0.124128 0.182908 -0.165837
0.1822 0.137178 -0.328047
-0.138864 0.137178 0.0322209
-0.101473 0.182908 0.332629
0.0104824 0.182908 -0.0886413
-0.138034 0.137178 0.251121
0.156381 0.171864 0.411543
-0.0134717 0.137178 0.153071
0.0255878 0.182908 -0.258493
-0.0132003 0.137178 -0.189056
-0.0109486 0.182908 0.182034
-0.212082 0.137178 -0.407015
-0.114988 0.137178 -0.201496
0.100122 -0.026532 -0.282214
-0.143402 0.137178 -0.411538
-0.212219 0.182908 -0.187604
0.202149 0.137178 -0.356688
0.173472 0.182908 -0.122635
0.122524 0.137178 -0.141074
-0.11663 0.182908 0.246562
0.193369 0.137178 0.39519
-0.120979 0.182908 -0.315172
-0.0839036 0.182908 -0.179377
-0.0968935 0.141337 -0.411543
-0.0160462 0.137178 -0.0916019
-0.159608 0.137178 -0.0428486
-0.057918 0.137178 -0.106844
0.0806252 0.137178 0.171204
-0.0724839 0.182908 0.0314769
0.217203 0.153409 -0.406284
0.0331961 -0.182908 -0.198148
0.151103 0.137178 0.368604
-0.0657463 0.182908 0.0213115
0.00739347 0.137178 0.0981328
-0.0847678 -0.0469982 -0.302859
0.121215 0.137178 -0.00438938
-0.0591325 0.137178 0.323291
-0.217203 0.170285 -0.348224
-0.0457844 0.137178 0.198075
-0.089027 4.86523e-06 0.309581
0.0136125 0.137178 0.142937
-0.0268946 0.137178 -0.0916496
0.0225465 0.182908 -0.0649221
0.0575656 0.137178 0.273881
0.117823 -0.0652451 0.310805
0.0533361 0.182908 -0.305365
0.217203 0.16685 0.207078
0.0267056 0.182908 -0.246795
-0.124346 0.137178 0.274148
-0.0821084 -0.181614 -0.302072
0.131611 0.137178 0.269781
0.111734 -0.0816266 0.300712
-0.104136 0.137178 -0.242871
0.184207 0.137178 0.380792
0.048212 0.182908 0.106272
-0.18694 0.182908 -0.252792
-0.177008 0.137178 0.320689
0.0620953 0.182908 -0.14278
0.106705 0.137178 -0.306704
0.16336 0.182908 0.0876717
0.037227 0.137178 0.196218
-0.162887 0.137178 -0.11938
0.0688743 0.182908 -0.128273
0.0868405 0.137178 -0.24624
-0.0867568 0.137178 0.115096
-0.0810786 -0.182908 0.28398
0.150173 0.137178 -0.1051
-0.155778 0.182908 0.227056
-0.0648427 0.137178 0.232886
0.152941 0.182908 0.296527
-0.191208 0.137178 -0.103069
0.117036 0.154289 0.00022838
0.126438 -0.0324414 -0.275
0.205128 0.182908 -0.312784
0.00137286 0.182908 0.326589
0.110415 -0.0565713 0.297128
-0.0943755 0.137178 -0.263487
-0.204573 0.182908 -0.0639611
0.217203 0.147918 -0.124379
-0.0939043 -0.106312 0.314083
-0.00880753 0.137178 0.123576
-0.0735802 0.182908 0.00785529
-0.171127 0.137178 0.306296
-0.0652179 0.103937 -0.283383
0.0894135 -0.0226707 0.311855
0.173805 0.137178 0.213994
0.217203 0.149432 -0.113812
0.0193114 0.143784 0.00022838
0.217203 0.144849 -0.0310029
-0.168963 0.171117 -0.411543
-0.189917 0.137178 0.0538256
-0.0356749 0.182908 -0.183712
0.217203 0.164505 -0.00527133
0.104176 0.137178 0.147147
-0.156069 0.182908 0.121103
0.00397235 0.137178 -0.301303
-0.0725798 0.182908 -0.110919
0.115463 0.00751007 -0.260001
0.217203 0.169599 -0.370458
-0.0304966 0.182908 0.252144
0.10409 0.137178 0.357721
0.217203 0.137271 0.102715
0.0099724 0.182908 0.126397
-0.0954604 0.182908 0.279377
0.0908686 -0.0352364 0.311079
0.0929112 0.16041 -0.000228891
0.217203 0.14432 0.0648646
0.167527 0.182908 0.0454329
-0.0705596 0.137178 0.364516
0.109471 -0.112089 0.327491
-0.217203 0.137934 0.109991
0.217203 0.1688 -0.279636
0.217203 0.150622 -0.33981
0.0571003 0.182908 -0.239743
-0.189656 0.137178 -0.34358
0.199256 0.182908 -0.286704
-0.19321 0.182908 0.358752
0.0103954 0.137178 0.382742
0.0507812 0.182908 0.282981
0.132955 0.137178 0.0615377
0.0756058 0.159921 -0.000228891
-0.135707 0.182908 -0.122944
-0.193164 0.137178 -0.072656
-0.0447784 0.175706 0.00022838
-0.0892143 -0.182908 0.279022
-0.0204739 0.148121 0.411543
0.212539 0.137178 0.366293
-0.127878 0.137178 -0.182162
-0.112255 0.168702 -0.000228891
-0.180086 0.137178 0.121485
-0.0862682 0.127158 0.2697
-0.113735 0.137178 0.224363
0.110333 0.182908 -0.198859
-0.0135603 0.137178 0.0142356
0.144523 0.182908 0.320703
-0.162372 0.137178 0.0388682
0.0766392 0.182908 -0.344454
-0.192076 0.137178 0.0333493
-0.182316 0.182908 -0.411494
-0.0763107 -0.169189 -0.259766
-0.0096453 0.137178 0.285608
0.0619672 0.137178 -0.237075
-0.0981872 -0.0584475 -0.278944
-0.0648321 0.137178 -0.179354
0.168363 0.137178 0.204191
0.146728 0.137178 -0.241814
-0.184081 0.182908 0.210266
-0.20359 0.137178 -0.218397
-0.117017 0.182908 -0.104084
0.0528103 0.182908 -0.280547
-0.108691 -0.149045 0.302351
0.0210291 0.137178 0.197164
-0.0637375 0.182908 0.0682734
0.19488 0.137178 0.208887
0.0459649 0.137178 0.121772
0.0981386 0.137204 -0.262595
-0.0658089 0.137178 -0.333747
-0.110243 0.182908 -0.144599
0.0910135 0.182908 0.375603
0.187008 0.164433 -0.000228891
0.123279 -0.137543 0.319625
0.0508937 0.137178 0.395646
-0.126153 0.137178 0.141513
-0.0359354 0.182908 -0.133608
-0.0355092 0.137178 0.200927
0.0323694 0.182908 0.335092
-0.0435034 0.137178 0.172233
0.120734 -0.0473427 -0.284441
-0.00643258 0.14889 0.411543
-0.118063 0.182908 0.0199699
-0.0928675 -0.170379 -0.273058
0.117723 0.137178 -0.0381979
-0.165449 0.137178 0.263903
-0.10873 0.182908 0.195324
-0.0445009 -0.182908 -0.226211
0.0152339 0.137178 0.362841
-0.00787665 0.137178 -0.227549
-0.0574983 0.182908 0.121993
0.0204715 0.137843 0.411543
-0.125704 0.137178 0.168384
-0.102152 0.182908 0.317
-0.00837406 0.137178 0.269049
-0.0480584 -0.182908 -0.248825
0.106738 0.182908 -0.235366
-0.136856 0.137178 0.118876
-0.0892811 0.182908 0.171398
0.0883787 0.137178 0.407625
0.0911025 0.182908 0.297379
-0.0176169 -0.169189 0.235861
0.0915265 0.088055 0.286843
0.105267 0.0970614 -0.250787
0.0933159 0.182908 -0.357776
0.146512 0.137178 0.406287
-0.217203 0.169986 -0.241403
0.0509843 0.182908 0.238284
0.119277 -0.140905 -0.30043
-0.110746 0.182908 -0.0353444
0.115861 0.182908 -0.220764
0.0993702 -0.172409 -0.245456
0.208197 0.137178 -0.106006
0.0466805 0.182908 -0.259686
0.0189399 -0.181597 -0.172765
0.143705 0.153091 -0.411543
0.0454245 0.182908 -0.198599
0.217203 0.178963 0.104153
0.208945 0.149712 -0.000228891
0.20393 0.182908 0.0913201
0.117641 -0.0696783 -0.271893
0.0470283 0.182908 -0.294102
0.0264277 0.137178 -0.0889783
-0.0767782 -0.0302476 -0.296174
-0.217203 0.153474 0.00885662
-0.160627 0.182908 0.145118
-0.09498 0.137178 -0.180392
-0.106073 0.14961 0.411543
0.0377621 0.137178 -0.280624
0.205559 0.137178 0.142386
-0.217203 0.148242 -0.021729
-0.0384352 0.137178 -0.270989
-0.17673 0.180959 0.411543
0.0792309 0.112418 0.293521
-0.0906996 -0.0799393 0.307495
-0.0799284 0.0274336 -0.274429
0.157296 0.137178 0.268993
0.0471252 0.137178 -0.338691
0.210835 0.137178 0.147122
0.0989541 -0.182908 0.321865
-0.217203 0.139886 -0.217854
0.121793 0.140255 0.00022838
0.0710605 0.182908 -0.322025
0.216193 0.182908 0.133494
0.00794905 0.182908 -0.250303
0.0341742 0.137178 0.267515
-0.183957 0.137178 -0.331634
0.00469768 -0.182908 -0.188005
0.0386644 -0.1787 0.256866
-0.093491 -0.169189 0.29415
0.101547 -0.145592 0.325003
0.202345 0.182908 0.323291
-0.171398 0.182908 -0.354393
-0.209276 0.137178 0.0973898
-0.0568306 0.137178 0.0474668
0.217203 0.146359 0.185247
-0.128148 0.182908 -0.139604
-0.21318 0.182908 -0.353202
0.03945 0.182908 0.262397
-0.162025 0.182908 0.2384
0.0256843 0.137178 0.258988
-0.0356309 0.143351 0.00022838
0.14465 0.137178 0.187882
-0.161231 0.182908 0.164027
0.0961759 0.0497674 0.308741
0.134275 0.137178 -0.186613
0.140137 -0.146162 -0.283728
0.217203 0.175199 0.184207
-0.217203 0.156065 0.34046
0.107524 0.137178 0.355935
-0.0142514 0.182908 -0.36906
0.217203 0.160631 0.327537
0.0312966 0.182908 -0.213864
-0.183936 0.182908 -0.351718
0.0706066 0.137178 0.0561665
-0.0785189 0.0341638 0.296999
-0.128453 0.182908 -0.0509102
-0.028523 0.182908 -0.271417
0.185562 0.156031 0.00022838
0.0346475 0.182908 -0.341822
-0.0667523 0.182908 0.093794
0.106131 0.102882 -0.269045
-0.0338147 0.182908 0.390202
-0.0934585 -0.180556 0.276336
-0.1515 0.182908 0.3071
0.109666 0.137178 -0.181147
0.217203 0.177674 -0.0525508
-0.115967 0.137178 0.354169
0.199086 0.144281 -0.000228891
-0.0207108 0.137178 0.121401
0.0551915 0.182908 -0.324729
-0.060899 0.182908 -0.23683
0.182944 0.137178 -0.361387
-0.0955145 0.137178 0.240039
0.160346 0.182908 -0.282864
0.124231 0.182908 -0.0180032
-0.157244 0.167596 0.411543
-0.195791 0.182908 0.279202
0.217203 0.144755 -0.225682
-0.0672103 0.137178 -0.112065
-0.190038 0.137178 0.308826
-0.0875898 0.182908 0.263733
0.12517 -0.140749 -0.27849
-0.0747538 0.137204 0.285725
0.0646802 0.137178 -0.0277326
-0.158204 0.182908 -0.0196567
0.029644 0.137178 0.103174
0.107066 0.182908 -0.184765
-0.104935 -0.13119 0.32314
-0.12688 0.137178 0.0632196
0.101638 0.0932227 -0.276045
0.0154019 0.182908 -0.0067225
-0.0533533 0.156384 0.411543
-0.157685 0.182908 0.0446188
-0.0916879 -0.181299 0.274702
0.170412 0.182908 -0.148088
-0.0890819 0.137178 -0.0759554
0.10836 0.137178 0.357757
0.202069 0.182908 0.141971
-0.177492 0.137178 -0.356363
-0.182367 0.182908 -0.0555131
0.0961058 0.137178 -0.327584
0.176074 0.137178 0.270309
-0.191524 0.158045 0.411543
-0.134138 0.137178 -0.301986
0.181822 0.182908 -0.141079
-0.0384419 0.182908 0.169199
0.133325 0.137178 0.386366
-0.12484 0.137178 -0.0713156
0.0968599 0.160868 -0.000228891
-0.137698 0.137178 0.318573
0.0295328 0.182908 -0.151931
0.0135054 0.137178 0.0968738
-0.148973 0.179237 -0.000228891
-0.136696 0.182908 0.111546
-0.0948121 -0.182908 -0.291118
0.118157 0.182908 0.106844
0.0193895 0.17863 -0.411543
0.116903 0.0314031 -0.27214
0.172627 0.137178 -0.111441
-0.0143737 0.137178 0.0935424
-0.17331 0.182908 -0.229807
0.188022 0.182908 -0.380981
-0.0600623 0.182908 0.29876
0.0804352 0.137178 -0.118151
-0.0663367 -0.169189 0.253226
0.143372 0.137178 0.171413
0.217203 0.180884 0.0483477
-0.0659521 0.0932543 -0.284195
0.213087 0.182908 -0.343539
-0.142529 0.137178 0.160527
-0.0154925 0.182908 0.0608384
0.00941502 0.137178 -0.199311
-0.172177 0.137178 0.410495
-0.195606 0.182908 0.193484
-0.0839041 0.137178 -0.350763
-0.0232042 0.177618 0.411543
0.0142222 0.182908 0.0832229
-0.0772958 0.182908 0.409181
0.217203 0.180329 0.402723
0.115556 0.137178 0.235942
-0.0678713 0.182908 0.155169
0.198307 0.137178 0.394483
0.217203 0.170851 0.0635798
-0.217203 0.181862 0.304668
0.148449 0.137178 -0.202281
-0.186893 0.182908 -0.276303
0.110522 -0.175807 -0.292517
0.0501506 0.137178 0.377535
-0.141309 0.137178 0.301467
0.0665848 0.137178 0.058945
0.127828 -0.0407862 -0.275215
-0.157407 0.182908 -0.353984
-0.0892937 0.155133 -0.000228891
-0.0249726 0.182908 0.208524
0.139904 0.182908 0.389496
0.107691 0.00280644 0.291206
0.00148943 0.182908 0.22806
0.126717 0.137178 -0.018821
-0.139164 0.137178 0.163216
0.00467015 -0.182908 -0.199245
-0.155125 0.182908 -0.0783871
-0.0794278 0.137178 0.40452
-0.0444761 0.154334 -0.411543
0.0590362 0.137178 0.269749
0.14792 0.182908 0.175052
0.101488 0.137178 -0.40683
0.0702545 0.182908 0.0307037
0.126174 -0.15366 -0.280091
0.101271 0.137178 0.259343
-0.147869 0.182908 -0.179308
-0.0122358 0.137178 0.196958
-0.13234 0.182908 -0.0233099
0.106324 0.182908 -0.00033843
-0.0965421 -0.131984 -0.289676
0.0680874 0.137178 0.0492193
0.217203 0.140046 0.394308
0.113698 0.137178 -0.152554
-0.171026 0.137178 0.0760129
-0.183137 0.182908 0.0382925
0.0976703 0.0810104 -0.262339
-0.147526 0.137178 0.0354484
0.170563 0.137178 0.137895
0.0516898 0.182908 -0.33681
0.0959203 0.137178 -0.35087
0.217203 0.16576 0.07924
0.12964 0.137178 -0.0159751
-0.117148 0.182908 -0.0806249
-0.217203 0.150264 0.411183
0.197205 0.137178 -0.349742
-0.0132778 0.137178 -0.0170795
-0.0820421 -0.0864352 -0.301998
0.0628781 0.137178 -0.039679
-0.0109624 0.159741 -0.411543
0.128886 0.182908 0.2736
0.165439 0.137178 -0.301788
-0.117415 0.182908 -0.233273
0.089209 0.182908 0.240652
-0.177789 0.137178 0.265101
-0.0857833 0.137178 0.159128
-0.14298 0.137178 -0.347352
0.0704375 0.16239 -0.000228891
0.115763 0.137178 -0.179004
0.068829 0.137178 0.141753
0.0199046 0.181744 0.00022838
-0.102615 0.182908 -0.38744
0.130069 0.182908 -0.391455
-0.00962598 0.153058 -0.000228891
0.181673 0.137178 0.0265362
0.21078 0.182908 0.265135
-0.198238 0.182908 0.358017
-0.0705957 0.137178 0.212609
-0.164803 0.137178 0.0166066
-0.1651 0.182908 0.081334
0.112571 -0.0971703 0.302919
-0.149198 0.182908 0.186166
-0.162309 0.137178 -0.137583
0.190265 0.137178 0.327901
0.129344 0.182908 0.181081
-0.044401 -0.169189 0.245411
-0.0625075 0.182908 0.23581
-0.0780269 0.182908 -0.0230799
0.193681 0.182908 0.0723109
-0.0803342 0.0942285 -0.280057
-0.0213158 0.137178 -0.251087
-0.208558 0.182908 -0.149597
0.0369595 0.137178 -0.213345
0.105243 0.182908 0.257691
0.162835 0.137178 -0.1863
-0.0616926 0.182908 0.179318
-0.217203 0.145621 -0.2824
0.212025 0.137178 0.105189
0.115415 -0.0764217 -0.275773
0.157392 0.137178 -0.249231
0.0570137 0.182908 -0.170601
-0.217203 0.157177 -0.230133
-0.121259 0.182908 -0.072708
0.0661244 0.182908 0.337815
0.0538467 0.182908 0.331287
0.149762 0.181792 -0.000228891
0.0958097 0.182908 -0.0911706
0.0297299 0.182908 0.00980061
0.126147 0.182908 -0.398557
0.192526 0.182908 -0.298831
-0.18412 0.137178 -0.242556
-0.0275193 0.163784 -0.000228891
-0.207274 0.182908 -0.216401
-0.186876 0.137178 -0.377457
0.205093 0.182908 0.248962
0.0561628 0.137178 -0.153539
-0.217203 0.179239 -0.370329
0.113879 0.14298 -0.000228891
0.128568 -0.04325 -0.274913
-0.121651 0.137178 -0.164217
0.076895 0.182908 -0.134071
0.0876719 0.182908 0.13531
0.191553 0.182908 0.0322264
0.217203 0.182008 0.161575
0.13774 -0.175268 -0.292494
-0.111933 -0.164482 0.322471
0.036306 0.137178 -0.126132
0.191977 0.182908 -0.0647303
-0.0943701 0.182908 0.370754
-0.0642 0.137178 0.0374698
-0.188628 0.137178 -0.267552
-0.168049 0.152969 -0.411543
0.12254 0.182908 0.31588
0.217203 0.142195 0.395118
0.190814 0.137178 0.286765
-0.184704 0.182908 -0.0752165
0.193263 0.137178 -0.049428
-0.135999 0.182908 0.308824
0.217203 0.149382 0.315429
-0.00958518 0.182908 -0.270627
-0.146134 0.182908 0.33277
-0.052907 0.137178 0.211049
-0.193963 0.182908 0.377417
-0.169397 0.169873 -0.411543
0.117147 -0.00264307 -0.261523
-0.0954003 0.182908 0.157875
-0.11811 0.18022 0.00022838
-0.13217 0.182908 0.00465938
0.0177217 0.137178 -0.0102393
-0.0261978 0.156084 -0.411543
-0.0622079 0.182908 0.160035
0.217203 0.176113 -0.182299
-0.0972713 0.0628843 0.291142
0.0418321 0.182908 0.0676011
0.144858 0.137178 0.177234
0.0864026 0.182908 -0.299298
0.0725062 -0.182908 -0.228314
-0.102863 -0.137353 0.32235
0.161254 0.137178 0.343878
0.0689922 0.182908 0.383081
0.176425 0.137178 0.0799259
-0.0177076 0.182908 0.361839
-0.208229 0.182908 -0.333115
-0.1188 0.182908 -0.219166
-0.150159 0.170818 0.00022838
0.0368428 -0.182908 -0.191938
0.0613832 0.182908 -0.355225
0.09519 0.137178 -0.00597756
0.206014 0.137178 0.0373388
0.181822 0.137178 -0.345807
-0.0371281 0.182908 0.206911
-0.213548 0.182908 -0.357607
-0.098345 0.182908 0.165367
-0.0659332 0.182908 0.38928
0.0783402 0.182908 -0.317161
-0.166248 0.182908 0.323449
0.00819258 0.157145 0.411543
0.215013 0.182908 -0.119654
-0.080272 0.182908 0.363042
0.114254 0.182908 0.00892106
-0.217203 0.161537 0.361563
-0.0428258 -0.182908 0.250106
0.0996725 0.130213 0.282517
-0.0416624 0.182908 -0.297862
0.107656 0.157944 -0.000228891
-0.17293 0.182908 0.40391
0.00611369 0.137178 0.380759
0.217203 0.159593 -0.152804
-0.217203 0.163092 -0.350004
0.00683085 0.182908 0.371581
0.091838 0.137178 -0.397016
-0.0928702 0.182908 -0.118923
0.167155 0.179264 -0.411543
-0.0756487 0.182908 -0.22303
0.109851 -0.13981 0.332453
0.0905527 0.137178 -0.361457
0.178021 0.137178 0.0848631
0.0237418 0.137178 -0.375288
-0.0814096 0.137178 -0.0942917
-0.130137 0.182908 0.0412961
0.125426 -0.0499622 -0.269005
-0.0862764 0.0233381 -0.26947
0.196885 0.137178 0.178453
0.216239 0.164832 -0.411543
-0.0420953 -0.182908 0.262676
0.0352786 -0.182908 0.237363
0.0884556 0.182908 0.34068
-0.0684299 0.114738 -0.286923
0.116047 -0.0784463 0.314974
0.0477738 0.182908 0.348167
-0.013903 0.153063 -0.000228891
0.120352 -0.169189 -0.285288
-0.199291 0.182908 0.0328261
-0.133381 0.155439 -0.000228891
-0.217203 0.147122 -0.215412
0.0554971 0.182908 0.408816
-0.20269 0.169776 0.00022838
-0.0380915 0.182908 0.223054
0.15715 0.182908 0.0165439
-0.0441336 -0.172744 0.230815
-0.0757345 0.137178 -0.249397
-0.180496 0.182908 0.204749
0.112038 -0.0781483 0.299766
0.11252 0.182908 0.0859225
-0.162227 0.137178 -0.184948
0.0927506 0.137178 0.093514
-0.217203 0.151384 0.201254
0.0279626 0.182908 -0.333269
0.12907 -0.174619 -0.301951
0.0866902 0.182908 -0.305253
-0.165272 0.182908 0.0586338
-0.134382 0.182908 -0.106132
-0.174445 0.182908 0.0625766
-0.217203 0.166727 -0.113796
-0.132797 0.137178 -0.194155
-0.0394516 -0.182908 0.245501
0.217203 0.175381 0.0540577
-0.0646873 0.149999 0.411543
0.0485568 0.182908 -0.367658
-0.195705 0.137178 0.162851
0.147444 0.182908 0.0539392
0.0943498 0.1285 -0.2767
-0.167375 0.171796 0.00022838
0.0210675 0.137178 0.0726206
0.144556 0.137178 -0.334048
0.0586719 0.182908 0.0595305
0.126415 -0.154906 -0.300748
-0.164443 0.182908 -0.365502
-0.068295 0.141636 -0.000228891
0.208244 0.137178 0.36153
0.217203 0.179532 0.160686
0.0879891 -0.00752821 0.310312
-0.00500304 -0.169189 0.225642
-0.149985 0.137178 -0.348792
0.0828618 -0.182908 0.296086
0.0387504 0.182908 0.339122
-0.0617624 0.182908 -0.219932
0.119744 0.182908 0.360924
0.15702 0.137178 -0.143735
-0.0399032 0.137178 0.0124968
0.0760635 0.137178 -0.278237
-0.143172 0.182908 -0.410606
-0.155187 0.137178 0.340286
-0.0732863 -0.173098 0.295054
0.0786172 0.182908 0.254191
0.217203 0.151996 -0.252497
0.188175 0.182908 -0.145182
-0.104184 0.137178 -0.387981
-0.0865024 -0.0314928 -0.279674
0.0488878 0.137178 -0.397471
0.184028 0.137178 -0.32728
-0.0307192 0.182908 0.253692
-0.12924 0.137178 -0.388333
0.0560459 0.182908 -0.120334
-0.0214568 0.137178 -0.349779
-0.176248 0.137178 0.328902
-0.113223 0.182908 0.382945
-0.0827568 0.137178 -0.258017
-0.0716204 0.137178 -0.144515
0.082754 0.137178 -0.354296
0.124643 0.137178 -0.303602
0.13686 0.137178 -0.0788347
-0.217203 0.180274 0.248815
0.0802834 0.137178 -0.0223635
0.0783373 0.182908 0.37641
-0.073126 0.137178 -0.120436
0.0138885 0.137178 -0.155977
-0.143257 0.182908 0.0363579
-0.146471 0.153787 -0.000228891
0.160899 0.182908 -0.266362
0.127488 -0.144215 -0.297316
-0.172263 0.182908 0.351989
0.0876992 0.182908 -0.118472
-0.0704318 0.07391 -0.27419
-0.0447719 0.138236 0.411543
0.0863878 0.119887 -0.266657
-0.113987 0.182908 0.23119
0.0819549 0.182908 0.275451
-0.214314 0.137178 -0.363335
-0.178706 0.182908 0.33157
0.216628 0.137178 -0.149817
-0.042248 0.182908 0.286092
-0.187439 0.137178 -0.166939
-0.217203 0.16529 -0.297737
0.217203 0.141376 0.322534
0.190604 0.182908 0.348486
-0.0249828 0.182908 0.130161
-0.217203 0.141535 -0.196007
0.134778 0.182908 -0.289731
-0.157221 0.182908 -0.142935
-0.0152639 0.137178 -0.333503
-0.01779 -0.182908 0.233138
0.108765 0.137178 0.209783
0.0282836 -0.174943 0.205164
-0.0771502 0.137178 -0.00268025
0.121793 -0.182908 0.309081
-0.184526 0.137178 -0.341217
0.0544687 -0.169189 -0.207981
0.197299 0.182908 0.280135
-0.0823293 0.137178 -0.161005
-0.205154 0.182908 0.0623858
-0.0238374 0.137178 0.00536013
0.110645 -0.0642592 0.298389
0.176983 0.182908 0.408669
-0.0167042 0.137178 0.313214
0.181645 0.182908 -0.108298
0.074425 0.182908 -0.0579436
0.146012 0.182908 0.00352158
0.217203 0.166078 -0.287253
-0.212204 0.182908 -0.0913045
-0.211468 0.182908 -0.145204
0.125521 -0.120269 0.314246
-0.216312 0.150886 0.00022838
0.177221 0.182908 -0.406688
-0.217203 0.16213 -0.346085
0.031011 -0.169189 0.237863
0.149521 0.137178 -0.294032
-0.00576857 0.137178 0.303407
0.0978767 0.137178 -0.160827
0.0572673 0.137178 0.0642482
0.0629484 0.137178 0.288797
0.0116445 0.137178 0.158182
-0.1867 0.147283 -0.411543
-0.131769 0.146074 -0.411543
0.217203 0.167012 -0.0527687
0.146699 0.182908 0.322546
0.00897495 0.155118 -0.000228891
-0.148396 0.137178 0.0182313
0.112772 0.0924585 -0.257569
0.0556063 0.137178 0.183389
0.0906125 0.137178 -0.408885
0.0547651 0.182908 0.0937624
0.189279 0.182908 0.208964
0.168804 0.137178 0.0620271
-0.0370611 0.182908 -0.238104
-0.0763028 0.137178 0.384054
0.039064 0.182908 -0.21838
-0.217203 0.170762 0.254372
-0.0625588 0.137178 -0.0383368
-0.217203 0.147965 0.06911
0.169878 0.157396 0.411543
0.0266746 0.137178 0.0923283
-0.0831261 0.137178 -0.291052
-0.138787 0.182908 -0.176105
0.102317 -0.181943 -0.285101
0.21266 0.137178 -0.0713317
-0.121164 0.137178 0.170875
0.0941614 0.137178 0.290158
0.0905785 -0.169189 0.304975
0.0109909 0.137178 -0.279067
0.113168 -0.144344 0.330261
-0.106346 0.137178 0.359473
-0.138308 0.137178 0.0886987
0.111965 -0.127215 -0.290258
0.1786 0.137178 -0.342529
0.0911666 0.182908 -0.208242
0.0237577 0.182908 -0.158745
0.0572544 0.146418 0.00022838
0.0249106 0.182908 0.058366
-0.104155 0.182908 -0.327808
0.0802586 0.137178 0.0902965
0.127255 0.137178 0.249063
-0.0082735 0.182908 -0.0335643
0.168858 0.137178 0.0197715
0.196625 0.137178 -0.217771
-0.217203 0.167119 0.25459
0.115758 0.137178 -0.272545
-0.0338214 0.182908 -0.320255
0.0114238 -0.182119 0.227349
0.0474794 0.169977 -0.000228891
-0.113156 0.182908 0.339372
0.113716 0.137178 -0.205071
0.178401 0.176123 0.00022838
0.00279587 -0.176694 0.224838
0.154018 0.182908 -0.349535
0.129173 0.137178 -0.127798
0.193903 0.137178 -0.28087
0.146375 0.163474 -0.411543
-0.0848503 -0.0728114 -0.305105
-0.0984022 -0.00884764 0.284387
0.196105 0.182908 -0.283709
-0.026599 0.137178 -0.327765
-0.202474 0.182908 0.323995
0.139319 0.182908 0.0551747
-0.154421 0.182908 0.359241
0.0417305 0.137178 0.359839
-0.11807 0.182908 -0.392997
-0.0660963 0.137178 0.0760237
0.130151 0.137178 0.0584015
0.100727 0.0761052 -0.259988
0.0719395 0.137178 -0.219036
0.135913 -0.172018 -0.293832
-0.0430672 0.182908 0.22829
0.123528 0.137178 -0.226985
0.207115 0.182908 0.407039
-0.0356261 -0.169189 -0.224279
-0.0953276 0.182908 0.331319
0.0171824 0.137178 -0.234002
0.0876623 0.137178 0.369798
-0.0918558 -0.117996 -0.291257
-0.129583 0.137178 0.213
0.0207573 0.182908 0.269698
-0.109477 0.182908 0.174765
0.108918 0.182908 -0.275495
-0.103554 0.180724 -0.411543
-0.0129981 0.182908 -0.0360163
0.126431 0.137178 -0.195583
0.0848024 0.182908 0.174233
-0.127329 0.150861 0.411543
0.118913 0.137178 -0.132466
0.187848 0.182908 -0.153436
-0.0199735 0.143597 -0.000228891
-0.112746 -0.17539 -0.295052
-0.131368 0.137178 0.190086
0.0532014 -0.169189 0.23223
0.157637 0.182908 -0.274417
0.0812987 0.182908 -0.175369
0.0669485 0.137178 -0.307378
-0.0608205 0.182908 0.138363
-0.143726 0.137178 0.104703
-0.0471228 -0.182908 0.239292
-0.0114457 0.182908 0.349018
0.0289763 0.137178 0.0840474
0.178313 0.137178 0.0390845
0.105751 0.182908 0.361465
0.210691 0.182908 0.226093
-0.108261 0.137178 0.0758361
0.00916041 0.137178 0.16156
0.092375 0.137178 0.372485
-0.217203 0.154773 0.0613879
-0.0347781 -0.172055 -0.249703
-0.040658 0.137178 -0.141661
0.105252 -0.173453 -0.287754
-0.0176965 0.180735 -0.411543
0.00582071 0.137178 0.232124
-0.14645 0.182908 -0.155776
-0.0943799 0.00121751 -0.274731
-0.00445312 0.137178 0.289253
0.147514 0.137178 0.333165
-0.04232 0.152822 -0.000228891
-0.00365136 0.176961 -0.411543
-0.189643 0.182908 0.352765
0.207675 0.137178 0.337494
0.0653027 0.182908 0.0310268
-0.0928246 0.182908 0.225547
-0.213779 0.182908 0.183159
-0.0762516 0.137178 -0.336181
0.0705584 0.137178 -0.017026
0.204907 0.182908 -0.268062
-0.0117781 0.182908 0.293482
0.048946 -0.169189 -0.229172
0.0389969 0.137178 -0.275101
-0.134995 0.179009 0.411543
-0.0501438 -0.178321 -0.225786
-0.159475 0.182908 -0.351487
-0.134623 0.182908 0.209919
-0.181537 0.182908 0.309208
-0.123495 0.137178 -0.0673146
0.00252699 0.182908 0.178865
0.0262069 0.140045 0.411543
-0.00786674 0.137178 0.362902
-0.0626459 0.182908 0.119098
-0.16842 0.137178 -0.179585
0.119467 0.0428619 -0.26362
-0.217203 0.143732 0.0896908
0.0708737 0.182908 0.110577
-0.200293 0.137178 -0.243919
-0.110569 0.182908 -0.124873
-0.0597957 0.182908 0.283401
0.0924694 0.137178 -0.0767014
-0.0916224 0.182908 0.150577
-0.171161 0.137178 0.39201
-0.134124 0.137178 0.27451
0.121849 -0.143765 -0.302754
0.0325302 0.16584 -0.000228891
-0.0630949 0.137178 -0.373799
-0.0808397 0.137178 0.278387
-0.199026 0.182908 -0.254857
-0.0560288 0.137178 0.097427
0.18522 0.137178 0.0680702
-0.127026 0.137178 -0.136627
-0.0445608 0.137178 0.0388005
-0.0627195 0.137178 -0.064206
0.0549536 0.137178 0.0802836
0.188234 0.182908 -0.265778
-0.211156 0.182908 0.204693
0.0818544 0.137178 0.236566
0.217203 0.178774 -0.286102
-0.162969 0.182908 -0.339942
0.169183 0.182908 0.00958158
0.0919178 0.0728335 -0.275703
-0.0742781 0.144333 -0.411543
0.122543 -0.0837472 -0.269424
-0.191507 0.182908 0.108671
0.101454 0.123685 0.284447
0.0633849 0.137178 -0.0162939
-0.058007 0.137178 0.311758
-0.0821161 0.182908 0.360648
0.10973 0.137178 0.371126
0.130895 0.182908 -0.306594
-0.0802255 0.137178 0.0844277
0.0437113 -0.169189 0.260973
0.192002 0.182908 -0.177109
0.154897 0.137178 -0.291786
-0.217203 0.152067 -0.325118
-0.0294987 0.182908 -0.176721
-0.209952 0.137178 0.399722
0.164693 0.182908 0.212485
0.179497 0.182908 -0.0925913
0.0627566 0.174521 0.00022838
-0.185608 0.163523 -0.000228891
-0.215003 0.182908 -0.356857
-0.217203 0.167239 -0.204384
0.188121 0.182908 0.0215915
-0.117529 0.182908 0.197713
0.211541 0.182908 -0.410495
0.132035 0.182908 -0.410597
-0.0578419 0.137178 0.105512
0.118576 0.0369493 -0.262814
-0.0826431 0.182908 0.0415589
-0.200655 0.137178 -0.0279229
0.145179 0.137178 0.0373459
0.00257291 0.137178 0.0375082
-0.0256832 0.137178 -0.177348
-0.153441 0.137178 -0.407758
-0.14456 0.137178 0.393065
-0.0159114 0.137178 0.145146
-0.0341406 0.137178 0.112006
0.180156 0.137178 -0.268842
-0.139211 0.137178 -0.347681
0.0235747 0.137178 0.336772
-0.0293306 0.182908 0.297828
-0.116349 0.182908 -0.041386
-0.0215249 0.137178 -0.152772
-0.131338 0.182908 -0.0611793
0.19634 0.182908 -0.155768
-0.107146 0.182908 -0.236076
0.157972 0.137178 0.0672907
0.120601 0.137178 0.0752314
0.156804 0.182908 0.410041
0.14283 0.137178 0.102968
-0.217203 0.139445 -0.307364
-0.11719 0.175606 0.00022838
-0.177113 0.182908 -0.352525
-0.0942121 -0.112999 0.310554
-0.208019 0.182908 -0.0358447
-0.108191 -0.0409657 0.289932
-0.155849 0.148144 -0.000228891
0.0497389 0.182908 -0.222583
-0.134265 0.182908 0.120054
-0.186816 0.182908 -0.294801
-0.217203 0.182688 0.325127
-0.206341 0.137178 0.273762
0.0222233 0.137178 -0.349481
0.147291 0.182908 -0.144749
0.114427 -0.0346522 0.308076
-0.1146 0.182908 0.227
0.197516 0.137178 -0.26005
-0.182384 0.182908 -0.367654
0.0479489 0.182908 -0.0269335
0.13055 0.137178 0.184709
-0.0535868 0.137178 -0.0419659
-0.211366 0.137178 0.213476
-0.0499184 0.137178 0.292009
0.0155291 0.137178 -0.367723
0.196078 0.137178 0.220933
0.0431194 0.182908 0.0172639
0.194605 0.137178 0.0872269
0.18696 0.182908 0.104854
0.172707 0.137178 -0.199668
-0.154537 0.182908 0.190259
-0.137354 0.182908 -0.0597648
0.217203 0.155379 0.0352932
0.0386718 0.137178 -0.165361
-0.0343979 0.137178 -0.0477943
0.203074 0.182908 -0.017696
0.0256402 0.137178 0.0263771
0.0665611 0.137178 -0.321381
0.217203 0.157544 0.281303
0.152417 0.137178 -0.244811
0.130135 0.182908 0.144949
-0.217203 0.14972 -0.174426
0.0944255 0.137178 0.309321
-0.216684 0.182908 0.295087
0.158694 0.182908 -0.157995
-0.0369656 0.137178 -0.289094
-0.0264377 0.137178 -0.140967
0.0172943 0.137178 -0.294935
-0.217203 0.17467 0.0640378
0.120382 0.137178 0.336763
0.0500532 0.137178 -0.0913505
-0.139803 0.137178 0.229194
0.116345 0.182908 -0.0922997
0.00100426 0.176474 0.00022838
-0.217203 0.152266 0.397154
0.148182 0.182908 -0.0423558
-0.213574 0.182908 0.224964
0.101731 0.182908 0.0726153
0.0804708 0.182908 -0.02199
-0.0716589 0.137178 0.226967
-0.0927202 0.14134 -0.000228891
0.217203 0.172735 -0.0140554
-0.0433988 0.148992 0.00022838
0.0692118 0.182908 -0.395
0.0425796 0.182908 0.371423
-0.0635456 0.182908 0.0257812
-0.0819139 0.137178 0.294324
0.13991 0.137178 0.335097
-0.182443 0.182908 0.125707
-0.0514139 0.137178 -0.199255
-0.061608 0.140148 0.411543
-0.131293 0.182908 -0.32503
0.179269 0.182908 -0.0140605
-0.217203 0.163913 -0.252001
-0.137594 0.137178 0.144343
-0.0826045 0.148109 0.411543
0.132439 0.182908 0.120974
-0.154718 0.137178 -0.391773
0.0684374 0.182908 0.139674
-0.214916 0.137178 0.0898973
-0.00971239 0.137178 -0.361499
0.0372479 0.156947 0.411543
0.113463 0.182908 -0.0788364
0.109835 -0.0701941 -0.291896
-0.0418535 0.182908 0.37592
0.0275813 0.137178 -0.305866
0.101281 0.137178 0.1211
-0.0509793 0.182908 -0.347562
-0.217203 0.137739 0.299139
