ply
format ascii 1.0
comment Created by Open3D
element vertex 634
property double x
property double y
property double z
end_header
-0.140253 -0.212777 -0.394014
-0.138995 -0.21101 0.386734
-0.133198 -0.194455 -0.380866
-0.137121 -0.191977 0.387361
-0.124879 -0.182354 0.383664
-0.132408 -0.174937 -0.381149
-0.128864 -0.16995 0.397898
0.158094 -0.210565 -0.390674
0.158147 -0.209011 0.388481
-0.128189 -0.162265 0.382578
0.157838 -0.194196 0.398186
-0.125861 -0.152256 -0.391431
-0.11156 -0.154168 -0.376556
0.155891 -0.190448 -0.390034
0.161559 -0.189809 0.38448
-0.110348 -0.152957 0.380529
0.154772 -0.174149 0.397351
-0.12211 -0.139542 0.396299
0.153753 -0.1704 -0.389412
0.155013 -0.169297 0.382766
0.165667 -0.166848 -0.377892
-0.104363 -0.133802 0.378478
-0.119857 -0.129212 -0.389633
-0.115721 -0.129657 -0.371107
-0.115741 -0.129624 -0.351089
-0.115761 -0.129591 -0.331081
-0.115781 -0.129558 -0.311083
-0.115795 -0.129526 -0.291097
-0.115807 -0.129494 -0.271121
-0.115818 -0.129462 -0.251156
-0.11583 -0.12943 -0.2312
-0.115842 -0.129398 -0.211254
-0.115854 -0.129366 -0.191318
-0.115865 -0.129334 -0.171391
-0.115877 -0.129303 -0.151475
-0.115889 -0.129271 -0.131568
-0.1159 -0.129239 -0.111671
-0.115912 -0.129207 -0.0917842
-0.115924 -0.129175 -0.071907
-0.115935 -0.129143 -0.0520395
-0.115947 -0.129112 -0.0321818
-0.115958 -0.12908 -0.0123339
-0.11597 -0.129048 0.00750431
-0.115984 -0.12901 0.0312972
-0.115996 -0.128978 0.0511139
-0.116007 -0.128947 0.0709209
-0.116019 -0.128915 0.0907181
-0.116031 -0.128883 0.110506
-0.116042 -0.128852 0.130283
-0.116054 -0.12882 0.150052
-0.116062 -0.128789 0.16981
-0.116067 -0.128758 0.18956
-0.116072 -0.128727 0.2093
-0.116077 -0.128696 0.229031
-0.116082 -0.128665 0.248753
-0.116087 -0.128635 0.268465
-0.116092 -0.128604 0.288167
-0.116097 -0.128573 0.30786
-0.116102 -0.128542 0.327544
-0.116108 -0.128505 0.351152
-0.116113 -0.128475 0.370815
-0.117392 -0.120404 0.390046
-0.168417 -0.104658 -0.410274
-0.17588 -0.103912 -0.392132
-0.160002 -0.105438 -0.382814
-0.114166 -0.109887 -0.39169
-0.114538 -0.109825 -0.371514
-0.114548 -0.109798 -0.351478
-0.114559 -0.109771 -0.331451
-0.114569 -0.109744 -0.311435
-0.114579 -0.109717 -0.291429
-0.114589 -0.10969 -0.271432
-0.1146 -0.109663 -0.251445
-0.11461 -0.109636 -0.231468
-0.11462 -0.109609 -0.211501
-0.11463 -0.109583 -0.191543
-0.114641 -0.109556 -0.171596
-0.114651 -0.109529 -0.151658
-0.114661 -0.109502 -0.13173
-0.114671 -0.109475 -0.111811
-0.114681 -0.109448 -0.0919026
-0.114692 -0.109422 -0.0720038
-0.114702 -0.109395 -0.0521147
-0.114712 -0.109368 -0.0322353
-0.114722 -0.109341 -0.0123657
-0.114734 -0.109309 0.0114651
-0.114744 -0.109282 0.0313133
-0.114755 -0.109256 0.0511518
-0.114765 -0.109229 0.0709807
-0.114775 -0.109202 0.0907999
-0.114785 -0.109176 0.110609
-0.114795 -0.109149 0.130409
-0.114805 -0.109122 0.150199
-0.114815 -0.109096 0.16998
-0.114826 -0.109069 0.18975
-0.114836 -0.109042 0.209512
-0.114846 -0.109016 0.229263
-0.114856 -0.108989 0.249005
-0.114866 -0.108963 0.268737
-0.114876 -0.108936 0.28846
-0.114886 -0.108909 0.308173
-0.114896 -0.108883 0.327876
-0.114907 -0.108856 0.34757
-0.114919 -0.108825 0.37119
-0.157359 -0.104703 0.380581
-0.17624 -0.102864 0.389133
-0.168471 -0.103588 0.410569
-0.14296 -0.103187 -0.377371
-0.13349 -0.103122 0.380839
-0.0750836 -0.105431 -0.414121
-0.121682 -0.092499 0.314254
-0.121687 -0.0924856 0.326004
-0.121696 -0.0924632 0.345579
-0.176054 -0.084993 -0.380688
-0.164367 -0.0859154 -0.377372
-0.123091 -0.0891718 -0.364596
-0.1231 -0.0891501 -0.344714
-0.123108 -0.0891284 -0.324842
-0.123116 -0.0891066 -0.30498
-0.123127 -0.0890763 -0.277189
-0.123135 -0.0890546 -0.25735
-0.123145 -0.0890285 -0.233556
-0.123153 -0.0890069 -0.213738
-0.123161 -0.0889852 -0.19393
-0.123169 -0.0889635 -0.174132
-0.123177 -0.0889419 -0.154343
-0.123185 -0.0889203 -0.134564
-0.123193 -0.0888986 -0.114794
-0.123204 -0.0888684 -0.0871327
-0.123212 -0.0888468 -0.0673861
-0.123222 -0.0888209 -0.0437029
-0.12323 -0.0887993 -0.0239774
-0.123238 -0.0887777 -0.00426155
-0.123246 -0.0887562 0.0154447
-0.123254 -0.0887346 0.0351415
-0.123265 -0.0887045 0.0627009
-0.123275 -0.0886787 0.0863083
-0.123283 -0.0886572 0.105971
-0.123291 -0.0886357 0.125623
-0.123299 -0.0886142 0.145267
-0.12331 -0.0885841 0.172751
-0.12332 -0.0885584 0.196295
-0.123327 -0.0885369 0.215904
-0.123336 -0.0885155 0.235503
-0.123344 -0.0884941 0.255093
-0.123355 -0.0884641 0.282503
-0.168667 -0.0847702 0.380539
-0.174358 -0.0842977 0.400964
-0.142959 -0.0837176 -0.377371
-0.125072 -0.0843077 0.375801
-0.0728286 -0.0849222 -0.414952
-0.145252 -0.078925 0.380809
-0.167586 -0.0742696 -0.410603
-0.164367 -0.07446 -0.377372
-0.129977 -0.0724979 0.062425
-0.129982 -0.0724839 0.0780706
-0.129988 -0.0724664 0.0976191
-0.129996 -0.0724454 0.121065
-0.130002 -0.072428 0.140593
-0.130009 -0.0724105 0.160111
-0.130015 -0.0723931 0.17962
-0.130021 -0.0723757 0.199119
-0.130028 -0.0723583 0.21861
-0.130034 -0.0723408 0.23809
-0.13004 -0.0723234 0.257562
-0.130048 -0.0723026 0.280915
-0.130054 -0.0722852 0.300366
-0.130061 -0.0722678 0.319807
-0.130067 -0.0722504 0.33924
-0.130073 -0.0722331 0.358662
-0.131517 -0.0688279 -0.353836
-0.131522 -0.0688112 -0.334109
-0.131528 -0.0687945 -0.31439
-0.131534 -0.0687779 -0.294682
-0.131541 -0.0687613 -0.274983
-0.131549 -0.068738 -0.24742
-0.131556 -0.0687181 -0.22381
-0.131562 -0.0687015 -0.204145
-0.131568 -0.0686849 -0.184489
-0.131574 -0.0686683 -0.164844
-0.131582 -0.0686451 -0.137355
-0.131589 -0.0686252 -0.113809
-0.131595 -0.0686086 -0.0941971
-0.131601 -0.0685921 -0.0745948
-0.13161 -0.0685689 -0.0471676
-0.131617 -0.0685491 -0.0236732
-0.131623 -0.0685326 -0.00410495
-0.131628 -0.0685161 0.0154538
-0.131634 -0.0684996 0.0350033
-0.14296 -0.0642483 -0.377371
-0.133393 -0.0642139 0.380871
-0.0728289 -0.0642094 -0.414952
-0.145021 -0.0596875 0.380885
-0.1733 -0.0549276 -0.400727
-0.175541 -0.0547997 -0.380879
-0.168311 -0.0546478 0.380659
-0.173828 -0.0543521 0.401155
-0.137395 -0.0524995 0.143649
-0.137397 -0.052492 0.155282
-0.137402 -0.052472 0.186289
-0.137405 -0.0524595 0.205656
-0.137408 -0.052447 0.225013
-0.137413 -0.0524271 0.255967
-0.137417 -0.0524146 0.275301
-0.137422 -0.0523947 0.306216
-0.137425 -0.0523822 0.325526
-0.13743 -0.0523648 0.352544
-0.138626 -0.0488508 -0.355389
-0.138627 -0.0488438 -0.343626
-0.13863 -0.0488321 -0.324029
-0.138633 -0.0488204 -0.304442
-0.138637 -0.0488087 -0.284863
-0.138641 -0.0487924 -0.25747
-0.138644 -0.0487784 -0.234004
-0.138648 -0.0487667 -0.21446
-0.138651 -0.0487551 -0.194924
-0.138655 -0.0487364 -0.163688
-0.138659 -0.0487248 -0.144177
-0.138661 -0.0487132 -0.124675
-0.138666 -0.0486969 -0.0973887
-0.138669 -0.0486829 -0.0740148
-0.138672 -0.0486713 -0.0545467
-0.138676 -0.0486551 -0.027307
-0.13868 -0.0486412 -0.00397314
-0.138683 -0.0486296 0.0154615
-0.138687 -0.0486134 0.0426545
-0.13869 -0.0485995 0.0659483
-0.138693 -0.0485879 0.0853497
-0.138698 -0.0485694 0.116373
-0.164367 -0.0439123 -0.377372
-0.142962 -0.0447791 -0.37737
-0.0728291 -0.0434967 -0.414952
-0.141335 -0.040573 0.374422
-0.145154 -0.0291414 -0.364886
-0.145157 -0.0291303 -0.333704
-0.145158 -0.0291234 -0.314227
-0.14516 -0.0291165 -0.294759
-0.145162 -0.0291054 -0.26363
-0.145164 -0.0290985 -0.244187
-0.145165 -0.0290915 -0.224752
-0.145168 -0.0290805 -0.193676
-0.145169 -0.0290736 -0.174266
-0.14517 -0.0290667 -0.154865
-0.145173 -0.0290556 -0.123842
-0.145174 -0.0290487 -0.104465
-0.145177 -0.0290391 -0.0773524
-0.145178 -0.0290308 -0.0541274
-0.14518 -0.0290239 -0.0347833
-0.145182 -0.0290129 -0.0038517
-0.145184 -0.0290061 0.0154686
-0.145186 -0.0289964 0.0425016
-0.145187 -0.0289882 0.0656585
-0.14519 -0.0289786 0.0926583
-0.145191 -0.0289704 0.115787
-0.145193 -0.0289635 0.13505
-0.145195 -0.0289525 0.165853
-0.145197 -0.0289457 0.185093
-0.145199 -0.0289348 0.215858
-0.1452 -0.0289279 0.235075
-0.145202 -0.028917 0.265802
-0.145204 -0.0289074 0.292669
-0.145206 -0.0288992 0.315684
-0.145208 -0.0288897 0.342519
-0.166233 -0.0247877 -0.411141
-0.174716 -0.0245867 -0.38878
-0.156404 -0.0247697 0.380901
-0.173296 -0.0243768 0.401346
-0.15377 -0.0212068 -0.377371
-0.149057 -0.0172682 0.364283
-0.0728297 -0.0144989 -0.414952
-0.151225 -0.00965921 -0.355023
-0.151225 -0.00965693 -0.335643
-0.151225 -0.00965556 -0.32402
-0.151224 -0.00965328 -0.304654
-0.151224 -0.00964963 -0.273689
-0.151224 -0.00964735 -0.254348
-0.151224 -0.00964416 -0.227285
-0.151223 -0.00964143 -0.204103
-0.151223 -0.00963915 -0.184795
-0.151223 -0.00963551 -0.15392
-0.151223 -0.00963324 -0.134635
-0.151222 -0.00962961 -0.103798
-0.151222 -0.00962734 -0.084537
-0.151222 -0.00962371 -0.0537379
-0.151222 -0.00962144 -0.0345003
-0.151221 -0.00961781 -0.00373891
-0.151221 -0.00961555 0.0154751
-0.151221 -0.00961193 0.0461988
-0.15122 -0.00960967 0.0653894
-0.15122 -0.00960605 0.0960755
-0.15122 -0.00960379 0.115243
-0.151219 -0.00960018 0.145891
-0.151219 -0.00959793 0.165035
-0.151219 -0.00959432 0.195646
-0.151218 -0.00959072 0.226234
-0.151218 -0.00958846 0.24534
-0.151218 -0.00958486 0.275891
-0.151217 -0.00958171 0.302604
-0.151217 -0.00957902 0.325488
-0.15377 -0.0019279 -0.377371
-0.153151 -0.0019117 0.355377
-0.165399 0.00572464 -0.411472
-0.1742 0.00567656 -0.388976
-0.167599 0.00565695 0.3809
-0.172765 0.0056282 0.401537
-0.156091 0.00961755 -0.364948
-0.156089 0.00961393 -0.334074
-0.156088 0.00961166 -0.31479
-0.156085 0.00960805 -0.283955
-0.156084 0.00960579 -0.264694
-0.156082 0.00960217 -0.233896
-0.156081 0.00959992 -0.214659
-0.156078 0.00959631 -0.183899
-0.156077 0.00959405 -0.164686
-0.156075 0.00959045 -0.133963
-0.156073 0.0095882 -0.114773
-0.156071 0.0095846 -0.0840877
-0.15607 0.00958235 -0.0649211
-0.156068 0.00957876 -0.0342733
-0.156066 0.00957561 -0.00747531
-0.156064 0.00957292 0.0154804
-0.156062 0.00956933 0.0460679
-0.15606 0.00956709 0.0651735
-0.156058 0.0095635 0.0957238
-0.156056 0.00955992 0.126251
-0.156055 0.00955768 0.145319
-0.156052 0.00955411 0.17581
-0.15605 0.00955053 0.206277
-0.156049 0.0095483 0.225308
-0.156047 0.00954473 0.255738
-0.156045 0.00954116 0.286146
-0.156043 0.00953894 0.305139
-0.156041 0.00953537 0.33551
-0.159866 0.0246955 0.364629
-0.160914 0.028726 -0.367099
-0.160911 0.028718 -0.344043
-0.160909 0.0287112 -0.324839
-0.160905 0.0287005 -0.294132
-0.160903 0.0286938 -0.274952
-0.160898 0.028683 -0.244282
-0.160895 0.0286736 -0.217465
-0.160892 0.0286656 -0.194493
-0.160888 0.0286548 -0.163883
-0.160885 0.0286481 -0.144764
-0.160882 0.0286374 -0.114192
-0.160878 0.0286281 -0.0874598
-0.160875 0.02862 -0.0645606
-0.160871 0.0286093 -0.0340483
-0.160869 0.0286027 -0.0149897
-0.160865 0.028592 0.0154856
-0.160861 0.0285813 0.0459382
-0.160857 0.028572 0.0725655
-0.160854 0.028564 0.0953752
-0.16085 0.0285533 0.125768
-0.160846 0.0285427 0.156138
-0.160844 0.028536 0.175108
-0.16084 0.0285254 0.205442
-0.160836 0.0285148 0.235753
-0.160832 0.0285042 0.266041
-0.160828 0.0284949 0.292525
-0.160825 0.028487 0.315212
-0.164496 0.0362866 -0.411831
-0.173684 0.035969 -0.389172
-0.162638 0.0360011 0.363739
-0.162636 0.0359961 0.375045
-0.173357 0.0356274 0.397596
-0.163305 0.0397754 0.344687
-0.164733 0.0477078 -0.365745
-0.164732 0.0477011 -0.354256
-0.164728 0.0476855 -0.327461
-0.164724 0.0476721 -0.304508
-0.16472 0.0476542 -0.273924
-0.164717 0.0476431 -0.25482
-0.164713 0.0476253 -0.224273
-0.164708 0.0476075 -0.193749
-0.164706 0.0475963 -0.174682
-0.164701 0.0475786 -0.144195
-0.164697 0.0475608 -0.113731
-0.164694 0.0475497 -0.094702
-0.164689 0.0475319 -0.0642745
-0.164685 0.0475142 -0.0338697
-0.164682 0.0475031 -0.0148782
-0.165342 0.0512527 0.0154905
-0.165338 0.0512336 0.0458171
-0.165333 0.0512145 0.0761212
-0.16533 0.0512026 0.0950497
-0.165326 0.0511835 0.125317
-0.165321 0.0511645 0.155562
-0.165316 0.0511455 0.185784
-0.165312 0.0511264 0.215984
-0.165307 0.0511074 0.246162
-0.165304 0.0510956 0.265011
-0.1653 0.0510766 0.295152
-0.16387 0.0554169 -0.412079
-0.166617 0.0585499 0.324893
-0.166615 0.0585417 0.336168
-0.173168 0.0662907 -0.389367
-0.167928 0.0659901 0.365791
-0.173293 0.0656363 0.39389
-0.169439 0.0658634 0.406473
-0.168726 0.0703463 -0.36433
-0.16872 0.07032 -0.333814
-0.168716 0.0703036 -0.314753
-0.16871 0.0702774 -0.284273
-0.168704 0.0702512 -0.253817
-0.168701 0.0702349 -0.234793
-0.168695 0.0702087 -0.204373
-0.168689 0.0701825 -0.173976
-0.168685 0.0701662 -0.154989
-0.168679 0.0701401 -0.124629
-0.168674 0.070114 -0.0942912
-0.168668 0.0700879 -0.063976
-0.168663 0.0700651 -0.0374687
-0.168658 0.0700456 -0.0147619
-0.168653 0.0700196 0.0154941
-0.168647 0.0699935 0.0457276
-0.168641 0.0699675 0.0759387
-0.168635 0.0699416 0.106127
-0.16863 0.0699189 0.132524
-0.168626 0.0698994 0.155136
-0.16862 0.0698735 0.185266
-0.168614 0.0698476 0.215374
-0.168608 0.0698217 0.245459
-0.168602 0.0697958 0.275522
-0.170568 0.0809429 0.297539
-0.170563 0.0809205 0.320018
-0.170559 0.0809018 0.338741
-0.162872 0.0860712 -0.412475
-0.172845 0.0852566 -0.38949
-0.164565 0.0850618 0.412
-0.171741 0.0891166 -0.370873
-0.171738 0.0890957 -0.351847
-0.171734 0.0890707 -0.329028
-0.171732 0.0890499 -0.310022
-0.171729 0.0890291 -0.291025
-0.171726 0.0890082 -0.272037
-0.171722 0.0889833 -0.249262
-0.171719 0.0889625 -0.230293
-0.171717 0.0889417 -0.211333
-0.171714 0.0889209 -0.192382
-0.17171 0.088896 -0.169653
-0.171707 0.0888753 -0.150721
-0.171704 0.0888545 -0.131798
-0.171701 0.0888297 -0.109102
-0.171698 0.0888089 -0.090199
-0.171695 0.0887882 -0.0713044
-0.171692 0.0887675 -0.0524186
-0.171689 0.0887427 -0.0297673
-0.171686 0.088722 -0.0109008
-0.171683 0.0887014 0.00795682
-0.17168 0.0886766 0.0305744
-0.171677 0.0886559 0.0494127
-0.171674 0.0886353 0.0682422
-0.17167 0.0886105 0.0908261
-0.171667 0.0885899 0.109636
-0.171664 0.0885693 0.128438
-0.171661 0.0885446 0.150988
-0.171658 0.088524 0.16977
-0.171656 0.0885034 0.188544
-0.171652 0.0884787 0.211061
-0.171649 0.0884582 0.229815
-0.171646 0.0884376 0.248561
-0.171643 0.088413 0.271044
-0.172391 0.0957626 0.360607
-0.172388 0.0957404 0.379279
-0.172784 0.0995749 0.285739
-0.172779 0.099538 0.315654
-0.162248 0.105259 -0.412723
-0.173661 0.107889 -0.373978
-0.173658 0.107864 -0.354985
-0.173653 0.107823 -0.324614
-0.173647 0.107783 -0.294266
-0.173642 0.107743 -0.263941
-0.173638 0.107718 -0.244999
-0.173633 0.107678 -0.21471
-0.173628 0.107637 -0.184444
-0.173622 0.107597 -0.154201
-0.173617 0.107557 -0.12398
-0.173612 0.107517 -0.0937814
-0.17399 0.111224 -0.0748862
-0.173985 0.111183 -0.0447351
-0.173979 0.111141 -0.0146064
-0.173974 0.1111 0.0154999
-0.173968 0.111059 0.0455838
-0.173963 0.111017 0.0756453
-0.173957 0.110976 0.105685
-0.173952 0.110935 0.135701
-0.173947 0.110894 0.165696
-0.173941 0.110853 0.195668
-0.173936 0.110812 0.225618
-0.17393 0.11077 0.255546
-0.172054 0.115661 -0.393597
-0.168519 0.114889 0.406807
-0.174684 0.118153 0.285261
-0.174678 0.118109 0.315124
-0.174673 0.118065 0.344964
-0.175428 0.125455 0.355908
-0.175954 0.13031 -0.365559
-0.175952 0.130292 -0.354188
-0.175946 0.130243 -0.323883
-0.175942 0.130213 -0.304954
-0.175935 0.130165 -0.274685
-0.175929 0.130116 -0.244439
-0.175923 0.130068 -0.214215
-0.175917 0.130019 -0.184014
-0.175911 0.129971 -0.153835
-0.175907 0.129941 -0.134985
-0.175901 0.129892 -0.104843
-0.175895 0.129844 -0.0747232
-0.175888 0.129796 -0.0446258
-0.175882 0.129748 -0.0145507
-0.175876 0.129699 0.015502
-0.17587 0.129651 0.0455323
-0.175864 0.129603 0.0755404
-0.175858 0.129555 0.105526
-0.175852 0.129507 0.13549
-0.175845 0.129459 0.165431
-0.17584 0.129411 0.195351
-0.175833 0.129363 0.225248
-0.175827 0.129315 0.255123
-0.152876 0.144703 -0.373821
-0.152869 0.14467 -0.354464
-0.152859 0.144623 -0.327378
-0.15285 0.144584 -0.304176
-0.152843 0.14455 -0.284851
-0.152832 0.144497 -0.253949
-0.152825 0.144464 -0.234647
-0.152813 0.144411 -0.203782
-0.152807 0.144378 -0.184503
-0.152795 0.144325 -0.153674
-0.152788 0.144291 -0.134418
-0.152779 0.144245 -0.107474
-0.15277 0.144205 -0.0843935
-0.15276 0.144159 -0.0574819
-0.152752 0.144119 -0.0344286
-0.152741 0.144066 -0.00371052
-0.152734 0.144033 0.0154768
-0.152723 0.143981 0.0461582
-0.152716 0.143948 0.0653227
-0.152705 0.143895 0.0959676
-0.152698 0.143862 0.115109
-0.152687 0.143809 0.145718
-0.152676 0.143756 0.176304
-0.152669 0.143724 0.195409
-0.152658 0.143671 0.225958
-0.152651 0.143638 0.24504
-0.15264 0.143586 0.275554
-0.152629 0.143533 0.306045
-0.152622 0.1435 0.32509
-0.152612 0.143448 0.355545
-0.154636 0.156027 -0.373191
-0.15463 0.155991 -0.353864
-0.154625 0.155955 -0.334547
-0.154615 0.155898 -0.303657
-0.15461 0.155861 -0.284363
-0.154602 0.155811 -0.257366
-0.154595 0.155768 -0.234239
-0.154589 0.155732 -0.214977
-0.15458 0.155674 -0.184175
-0.154575 0.155638 -0.164936
-0.154566 0.155581 -0.134172
-0.15456 0.155545 -0.114956
-0.154551 0.155487 -0.0842286
-0.154543 0.155437 -0.0573608
-0.154536 0.155394 -0.034345
-0.154527 0.155337 -0.00367716
-0.154521 0.155301 0.0154787
-0.154512 0.155244 0.0461098
-0.154507 0.155208 0.0652428
-0.154498 0.155151 0.0958372
-0.15449 0.155101 0.122589
-0.154484 0.155058 0.145505
-0.154475 0.155001 0.17604
-0.155794 0.166226 0.202514
-0.155788 0.16618 0.225358
-0.15578 0.166119 0.255797
-0.155772 0.166058 0.286213
-0.155768 0.166019 0.305212
-0.15576 0.165958 0.335592
-0.155752 0.165897 0.36595
-0.156396 0.175007 -0.372561
-0.156511 0.18262 -0.345509
-0.156511 0.182594 -0.333938
-0.156511 0.18255 -0.314661
-0.156413 0.18634 -0.283864
-0.156414 0.186296 -0.264609
-0.156414 0.186225 -0.23382
-0.156414 0.186181 -0.214588
-0.156415 0.186111 -0.183837
-0.156415 0.186067 -0.164629
-0.156415 0.185996 -0.133916
-0.156416 0.185952 -0.114732
-0.156416 0.185882 -0.0840557
-0.156417 0.185838 -0.0648951
-0.156417 0.185768 -0.0342569
-0.156418 0.185707 -0.00746749
-0.156418 0.185654 0.0154808
-0.156419 0.185584 0.0460583
-0.156419 0.18554 0.0651575
-0.156419 0.18547 0.0956976
-0.15642 0.1854 0.126215
-0.15642 0.185357 0.145276
-0.156421 0.185287 0.175756
-0.156421 0.185217 0.206212
-0.156421 0.185173 0.225236
-0.156422 0.185104 0.255656
-0.156422 0.185034 0.286052
-0.155872 0.192717 0.305185
-0.155878 0.192643 0.335558
-0.155884 0.19257 0.365908
-0.15228 0.206556 -0.374034
-0.152301 0.206503 -0.354657
-0.152336 0.206419 -0.323673
-0.152357 0.206366 -0.304321
-0.152379 0.206313 -0.284979
-0.152413 0.206228 -0.254053
-0.152435 0.206175 -0.234737
-0.152469 0.206091 -0.203851
-0.15249 0.206038 -0.184561
-0.152524 0.205954 -0.153717
-0.152545 0.205902 -0.134452
-0.152571 0.205829 -0.107498
-0.152596 0.205766 -0.0844096
-0.152626 0.205692 -0.057491
-0.152652 0.205629 -0.0344333
-0.152686 0.205545 -0.00371155
-0.152707 0.205493 0.0154768
-0.152741 0.205409 0.0461577
-0.152762 0.205356 0.0653206
-0.152797 0.205273 0.0959609
-0.152818 0.20522 0.115098
-0.15285 0.205137 0.145698
-0.152883 0.205054 0.176273
-0.152905 0.205001 0.19537
