ply
format ascii 1.0
comment Created by Open3D
element vertex 1664
property double x
property double y
property double z
end_header
-0.197156 -0.162992 0.0180694
-0.163128 0.0426876 0.403874
0.207707 0.058685 -0.403274
0.191953 -0.109574 -0.403874
0.184628 -0.157701 0.156775
-0.147414 0.19761 0.15001
-0.207707 -0.127718 -0.0486124
0.117565 -0.128374 -0.208179
-0.1695 -0.128374 0.127609
0.207707 -0.12704 -0.0916205
0.119955 0.19761 0.380955
-0.177654 -0.128374 0.140915
0.207707 -0.0584543 -0.385422
0.207707 0.0979274 -0.364496
-0.109939 0.19761 0.287395
-0.00961137 -0.116835 -0.0570738
0.088842 -0.117604 0.380796
-0.184628 -0.138143 -0.21413
-0.161492 -0.122495 0.23944
-0.207707 -0.128781 0.249548
-0.0998155 0.19761 0.0677974
-0.165804 0.19761 -0.213352
0.152131 0.19761 -0.0442356
0.161549 0.0319429 -0.363361
0.0918402 0.204821 0.125515
0.207707 0.205038 0.164245
0.0939564 0.19761 0.108582
-0.0354509 -0.116835 0.00673146
0.0221982 0.19761 -0.0203507
0.0140119 0.204821 -0.237474
-0.00525633 0.19761 -0.0162602
0.207707 -0.131407 -0.137093
-0.207707 0.19048 0.123037
-0.191883 0.143826 0.357717
0.0872406 0.209149 -0.401648
-0.0699021 0.19761 0.117386
0.0109345 -0.123428 0.170204
-0.153438 0.18539 0.380796
0.12218 -0.116835 -0.403717
0.00549038 0.19761 0.116748
0.0175511 -0.150985 0.380796
0.161549 0.0863356 0.379426
-0.133069 -0.160731 0.403874
-0.131559 0.19761 0.0402641
0.0331854 0.19761 -0.00466029
-0.184628 0.157025 -0.104996
0.0165409 -0.116835 0.216309
0.0768616 -0.123844 -0.0115392
0.106249 0.204821 0.0270415
0.185601 -0.162992 -0.0751433
0.0182294 0.19761 0.0574902
0.0932958 -0.142068 0.380796
-0.14441 0.204821 -0.242068
-0.0654118 0.19761 -0.0640143
-0.182922 -0.128374 0.229236
0.207707 -0.148169 0.263926
0.0234561 -0.128374 0.0306169
0.184628 0.170995 -0.2371
-0.145733 -0.116835 -0.117256
0.104502 0.19761 0.0744668
-0.106471 0.19761 -0.283962
0.184628 0.165409 -0.319405
-0.130117 -0.15867 0.403874
-0.100291 0.19761 0.244397
0.0980617 0.16943 0.380796
0.184628 -0.134563 0.285793
0.087065 -0.116835 0.153669
-0.0866623 0.19761 0.259271
-0.0266708 0.204821 0.26194
-0.0976215 -0.116835 0.272831
-0.207707 0.177211 -0.0238718
-0.0236234 -0.116835 0.291013
0.207707 0.124624 0.401426
0.053457 0.204821 0.303097
-0.196205 0.209149 -0.143094
-0.184628 -0.123917 -0.222701
0.178169 -0.0293368 0.403874
-0.207707 -0.161372 0.100747
0.10383 0.19761 -0.099787
-0.207707 -0.122905 0.364385
-0.112085 -0.128374 -0.0544035
-0.129424 -0.128374 -0.31139
-0.179723 0.0799892 0.403874
-0.20468 -0.0731559 0.357717
0.0941026 0.204821 -0.380829
-0.162801 0.204821 0.180916
-0.166986 -0.116835 0.00775896
-0.207707 -0.136467 -0.251903
-0.207707 0.15422 0.133811
0.00272464 -0.128374 -0.105416
0.0434033 -0.116835 -0.337846
0.196167 0.207221 0.170003
0.0898694 0.19761 0.0827087
-0.105177 -0.128374 -0.273783
0.184628 -0.159206 -0.196622
0.0278008 -0.128374 0.143251
0.192456 -0.116835 -0.0473188
0.173936 -0.116835 0.276991
0.0664455 0.19761 0.230484
-0.0901445 -0.116835 0.0703886
0.101275 0.19761 -0.11809
-0.184628 0.17594 0.161329
-0.0350185 -0.122438 0.331754
0.118876 -0.128374 0.351263
-0.20568 -0.116835 -0.0920917
0.00227074 0.20713 0.0109232
0.185357 -0.162992 -0.0930744
0.184628 0.192635 -0.26865
-0.175089 0.204821 -0.288145
0.197154 -0.116835 -0.227451
0.0595312 0.19761 0.337448
0.201781 0.209149 0.149168
0.0885811 0.204821 -0.228102
-0.207707 0.180657 -0.166579
-0.197138 -0.204356 0.357717
-0.090845 0.204821 0.337216
0.146881 0.204821 0.181791
0.0240339 -0.128374 -0.26971
0.0429423 0.19761 0.234814
-0.0958831 0.15274 -0.403874
0.10036 0.204821 -0.137813
0.00248949 -0.141029 0.403874
-0.184628 -0.139997 -0.0446445
-0.184628 -0.158785 -0.0378656
-0.0657176 -0.116835 0.00567079
0.150039 -0.116835 -0.199776
0.184628 -0.151509 -0.33391
-0.11351 -0.128374 0.220186
-0.121415 0.204821 -0.0889771
-0.184628 0.171805 -0.0958245
-0.199643 -0.162992 -0.279995
-0.167891 0.19761 0.373893
0.112355 -0.128374 0.339607
-0.0699485 -0.128374 0.206757
-0.0497597 0.204821 0.314089
0.149923 0.19761 -0.378787
-0.16155 0.0429772 -0.368895
0.0677754 -0.128374 -0.253506
-0.16155 -0.088291 -0.394388
-0.162875 0.149254 0.403874
-0.180317 -0.116835 0.140146
-0.0391797 0.204821 0.385166
0.111852 0.204821 -0.112314
0.0374816 0.154565 -0.380795
0.184628 0.191785 0.236518
-0.139622 -0.116835 0.168753
0.0922363 -0.128374 -0.0432727
-0.00365552 -0.137774 0.403874
-0.139234 0.19761 -0.368513
0.207707 0.123476 0.367155
-0.140327 -0.128374 -0.331003
-0.0177304 0.19761 0.294032
-0.174713 0.19761 0.270127
-0.129647 0.204821 -0.206208
-0.184628 0.17926 -0.173396
0.179262 -0.105555 -0.357717
-0.189465 0.204821 -0.151191
-0.102022 0.204821 0.309995
-0.0281754 -0.116835 0.381202
0.207707 -0.143984 -0.026396
0.179116 0.0492884 -0.357717
0.046457 0.204821 -0.15553
-0.189687 0.151453 -0.0375217
-0.19822 -0.0280796 -0.357717
0.161549 0.0869759 0.394516
0.0296018 0.19761 -0.367427
-0.16155 0.0431139 -0.382285
-0.184628 0.161306 0.0722434
-0.0884131 0.204821 0.283779
-0.0579062 -0.162992 -0.390737
-0.175318 0.204821 -0.22178
0.136076 0.19761 0.0228933
0.15567 -0.128374 0.264673
-0.153383 -0.116835 -0.351838
-0.0354684 0.20713 0.0357831
0.100481 0.204821 0.050106
-0.184628 -0.145875 -0.158054
0.184628 0.196681 0.24586
0.207707 -0.132967 0.29431
0.0123706 -0.116835 0.129062
0.207707 0.172161 -0.131408
0.196528 -0.116835 0.0374222
-0.201728 -0.162992 -0.300467
0.107988 0.204821 -0.340439
0.203929 -0.116835 -0.293941
-0.117529 -0.116835 0.279888
-0.167002 -0.128374 0.0168777
-0.199092 0.209149 -0.365869
-0.207707 -0.153929 0.334949
-0.159691 -0.119181 0.354833
-0.207707 -0.119455 0.270558
0.168593 -0.146623 0.403874
-0.0873382 0.19761 0.0565035
0.0938284 0.151453 -0.395741
0.20152 0.209149 0.0588391
-0.206342 0.209149 0.0472314
0.165568 0.191371 0.403874
0.207707 -0.139064 -0.282437
-0.172765 0.158141 -0.357717
0.0522395 0.19761 0.368518
-0.0872504 0.204821 0.172676
-0.155799 -0.137037 0.403874
0.0956889 -0.128374 -0.345192
-0.167607 0.19761 -0.0145064
-0.110207 -0.116835 0.271474
0.122817 -0.150166 -0.380795
0.05558 0.19761 -0.36896
-0.207707 -0.142645 0.108617
-0.153841 0.19761 -0.170981
-0.0565866 -0.128374 0.0239321
-0.16155 -0.183646 0.380208
-0.137326 0.19761 0.212614
-0.139309 0.204821 0.158701
0.150428 -0.116835 0.344016
-0.184628 -0.117417 -0.291366
-0.207707 -0.162877 0.0559543
0.184628 0.153669 0.231372
0.159533 -0.128374 0.303104
-0.207707 0.200104 0.361572
-0.184628 -0.15487 0.041607
0.0823905 -0.116835 0.276906
0.0185099 0.19761 0.0992688
-0.0641552 0.159458 0.380796
-0.187624 0.0482904 0.403874
0.070955 -0.116835 0.386964
0.207707 0.163536 0.359504
-0.155922 0.19761 -0.27497
0.190803 -0.116835 0.218133
-0.184628 0.158825 -0.260414
0.207707 0.158379 -0.0214705
0.0314909 0.204821 0.26718
-0.177153 0.204821 0.0301298
0.180814 -0.128374 -0.144902
-0.10371 0.204821 0.289666
0.0292356 -0.116835 -0.208569
-0.0548022 -0.121038 0.308676
0.054939 0.151453 0.39781
-0.16155 0.0938349 0.383107
0.0660072 0.204821 0.257702
0.184628 0.165141 -0.140693
-0.0637109 -0.116835 0.0206644
-0.184628 0.171624 -0.349555
0.0929705 0.204821 -0.33345
0.0698746 0.204821 -0.217825
0.189025 -0.0330082 0.403874
0.207707 0.170739 -0.138001
-0.112226 -0.118173 0.308676
-0.18148 0.19761 -0.168157
0.181119 -0.128374 0.125148
-0.137389 0.204821 0.107587
-0.0515131 0.204821 0.0125041
-0.207707 0.00362314 0.360673
0.184628 0.186213 -0.196646
-0.182325 0.204821 0.391528
-0.1485 0.19761 0.136424
-0.0365533 -0.128374 -0.275476
0.135013 0.204821 -0.0848282
0.207707 -0.139734 -0.319697
0.150742 0.204821 -0.351585
0.178406 0.0239383 -0.403874
0.132213 0.19761 -0.221932
0.085871 0.204821 0.200257
0.181289 -0.128374 -0.337945
-0.0437958 0.204821 0.0580587
0.0253245 0.204821 -0.0740286
0.0310039 0.19761 0.118928
0.161549 -0.00948709 -0.381033
0.190437 -0.162992 -0.104327
0.207707 -0.136382 -0.260768
0.162994 -0.0101146 -0.357717
0.148556 0.20379 0.403874
-0.0765471 -0.116835 -0.0670195
0.126551 -0.127386 -0.380795
-0.184628 -0.159166 -0.278401
0.179772 0.204821 0.260742
-0.0621218 0.204821 -0.29553
0.189836 -0.162992 -0.116424
0.0387122 0.204821 0.313203
-0.103384 -0.128374 0.161787
0.189711 0.204821 -0.349725
-0.190431 0.204821 -0.0765791
-0.13483 0.19761 -0.139631
0.0252626 -0.12515 -0.242325
0.184965 -0.0274293 -0.403874
-0.150159 -0.116835 -0.393395
-0.0402307 0.204821 -0.222513
0.207707 0.157995 -0.209158
-0.199941 0.168806 -0.403874
-0.0869317 -0.116835 -0.191309
0.0877932 -0.128374 -0.35218
0.10905 -0.128374 -0.338149
-0.18558 0.160201 0.403874
-0.167154 0.19761 -0.1938
0.207707 0.15587 0.171134
0.1943 0.00771797 0.357717
0.187429 0.151453 -0.302867
-0.0765365 0.19761 0.320332
-0.183614 0.204821 0.145444
-0.177897 0.19761 -0.225892
-0.184628 0.197389 -0.28215
-0.0372702 0.204821 0.298515
-0.207707 -0.153635 0.18657
-0.0128084 0.19761 0.170205
0.146888 0.19761 -0.215023
-0.186494 -0.0426498 -0.403874
0.0915108 0.204821 0.389014
0.198344 -0.162992 0.117602
-0.111868 -0.116835 0.222574
-0.16567 0.19761 0.185971
-0.139721 0.19761 -0.376376
0.0313061 0.204821 -0.328522
-0.0230095 -0.116835 -0.28309
-0.184628 -0.137319 0.239373
0.0709968 0.204821 -0.101072
0.0363107 -0.116835 -0.0618916
-0.0444889 0.19761 -0.11005
0.0464896 0.19761 -0.327833
-0.156876 0.204821 -0.233166
-0.207707 0.164245 0.118436
0.0660875 -0.116835 -0.391972
-0.0538937 0.199584 -0.403874
-0.171136 -0.128374 -0.319858
-0.207707 -0.151217 -0.27696
-0.00809158 0.18524 0.403874
0.0069011 0.20713 -0.0431936
-0.0278695 -0.116835 -0.400942
-0.207707 -0.193436 -0.377375
0.184628 -0.153171 -0.354935
0.122089 0.204821 -0.0808289
0.161549 0.0788658 -0.401249
-0.147372 -0.116835 -0.215257
0.184628 0.192839 -0.291173
-0.190319 0.151453 -0.295051
0.184628 0.168232 0.0766144
0.184628 -0.138189 0.0162264
0.193345 -0.188601 0.357717
-0.16155 -0.0162304 -0.360798
0.207707 -0.144797 0.236836
0.193352 0.204821 0.0880086
-0.131545 0.19761 0.0619363
0.180987 -0.209149 0.400949
0.161549 0.127722 0.376914
0.00341288 -0.123598 -0.403874
-0.0106975 -0.128374 -0.343693
0.171871 0.19761 -0.0130524
0.161549 0.0195414 -0.389423
0.185825 0.0514418 -0.357717
-0.0778252 -0.127222 -0.380795
0.0964277 0.204821 -0.247123
0.207707 0.18482 0.278371
-0.188406 -0.162992 0.271858
0.135178 -0.116835 0.285003
0.184628 0.183805 -0.092565
-0.176914 0.19761 -0.243108
-0.0700159 0.154502 -0.380795
0.0174264 -0.128374 -0.0477127
-0.0960773 0.207079 0.403874
-0.0551538 0.204821 0.0207994
-0.194048 0.0426471 0.403874
-0.131151 0.204821 -0.156619
0.198211 -0.162992 0.315109
-0.0223433 -0.116835 0.301904
0.1099 0.19761 -0.242935
0.0908331 0.196955 -0.380795
-0.127411 0.204821 -0.136264
0.161549 0.0577993 -0.370905
-0.16155 0.187884 0.363447
0.0971742 -0.116835 -0.330616
-0.187793 -0.162992 -0.269282
0.128917 0.153026 -0.380795
-0.0662897 -0.128374 0.221576
-0.206963 0.0731538 -0.403874
0.173255 0.19761 0.163772
-0.16155 -0.0724199 -0.397147
-0.16155 -0.141469 -0.370928
0.0648479 -0.162992 0.391872
-0.0668827 -0.12669 -0.0807747
-0.138578 0.204821 -0.239877
0.207707 0.00353973 -0.397021
-0.203819 -0.116835 -0.200756
-0.0011885 0.19761 -0.256507
0.207707 0.191586 0.0153978
-0.043701 0.204821 -0.127469
-0.207707 0.1704 -0.245022
0.138838 0.204821 0.231237
0.114785 -0.124731 0.262518
0.207707 0.0458784 -0.365749
0.0153721 0.19761 -0.314638
0.0938063 0.19761 -0.0649296
0.0749448 -0.128374 0.300785
-0.0143424 0.209149 0.395975
0.071657 -0.128374 -0.14506
0.0273141 -0.157621 -0.380795
0.207707 -0.142056 -0.290196
-0.0167274 0.204821 -0.0949246
0.00332496 0.204821 -0.232744
0.207442 -0.200717 0.357717
0.207707 0.162689 0.00145912
0.0562765 0.204821 -0.216001
-0.0262882 0.204821 -0.389979
-0.184628 -0.146414 0.0144065
0.207707 -0.125443 -0.179489
-0.207707 0.207012 -0.338402
-0.0337935 0.19761 0.044782
-0.0100734 -0.128374 -0.0574609
-0.101762 -0.128374 0.229299
0.207707 0.159181 0.149345
-0.183312 0.204821 0.325534
-0.0406217 -0.161754 0.403874
0.0546429 0.204821 -0.22177
0.0305482 0.19761 0.332591
0.142314 0.19761 -0.379016
0.1345 -0.128374 0.124533
0.0908471 -0.128374 0.166005
0.00415526 0.204821 0.259371
-0.0745686 0.201225 -0.403874
0.0420097 -0.145013 0.380796
0.00635138 -0.128374 -0.0661071
0.0236485 0.204821 -0.17514
0.207707 0.171095 0.169387
-0.184628 0.166221 -0.110519
0.184628 0.18848 -0.073677
0.169701 -0.131579 -0.403874
-0.167071 0.103439 -0.403874
0.182822 -0.0819253 -0.403874
0.131903 -0.116835 0.299907
-0.18238 0.204821 0.0424366
-0.175897 -0.116835 -0.141728
-0.0213525 -0.117341 -0.403874
0.0314593 0.19761 -0.216761
-0.14987 0.19761 0.361056
0.184628 -0.129311 -0.347537
-0.131533 -0.116835 -0.000669251
0.16075 0.170813 -0.403874
-0.00452337 0.155671 -0.380795
-0.023113 0.19761 -0.340426
0.165088 0.023558 0.403874
0.152807 0.19761 0.15421
-0.123137 -0.128374 -0.216
-0.16155 0.0956764 0.389614
0.177871 0.0591342 -0.403874
0.0146686 -0.162992 -0.403831
-0.0865686 -0.128374 -0.248931
-0.131998 -0.128374 0.0692133
0.113469 0.19761 0.338775
-0.0989414 -0.128374 0.129787
0.184628 0.160528 0.0666357
-0.184628 -0.139122 -0.0922838
0.122046 0.19761 0.342379
-0.18262 -0.142566 -0.403874
0.114864 -0.116835 0.0148263
0.0161918 -0.128374 -0.347161
0.175321 0.19761 -0.276595
0.0826854 -0.126674 0.331754
0.046077 0.204821 -0.243057
0.0481451 0.204821 0.114683
0.0459137 -0.116835 -0.10745
0.0860529 0.204821 -0.131543
-0.184628 0.1682 -0.238232
-0.207707 0.187126 0.128416
-0.0980885 0.19761 0.238826
0.192676 -0.164603 -0.403874
0.164607 0.204821 0.0488666
0.187811 -0.116835 -0.19391
-0.0979516 -0.126112 0.354833
0.112796 -0.149191 -0.403874
-0.176063 -0.116835 -0.191887
-0.063494 -0.125202 -0.242325
0.0772999 0.204821 0.380506
-0.184628 0.189484 -0.0200558
-0.207707 -0.102829 0.387335
-0.132906 -0.128119 0.23944
0.141807 0.204821 0.145194
-0.207707 -0.159465 -0.202444
0.207707 0.196407 -0.243088
0.0665196 0.19761 0.127844
0.0336118 0.204821 0.222602
0.186624 -0.162992 -0.121144
-0.197655 -0.162992 -0.225178
0.186111 0.204821 0.264899
0.172548 -0.0105018 0.357717
0.0407992 0.19761 0.203486
0.13349 0.19761 0.13583
-0.207707 -0.137745 0.0935998
-0.184628 0.190238 -0.0166522
0.207707 -0.132811 0.231801
0.207593 0.110536 0.357717
-0.0279778 0.19761 -0.370013
-0.124553 -0.128374 0.28578
0.106921 0.19761 0.00742574
0.0699041 -0.116835 0.0136667
0.057466 -0.128374 -0.310787
-0.0699608 0.204821 0.235173
-0.0275886 0.19761 0.212507
0.169013 0.0986459 -0.403874
0.207707 0.195823 0.381554
0.0832723 -0.116835 -0.110926
-0.0374793 -0.128374 0.19348
0.17452 0.19761 -0.176082
0.0704487 0.204821 0.246672
0.0599188 0.19761 0.313489
0.0348951 -0.128374 -0.350322
0.163864 0.204821 -0.370913
0.085521 -0.128374 0.333471
-0.0173345 -0.127368 -0.0115392
0.20329 0.0889474 0.403874
-0.0255848 -0.116835 -0.185126
0.202632 -0.162992 0.144543
0.184628 -0.136409 -0.209724
0.12818 -0.128374 0.199787
-0.207707 0.208136 0.400283
-0.134721 0.204821 0.128402
0.0966665 0.19761 0.175029
-0.142971 -0.116835 -0.177801
0.0874451 0.19761 -0.26934
-0.0220285 -0.116835 -0.145544
0.184628 -0.1302 0.325917
-0.156093 0.19761 0.0106142
0.0304953 -0.116835 -0.123734
-0.0681836 0.209149 0.396468
-0.0619643 0.19761 0.171969
-0.124278 0.19761 0.281509
0.190086 -0.116835 0.299038
0.0237072 -0.116835 0.274384
0.14097 -0.116835 -0.0762907
0.132181 0.204821 0.0661877
0.126659 0.19761 0.08506
0.1312 0.19761 0.215576
-0.046819 -0.12215 -0.0807747
0.161549 0.0994733 -0.384486
0.165913 -0.116835 0.00741278
-0.201469 0.0884283 0.403874
-0.197216 -0.0783998 -0.357717
-0.136814 -0.160762 0.380796
-0.16356 0.204821 0.279761
-0.207707 -0.141037 0.139955
0.161549 -0.021964 0.40022
-0.16155 -0.186547 -0.37134
-0.0107774 -0.116835 0.0789275
0.168182 -0.209149 -0.365761
-0.133992 0.179745 -0.403874
0.184628 -0.139588 -0.300146
0.0656463 -0.127837 0.403874
0.205366 -0.183773 -0.357717
0.184628 0.156419 -0.180135
-0.0905818 0.204821 -0.0874458
0.0253059 0.19761 0.121636
0.0864453 -0.116835 0.289581
0.161549 0.183377 0.377514
-0.0498215 0.19761 0.171087
-0.0275347 0.204821 0.23749
0.00289787 0.19761 0.0769761
0.039391 -0.124807 -0.380795
0.0369139 -0.128374 -0.129215
-0.184628 0.152717 -0.304244
0.207707 -0.00482006 -0.383006
-0.198572 -0.202118 -0.357717
-0.132745 -0.126486 -0.356275
0.207707 0.0612604 0.39014
-0.153535 0.19761 -0.198468
0.184628 0.165042 -0.130296
0.00988239 0.193074 0.380796
-0.125488 0.204821 0.212015
0.178275 -0.128374 0.140509
-0.115257 0.204821 0.151316
0.0921273 -0.116835 -0.268262
-0.118146 0.204821 0.194185
-0.184628 0.190827 -0.199201
-0.170831 -0.13984 0.357717
-0.0957821 0.204821 0.302641
-0.184628 -0.158118 -0.108829
-0.207707 -0.162553 -0.22361
-0.0858287 0.204821 -0.154849
-0.10605 0.158728 -0.380795
-0.207707 0.203707 0.304604
-0.16155 0.106336 -0.373038
0.207707 0.197511 0.349047
-0.00421131 -0.117093 0.193283
-0.0114898 -0.128374 0.0647145
0.048152 0.204821 0.00968126
0.184628 0.195905 0.352506
-0.184628 -0.160558 -0.175163
-0.168688 0.204821 0.27283
-0.0745925 0.19761 0.375872
-0.0443084 -0.128374 0.0242535
-0.0193492 0.19761 -0.128888
0.17958 0.204821 -0.239448
-0.0298164 -0.128374 0.138977
0.0775675 -0.116835 0.231316
-0.108305 0.19761 0.175211
0.1688 -0.0360557 -0.357717
-0.207707 0.0974039 -0.369261
-0.0895581 0.19761 0.285616
-0.11291 -0.117361 -0.173089
-0.197047 -0.162992 0.207884
0.141021 -0.128374 -0.265749
-0.119931 0.204821 -0.108305
-0.207707 0.190993 0.154778
-0.0416025 0.184505 -0.380795
-0.143942 0.19761 0.293628
0.0198639 0.204821 0.381856
0.00876896 0.20713 -0.0128722
0.00625086 -0.116835 -0.120195
-0.17238 0.204821 -0.340235
0.207707 0.180444 0.0160515
-0.00832963 -0.116835 -0.14324
0.19426 0.0492195 0.357717
-0.14578 0.204821 0.390125
0.170292 0.204821 -0.287531
-0.171168 -0.116835 -0.319366
0.0742556 -0.116835 0.22504
0.159991 -0.128374 0.280534
-0.184628 -0.133413 -0.232966
-0.0383673 -0.128374 0.332444
0.207707 -0.155965 0.249349
0.0412541 0.204821 0.27255
-0.204123 -0.116835 0.308101
-0.0908623 0.204821 -0.0338986
-0.0873631 0.204821 -0.0194735
0.0958568 0.204821 -0.345499
0.176946 0.128462 0.403874
-0.189754 -0.162992 0.0378356
-0.127929 0.204821 0.00387611
-0.207707 0.144049 -0.363902
-0.207707 0.17866 -0.233763
-0.207707 0.176292 -0.0315183
-0.073188 -0.152415 0.380796
0.207707 -0.118042 0.394164
0.196643 0.151453 0.273691
-0.207707 0.197014 0.310741
-0.128813 0.204821 0.0734427
-0.184628 -0.124381 -0.357136
-0.143162 -0.116835 -0.200014
-0.16155 0.172049 -0.367455
-0.171468 -0.175435 -0.357717
-0.00170717 -0.128374 0.160339
-0.145803 -0.116835 0.136327
0.047112 0.204821 0.240409
-0.0653892 0.204821 0.00809684
-0.184628 -0.134001 -0.0393816
-0.207707 0.0596355 0.40319
-0.0793111 0.204821 -0.372771
-0.00606867 0.19761 -0.263402
-0.148347 -0.162992 -0.401149
-0.0959254 0.204821 0.233606
-0.204342 0.209149 0.217544
0.188744 0.142269 0.403874
-0.0924322 0.19761 -0.248114
0.207707 -0.128203 -0.400625
-0.207707 0.20201 0.235758
0.096954 -0.125584 0.100969
-0.167592 -0.123136 0.124048
-0.200697 -0.162992 -0.247419
-0.174152 -0.116835 -0.111374
-0.13235 -0.116835 0.26581
-0.011015 -0.139348 -0.403874
0.0556679 -0.124506 -0.380795
0.0814578 -0.128374 -0.344844
0.195806 0.0639568 -0.403874
0.104534 -0.121087 -0.380795
0.184628 0.170673 -0.300506
-0.0538136 0.204821 0.364273
-0.104816 0.19761 -0.040449
-0.163638 -0.0755793 -0.357717
-0.207707 0.209091 -0.38735
-0.176932 -0.183462 -0.403874
0.122584 0.204821 -0.011299
-0.105183 0.204821 -0.110708
0.148582 -0.128374 0.125094
0.0793928 0.19761 0.12246
-0.121255 -0.121305 0.124048
0.167591 -0.187807 0.403874
0.207707 -0.138725 -0.167924
-0.0301904 0.19761 0.0681035
-0.207707 0.156222 -0.203803
-0.207707 0.184225 0.16527
-0.184628 -0.161049 -0.00219277
0.0754077 -0.116835 0.350315
-0.184628 -0.158826 -0.116947
0.207707 0.107167 -0.359177
-0.20478 0.0806285 -0.357717
0.0378306 -0.116835 0.353615
-0.0366585 0.19761 0.0236655
-0.043618 0.151453 0.384823
0.130901 -0.162049 -0.403874
-0.137526 0.204821 0.307021
0.100344 -0.128358 0.354833
0.176778 0.0874474 -0.357717
-0.155809 0.204821 0.111408
-0.060683 -0.116835 -0.114643
0.194975 -0.186993 0.357717
0.0368276 -0.116835 -0.107587
-0.16155 0.0994125 0.392512
-0.207707 -0.151572 -0.113268
0.207707 0.160172 0.315459
-0.16155 -0.177587 0.359711
0.161367 0.170606 -0.403874
-0.189914 -0.162992 -0.102887
-0.135248 -0.143096 0.403874
-0.207707 0.178028 0.402345
-0.0436209 0.204821 0.369746
0.207707 -0.126477 0.306631
0.198177 0.0460612 -0.357717
-0.0994115 0.204821 -0.268726
-0.207707 0.0890843 0.393378
-0.0366904 0.204821 -0.358627
0.207707 -0.15736 0.0222967
-0.058067 -0.116835 0.388171
-0.189531 -0.061307 -0.357717
0.184628 0.176283 0.262202
-0.187513 0.204821 0.0934985
-0.16155 0.168348 -0.376907
0.184628 -0.133188 0.246905
-0.0487141 0.19761 -0.0668807
-0.154239 0.204821 0.188457
-0.0404218 0.204821 0.185561
0.195052 -0.162992 0.0208377
0.0329687 -0.116835 -0.0800306
-0.2071 0.151453 0.143378
-0.167113 0.0940051 -0.403874
0.149357 -0.128374 0.12646
-0.184254 0.19761 -0.066881
0.0809734 -0.16205 -0.403874
0.138727 0.19761 0.364906
0.17072 -0.126175 -0.242325
-0.179949 -0.0802818 0.357717
-0.00897555 0.204821 -0.36779
0.0280931 0.19761 -0.0611586
0.0898422 0.19761 -0.243585
0.181358 -0.128374 0.0895246
-0.00445849 0.204821 -0.374455
0.184628 0.154145 0.161273
0.184628 0.165295 0.281794
0.207707 0.193031 -0.200361
-0.185884 0.151453 0.161394
0.184628 0.193718 0.232573
-0.0405565 -0.127299 -0.0807747
-0.184628 -0.132345 -0.282853
0.140226 0.19761 0.0555476
-0.168657 0.0321113 -0.403874
0.0699875 0.204821 -0.166675
-0.167482 -0.0590664 -0.403874
0.0918537 0.153911 -0.380795
-0.131356 0.19761 0.370178
-0.207707 0.190741 -0.0671038
0.0287241 -0.116835 -0.398639
-0.192665 0.151453 -0.169539
-0.0418837 0.204821 -0.380663
-0.129614 0.186522 -0.403874
-0.0571082 -0.116835 -0.0744102
-0.0414853 0.19761 0.294938
0.0637392 0.204821 -0.197401
-0.0525564 0.204821 0.390342
0.194604 -0.116835 0.232839
0.00354647 0.160728 0.403874
0.131952 0.204821 -0.00124626
0.207707 0.161978 -0.240582
0.0307844 -0.128374 0.161743
0.0432763 -0.136025 -0.380795
0.207707 -0.0507267 -0.396443
-0.0318475 0.204821 0.0686098
-0.150718 0.20753 -0.392335
-0.200515 -0.116835 -0.151586
-0.207707 -0.143998 0.319292
0.177884 0.0319476 0.357717
-0.207707 0.159077 0.262857
-0.00500738 0.151453 0.40383
0.190561 -0.162992 -0.234424
-0.141612 -0.116835 -0.138331
0.0849124 -0.116835 -0.380822
-0.10398 0.19761 -0.328507
0.0101887 -0.116835 -0.00580882
-0.0212047 0.19761 0.255538
0.0031607 0.204821 0.271773
0.190963 0.151453 -0.305703
-0.123231 -0.116835 0.239097
-0.1492 -0.116835 0.38568
0.121778 -0.1189 -0.403874
-0.207707 0.189778 -0.000413083
-0.0165384 0.19761 0.261368
-0.0534601 0.19761 0.173558
-0.202294 0.209149 -0.38021
-0.0331125 0.19761 -0.33203
-0.0823774 0.188313 -0.403874
0.104573 0.204821 -0.15613
0.0183186 -0.128374 -0.07095
0.0573846 0.204821 -0.164125
0.174962 -0.116835 -0.190613
-0.135503 0.204821 0.104813
-0.0451353 -0.116835 -0.113249
-0.207707 0.208425 0.391798
0.0104436 0.204821 -0.0972519
0.184628 -0.145069 -0.0615424
0.0652979 0.204821 -0.0276556
0.01115 -0.162992 -0.381182
-0.155817 -0.117276 0.380796
-0.120444 0.19761 0.220366
-0.175198 0.19761 0.0136113
0.0334155 0.204821 0.215997
-0.128214 -0.116835 -0.0697075
-0.0549868 0.151453 -0.391545
0.161549 0.0617604 -0.368411
-0.0493189 0.204821 0.242117
0.135201 0.19761 0.329031
0.045169 0.204821 0.0828283
0.0149484 0.189539 -0.403874
-0.0535435 -0.116835 0.223084
-0.151936 0.204821 0.35048
0.184585 -0.0749348 0.357717
0.0248159 0.204821 -0.082121
0.16407 0.193453 -0.403874
-0.156724 -0.156261 0.380796
0.0726514 0.19761 -0.104967
0.107778 -0.144202 -0.403874
0.003925 -0.116835 -0.382582
-0.0285869 0.204821 0.277909
-0.144816 0.19761 -0.31641
0.0678617 0.19761 -0.0816181
-0.0289094 -0.116835 -0.40236
0.121314 0.19761 -0.160697
0.0783743 -0.128374 0.0231944
-0.196168 0.204843 0.370805
-0.0316151 -0.139566 -0.380795
-0.0727353 -0.153052 0.380796
0.151431 0.19761 -0.352594
-0.0174809 0.204821 -0.270385
0.105644 -0.119941 0.354833
-0.178568 0.19761 0.238557
-0.0889296 0.204821 0.37053
-0.207707 -0.158504 -0.373501
0.205313 0.209149 -0.282084
-0.195639 -0.167368 0.403874
0.20244 0.0877335 -0.357717
-0.0595627 0.19761 -0.217961
0.188295 -0.041281 0.403874
0.159005 -0.116861 -0.15001
-0.199271 -0.162992 0.279165
0.132304 0.163072 0.380796
0.196466 -0.116835 -0.164061
0.184628 0.186876 0.0475961
-0.116889 -0.116835 -0.24684
0.207707 -0.134604 -0.202214
-0.192812 0.204821 -0.119753
0.0113119 0.204821 -0.335305
0.126352 -0.124731 0.380796
-0.207707 0.160869 -0.373683
-0.207707 -0.143864 -0.144526
0.175992 -0.12818 0.354833
0.0474876 -0.121144 0.403874
-0.162939 0.204821 -0.0287264
-0.184628 0.168084 0.173795
-0.207707 0.0590033 -0.37077
0.1208 -0.159489 0.380796
0.207707 -0.119184 0.371463
-0.0174012 -0.116835 0.124968
0.10606 -0.116835 0.0863037
-0.0160656 -0.116835 -0.0380871
-0.147472 0.19761 0.237499
0.161549 -0.00291629 -0.375977
-0.182001 0.19388 -0.403874
-0.0573965 0.204821 0.195227
0.0686302 -0.124906 0.124048
-0.196168 0.206221 0.145119
0.194314 0.186373 -0.403874
-0.177087 0.204821 0.0703063
-0.197548 0.151453 0.355752
-0.14572 0.151453 0.385718
0.207707 -0.129585 0.181553
-0.196805 0.173489 0.403874
-0.100472 -0.128374 -0.146229
0.0269127 -0.116835 -0.209079
-0.153885 -0.117337 0.308676
0.161549 0.0737541 -0.387138
0.161549 0.117851 0.367615
-0.113832 -0.128374 -0.194692
0.111806 0.19761 0.0465693
-0.196416 -0.0383883 0.357717
0.184628 0.18927 0.339892
-0.0797687 0.204821 0.0071344
0.0532538 0.19761 -0.247323
-0.0933493 0.19761 0.373393
0.184628 -0.14395 -0.319679
0.121801 -0.11803 0.354833
-0.0413826 -0.116835 -0.316937
-0.0619015 0.19761 -0.300454
0.179142 0.204821 -0.284406
-0.184628 0.174247 0.0484489
0.0407341 -0.127006 -0.173089
0.140364 0.151453 0.394801
0.203985 0.209149 -0.205676
-0.168662 -0.128374 -0.0607025
0.200566 -0.209149 -0.375566
0.174379 0.19761 0.249859
-0.0897137 -0.129336 0.380796
-0.161694 -0.128374 -0.34974
0.207707 -0.134598 0.151327
-0.0931111 -0.128374 0.351013
0.131708 0.204821 0.11786
0.207707 0.192451 -0.0919588
-0.162165 -0.209149 0.388839
0.13626 0.19761 -0.274587
-0.0947488 -0.127638 0.124048
-0.138528 0.168423 0.403874
-0.00118436 -0.116835 -0.285278
-0.170429 0.19761 0.15718
-0.15981 -0.141955 0.380796
0.000121087 0.19761 0.294938
-0.151181 -0.116835 0.286107
0.143791 0.19761 0.0847245
0.0840885 0.168336 0.380796
0.205855 -0.0167724 0.357717
-0.0894701 -0.128374 0.273119
-0.175642 -0.0527103 0.403874
-0.198018 -0.162992 -0.0963752
-0.127168 0.204821 0.364709
-0.167973 0.19761 0.0867871
-0.114576 -0.128374 -0.244995
0.164878 -0.116835 -0.275923
-0.0491211 0.204821 -0.313183
-0.106907 0.204821 -0.169607
0.00728687 -0.118486 -0.15001
0.122696 0.19761 0.193072
-0.000524417 -0.162992 -0.400771
-0.184628 0.167009 0.066637
-0.152236 -0.128374 -0.190017
-0.012218 -0.128374 -0.267183
0.203518 -0.0454556 -0.357717
-0.16155 0.123124 0.39652
-0.081372 -0.128374 0.209805
-0.00427967 0.19761 0.0751667
-0.161394 -0.162992 0.380826
-0.201163 0.151453 -0.0836844
-0.154086 0.204821 -0.332192
-0.184628 0.153046 -0.335756
0.207707 -0.0284403 -0.360075
-0.184628 -0.154355 0.34749
0.00041575 -0.117412 -0.356275
0.207707 0.155226 0.251263
-0.207707 -0.118444 -0.378085
-0.0926142 -0.128374 -0.326229
0.00546515 -0.133867 0.380796
0.0343742 -0.135098 -0.403874
-0.0944048 -0.116835 0.0889818
0.156666 0.19761 0.146787
-0.139946 -0.128374 -0.26312
-0.195682 0.108981 0.357717
0.08569 -0.128374 -0.182884
0.143002 -0.127769 -0.242325
-0.0259303 -0.122801 0.331754
0.159688 -0.128374 0.00191019
0.201805 0.0709162 -0.357717
0.0586258 0.19761 0.362753
-0.193207 -0.0918024 0.403874
0.161549 0.106955 0.393927
-0.0772192 0.19761 -0.171491
-0.0114693 -0.128374 0.266401
-0.124228 0.204821 -0.237376
0.144722 0.204821 0.369551
0.20529 -0.162992 -0.0591567
-0.179102 0.19761 -0.147454
0.0537367 -0.116835 -0.118661
0.207707 0.0667854 -0.381221
-0.0275942 0.19761 0.214072
0.00623638 0.204821 -0.187817
0.0503825 0.204821 -0.0863465
-0.109868 0.204821 -0.348065
-0.0372536 0.204821 -0.0756385
-0.12992 -0.116835 -0.263484
0.198332 0.151453 0.0107356
-0.191454 0.151453 -0.239028
-0.207707 -0.14432 -0.0418447
0.103801 -0.116835 -0.194987
0.0653274 -0.124401 -0.0346177
-0.184628 0.193619 -0.144906
0.0676784 0.19761 0.292532
-0.16155 -0.084923 -0.401366
-0.207707 0.15898 -0.373327
0.196023 -0.162992 0.176672
-0.0988034 -0.128374 0.132226
0.0992371 0.196434 -0.380795
-0.0432692 0.207864 -0.392335
0.175423 0.204821 0.237837
-0.0641851 0.204821 -0.263517
0.184628 -0.152721 -0.228239
0.184628 -0.120383 -0.150558
-0.113836 0.19761 -0.0390109
0.152031 -0.128374 0.0663408
-0.124302 -0.116835 0.202598
0.101085 0.204821 0.0665171
-0.207707 0.163557 -0.102953
-0.180355 0.16293 -0.357717
0.184628 0.153044 0.299804
-0.206126 0.209149 0.0104937
0.0650249 0.204821 0.229977
0.0462015 -0.116835 0.263652
0.207707 -0.0093653 0.391628
0.106563 -0.128374 -0.354424
0.196355 0.0393188 -0.403874
-0.121344 -0.116835 -0.117066
0.0883988 0.204821 0.0349087
0.0649803 -0.128374 -0.244451
-0.0705176 0.19761 0.261336
-0.184628 0.179224 0.22883
0.123835 0.204821 0.102084
0.013479 -0.119653 0.380796
0.207707 -0.160984 0.187632
-0.0606233 0.19761 0.270503
-0.184628 -0.16238 0.0786418
-0.164469 -0.128374 -0.279892
0.184628 -0.14618 0.35531
0.0358282 -0.116835 0.0186578
-0.16155 0.015925 -0.399417
0.192182 -0.116835 -0.0930136
-0.188695 -0.162992 -0.0151461
0.156765 -0.118712 -0.287039
-0.182955 -0.116835 -0.265214
0.153383 -0.120323 0.308676
-0.118117 0.19761 0.153983
-0.0832605 0.19761 0.184969
-0.0846627 -0.116835 -0.24674
-0.159119 -0.162992 -0.382884
0.0448552 0.204821 0.158921
-0.20446 -0.162992 0.123474
-0.207707 0.0180541 -0.383542
0.179216 -0.128374 0.028247
-0.055392 0.19761 -0.359931
0.0209296 0.19761 0.280169
-0.184628 -0.151372 -0.230052
-0.0839397 -0.116835 -0.0528151
0.207707 0.200345 0.360043
0.146912 0.204821 0.313164
0.0222289 0.204821 -0.151532
-0.184628 0.192076 -0.0989558
-0.0181831 0.19761 0.130264
-0.122473 0.181718 -0.403874
-0.168628 -0.0962198 -0.403874
-0.130972 -0.128374 -0.348317
-0.0684641 -0.116835 -0.17551
0.17724 0.155638 -0.357717
-0.0376593 0.204821 -0.148049
-0.0973869 -0.116835 -0.17889
-0.184229 -0.128374 -0.078367
0.111646 -0.128374 0.273858
0.0289854 0.20713 0.0282535
0.200262 -0.136909 -0.403874
-0.00291834 0.204821 -0.15548
-0.0340139 -0.116835 -0.00315319
-0.109169 0.19761 -0.194955
-0.040355 -0.116835 0.162478
-0.207707 0.104307 -0.370647
0.181153 0.204821 0.157933
-0.050652 0.204821 -0.157269
-0.140013 0.204821 0.200061
0.130624 0.204821 0.203807
-0.155911 -0.116835 -0.125691
-0.184628 -0.15073 0.207512
0.0659933 0.19761 -0.0698686
0.207707 -0.129142 0.127334
0.207707 0.194365 -0.302662
0.153769 0.19761 0.0833484
0.161549 -0.0763156 0.376052
-0.169472 0.0787667 0.357717
-0.016192 0.204821 0.285276
-0.183619 0.19761 0.352382
0.0800731 0.19761 0.302405
-0.188025 -0.162992 -0.259466
0.173363 -0.10047 -0.357717
-0.0512759 0.19761 0.353147
0.204301 -0.116835 0.00342952
-0.206752 -0.116835 0.161339
0.207707 -0.0329089 -0.375941
0.168221 0.204821 -0.310457
-0.00248158 0.19761 -0.269351
0.0177624 0.204821 -0.29941
-0.0299729 -0.116835 -0.384408
0.167657 0.115223 -0.357717
-0.16155 -0.159966 -0.36909
0.200754 0.209149 0.0472207
0.196167 0.207392 0.302724
0.0311076 -0.116835 -0.109232
0.0928069 0.174765 0.380796
0.12481 0.204821 -0.147372
-0.0583727 -0.161952 -0.380795
-0.0866296 0.204821 0.113583
0.184628 0.19224 0.107076
-0.142523 -0.116835 -0.277022
0.0392351 0.204821 -0.327431
-0.0878455 0.19761 -0.372473
-0.16155 -0.113589 0.374102
-0.201267 -0.201824 -0.357717
-0.00148555 0.19761 -0.203253
-0.184628 0.17538 -0.265931
-0.0112803 -0.127459 -0.310117
-0.146032 0.204821 -0.22269
0.0690099 0.19761 0.115073
-0.0372371 0.204821 0.130698
-0.016911 -0.128374 0.0986977
-0.0737658 -0.128374 0.341927
-0.16511 -0.128374 -0.00233957
0.207707 0.130483 -0.362942
-0.207707 -0.128589 0.113604
-0.143432 0.153594 0.380796
-0.176321 0.204821 0.0260548
-0.16155 -0.0172196 -0.383232
-0.0147359 -0.162992 0.400212
-0.179844 0.155781 0.403874
-0.129494 -0.116835 -0.398862
-0.041083 -0.128374 0.295409
-0.100394 -0.128374 -0.336601
0.00571405 0.204821 0.284905
0.107792 0.206845 0.392335
-0.207707 0.156698 0.330392
-0.184628 -0.135086 0.00646569
-0.180358 0.000577435 0.403874
0.194115 -0.162992 0.0202758
0.0647367 -0.116835 0.0329296
-0.0208827 0.151482 0.403874
-0.207707 0.146143 0.37975
-0.0150887 0.204821 -0.0634715
-0.184628 -0.159817 0.345419
-0.0463729 -0.116835 -0.137837
0.149482 0.204821 0.0777756
-0.16155 0.0896777 0.361703
-0.0687735 0.204821 -0.0733859
-0.207707 -0.117015 -0.162027
0.0136413 -0.128374 0.265576
0.149991 -0.116835 -0.270076
-0.103171 -0.116835 -0.251348
0.0315751 0.204821 0.138235
0.167075 -0.116835 -0.212655
-0.0710939 -0.116835 -0.0640994
0.207707 0.152539 0.0933537
-0.0946705 0.19761 0.250373
-0.109906 -0.128374 0.0750381
-0.0998988 0.204821 -0.285914
0.0203495 0.204821 -0.259109
-0.184628 -0.143146 -0.29944
0.207707 -0.144389 -0.112284
0.207707 -0.139745 0.0488386
0.205267 -0.209149 0.399721
0.00972663 -0.128374 0.272699
-0.184628 -0.156968 -0.311101
0.180041 0.00748749 -0.403874
0.138715 0.19761 -0.139469
0.161549 0.133787 0.394493
0.131216 0.19761 -0.0839747
0.207707 -0.160503 0.0850822
0.153684 -0.122792 0.0346183
-0.184628 0.177208 0.261682
0.207707 0.19229 -0.0971851
0.207707 0.16321 -0.00786392
0.0892899 -0.116835 -0.132316
0.207707 -0.119985 0.218914
-0.207707 -0.194376 -0.376602
0.161549 -0.119001 -0.377326
0.195152 0.140233 -0.403874
0.207707 0.199553 0.142638
0.184628 -0.130602 0.262036
0.0462473 0.19761 0.0298041
0.172064 -0.00371701 0.403874
0.184628 0.15647 -0.173489
-0.114474 -0.128374 0.293531
-0.0399084 -0.128374 -0.00971157
0.12381 -0.128374 0.194936
-0.183464 -0.0437099 -0.357717
-0.13647 0.19761 0.129328
-0.207707 -0.150209 0.336613
0.170236 0.19761 0.313469
0.17793 -0.124428 -0.357717
-0.16155 0.124447 -0.371516
0.110973 0.19761 -0.0653986
0.0842034 0.204821 -0.21971
-0.136022 -0.116835 0.234191
-0.188027 -0.162992 0.102964
-0.16314 0.19761 0.234717
0.147581 -0.116835 0.13973
-0.0691959 -0.162992 0.399901
0.207707 -0.148109 -0.153294
0.0251703 -0.128374 -0.255362
0.207707 0.0702325 0.391066
0.207707 0.166805 0.0159223
0.0949113 0.19761 -0.0566796
-0.0974957 -0.128374 0.089894
-0.156167 -0.122026 0.262518
0.0451911 -0.116835 0.333218
-0.0353089 0.204821 -0.335288
0.184628 -0.146255 0.319691
-0.184628 0.172442 -0.0966974
-0.16469 -0.116835 -0.00555326
-0.184628 -0.140035 -0.285395
0.155072 -0.116835 0.0911051
-0.190545 0.00881171 -0.357717
0.0361583 -0.116835 -0.115795
-0.158015 0.15853 -0.380795
0.207707 0.208688 0.131256
-0.187744 0.151453 0.176389
-0.0084489 -0.116835 -0.198315
0.137586 -0.128374 0.217471
0.039902 -0.116835 -0.353347
-0.0106477 -0.116835 -0.25454
-0.0868476 -0.116835 0.226917
0.20693 -0.162992 0.14356
0.134728 -0.116835 0.140067
0.184628 0.161374 -0.177211
-0.207707 0.190739 -0.218706
-0.199052 -0.116835 -0.0995704
-0.125106 0.204821 0.289568
-0.0680454 -0.116835 -0.385425
0.066727 0.19761 0.182426
-0.0754834 -0.116835 0.0711878
-0.207707 0.154716 0.323912
0.0520194 -0.116835 0.348408
0.2036 0.209149 0.215947
0.00310681 0.151453 0.389023
0.0883716 0.19761 -0.0987516
-0.16155 -0.0906835 0.3958
-0.0722587 0.19761 -0.211732
0.0196165 -0.143747 0.380796
-0.11013 -0.116835 -0.126798
-0.125234 0.19761 0.0321031
0.207707 0.134034 0.383214
0.122139 0.19761 0.347211
0.198842 -0.116835 -0.0252443
-0.155592 -0.116835 0.00132088
0.0127273 0.204821 0.192558
-0.0761363 0.207946 0.403874
-0.0260064 -0.128374 0.342987
-0.0138289 -0.128374 -0.326723
0.109035 -0.116835 0.058452
-0.184628 -0.152046 0.154148
-0.150275 0.19761 0.0482091
0.0585798 -0.116835 -0.17686
-0.0743002 -0.128374 0.0608538
-0.16155 -0.00290369 -0.403119
-0.0678192 -0.116835 0.0677354
0.145871 0.204821 0.155634
-0.124004 0.19761 0.230164
0.0281997 0.204821 0.37871
-0.0719278 -0.116835 0.169815
-0.0313557 -0.117303 -0.15001
-0.0784563 0.204821 -0.0794768
0.0606265 -0.116835 0.0802217
-0.16155 -0.0215357 0.395846
0.0182398 -0.128374 0.204106
-0.0150014 -0.126481 -0.219246
0.199456 -0.0983012 -0.403874
0.12585 0.19761 0.13876
-0.182414 0.19761 0.367019
0.207707 0.179396 -0.344015
-0.17121 0.204821 -0.264181
-0.184628 0.161054 0.139132
0.207707 0.169337 0.389133
-0.0422833 0.19761 -0.269345
-0.0783773 0.19761 -0.2875
-0.184628 0.151477 0.106248
0.102832 0.19761 -0.247601
-0.184628 0.188868 0.0281947
-0.0812415 -0.118583 0.170204
-0.17979 -0.116835 0.269504
0.20691 0.00600027 0.403874
-0.0018302 -0.118468 0.170204
-0.104094 0.204821 -0.258951
-0.0386005 0.19761 -0.366776
-0.207707 0.17637 0.23151
-0.00812827 0.204821 -0.188042
-0.00213704 0.204821 -0.294768
-0.184628 0.17763 -0.237105
-0.0398535 0.204821 0.313371
0.207707 0.180935 -0.0674362
-0.196454 -0.0875547 0.357717
0.101313 0.204821 -0.360395
-0.0908911 -0.126483 -0.380795
0.113607 0.204821 0.280219
0.15387 0.204821 0.321142
0.184628 0.195582 0.345157
-0.14474 -0.162992 -0.381331
-0.0268652 0.204821 -0.149636
-0.184628 0.163529 -0.222707
-0.0464295 -0.128374 -0.0391664
-0.180372 -0.128374 -0.337829
0.145324 -0.133553 -0.403874
0.0936832 -0.116835 -0.340703
0.181208 0.137931 0.357717
0.0502068 0.204821 -0.0215366
-0.151161 -0.139172 -0.403874
-0.0147169 -0.116835 -0.1255
0.0802377 -0.128374 0.300156
-0.184628 -0.152576 0.0710439
0.061807 0.19761 -0.139969
0.200635 -0.162992 0.0284222
-0.138598 0.204821 -0.320535
-0.117613 -0.127385 -0.242325
0.161549 0.099849 0.389016
-0.16155 0.0980118 0.395382
-0.0577896 -0.116835 -0.148531
-0.162131 -0.116835 0.132826
0.184628 -0.11913 0.171913
-0.0381765 0.19761 -0.244533
0.184628 -0.143042 0.252528
0.183682 0.204821 0.325212
0.123573 -0.128374 0.284119
-0.109447 -0.128374 0.0277142
0.184628 -0.143598 -0.0249041
-0.207707 -0.159515 0.0762651
0.0728397 0.19761 -0.354951
-0.0281214 -0.123819 0.124048
0.153391 0.204821 0.230202
-0.00264077 0.19761 0.103378
-0.0132397 -0.116835 -0.174398
0.047306 0.19761 0.0464375
0.100323 -0.128374 0.0297718
-0.0826572 -0.116835 -0.28254
-0.20566 0.209149 0.29701
0.184614 -0.11882 -0.310117
-0.181224 0.204821 0.00206602
-0.156561 0.204821 0.0943545
-0.0406797 0.205434 -0.0362052
0.0572731 -0.116835 -0.0565329
-0.207707 0.162341 -0.284518
-0.184628 -0.152821 0.0892997
-0.157524 0.204821 -0.00896102
0.156666 -0.116835 -0.403638
-0.185586 0.204821 -0.371273
-0.207065 -0.162992 -0.129317
-0.204375 -0.162992 -0.00560159
0.207707 -0.0215558 0.385635
-0.0343278 -0.116835 -0.352868
-0.0945869 0.19761 -0.304562
0.0220671 -0.149847 -0.380795
-0.000693373 0.175121 0.403874
-0.16395 -0.0776351 0.357717
0.136601 -0.128374 -0.0645955
0.0582808 -0.116835 -0.0367164
-0.0793492 -0.128374 0.214673
0.166182 -0.0111956 0.403874
-0.123341 0.204821 -0.3305
0.145574 -0.128374 0.160119
-0.149832 -0.116835 0.28027
-0.102651 0.19761 -0.150122
0.0476412 -0.128374 -0.326831
-0.1074 -0.116835 -0.258274
-0.207707 0.170611 0.202747
-0.15722 0.19761 0.287952
0.116517 0.19761 0.0988855
-0.184628 -0.123834 0.356334
-0.0984903 0.204821 0.363898
-0.207707 0.177164 -0.330952
-0.0708896 0.204821 0.13265
-0.207707 0.146344 0.373269
-0.0585972 0.204821 0.136284
-0.176011 -0.111908 -0.403874
-0.184628 0.18826 0.349999
0.0840847 -0.116835 -0.206142
-0.196168 0.206451 -0.225405
-0.0635681 0.204821 0.379299
-0.0367905 0.193067 -0.403874
0.143572 0.19761 -0.375202
-0.16019 0.19761 -0.017904
0.106636 -0.128374 0.28382
-0.119035 0.204821 0.0481668
0.183553 -0.209149 -0.397277
-0.00856613 0.204821 -0.149932
-0.116403 0.204821 -0.0588446
0.0137399 0.204821 -0.222138
0.00594737 -0.128374 -0.121883
-0.04815 -0.116835 -0.207463
-0.184628 0.172234 -0.0294957
-0.184628 -0.154709 0.0769259
-0.176788 0.204821 0.235325
-0.148695 -0.116835 0.305464
-0.130919 -0.128374 -0.2598
0.105833 -0.130875 0.403874
-0.0854675 -0.124034 0.380796
0.182827 0.19761 0.136898
0.196616 -0.162992 0.248663
-0.0121689 -0.116835 0.198754
0.0402105 0.204821 -0.390525
0.184628 -0.147118 -0.148787
0.0580589 0.19761 -0.356933
-0.103047 -0.128374 0.239325
-0.140055 0.204821 -0.102025
-0.18209 -0.122941 -0.103853
-0.187582 0.122978 -0.403874
0.145728 -0.128374 0.279209
-0.0313227 -0.116835 -0.130285
-0.207707 -0.0338478 -0.397738
0.0992596 0.19761 -0.244653
-0.0762956 0.19761 0.355187
-0.207707 -0.157364 -0.189308
-0.207707 -0.157367 -0.020195
-0.202268 -0.116835 -0.106592
0.198146 -0.116835 -0.355173
0.176967 0.204821 -0.33261
0.043743 -0.128374 -0.111663
0.184628 -0.129678 -0.0275904
-0.0472396 0.19761 0.254504
0.105322 -0.116835 0.237965
-0.135859 0.19761 0.334081
-0.15764 -0.128374 0.302429
0.174215 -0.116835 0.15342
-0.0716229 0.19761 0.201646
0.161549 0.0354846 0.372895
0.183069 0.124789 -0.403874
-0.201889 0.209149 -0.358393
0.116468 -0.116835 -0.336921
-0.207707 -0.0360538 0.388525
0.161549 0.115892 0.374045
-0.0192884 0.204821 -0.147976
-0.119609 0.204821 -0.0735201
-0.12575 0.19761 0.0203311
0.0954755 0.204821 0.213522
0.0725827 0.204821 -0.326433
0.164624 0.19761 -0.115899
0.184628 0.19713 -0.090726
-0.172415 0.204821 0.0436839
-0.0772892 -0.118105 0.331754
-0.207707 0.131279 -0.357986
-0.00422267 -0.128374 -0.0631041
-0.0914643 0.204821 0.0116267
0.0122128 0.19761 0.150855
0.0722664 -0.128374 -0.201844
-0.0318632 -0.128374 0.27774
0.207707 0.17515 0.217154
0.0728089 -0.128374 0.166052
-0.201477 -0.155502 0.403874
0.196683 -0.1838 0.403874
-0.0159662 0.204821 0.124418
0.0431054 -0.124129 -0.287039
-0.108324 -0.125788 -0.0807747
-0.064561 0.204821 0.16797
-0.0923883 0.19761 -0.180523
0.187838 0.151453 -0.130421
0.172441 -0.128374 -0.0794996
0.196167 0.205554 -0.0538962
0.161549 -0.192727 -0.365864
0.170758 -0.128374 -0.0468611
0.138839 -0.116835 0.166886
0.0894955 -0.119922 0.124048
0.161549 -0.201154 -0.385489
-0.207707 0.196289 0.321316
-0.135723 -0.116835 0.152387
-0.165007 -0.116835 -0.0743096
-0.16155 0.0954189 0.383488
-0.0226312 0.204821 0.280502
0.202303 0.209149 -0.0601861
0.0599031 -0.116835 -0.199326
0.161549 -0.181172 0.388967
-0.184628 0.195105 0.175801
0.184628 0.189002 -0.353062
-0.141036 0.19761 -0.036098
-0.0319289 0.204821 0.170828
0.161549 -0.0135248 -0.398339
0.147073 0.204821 0.28959
-0.123576 0.19761 -0.179305
0.195705 -0.162992 -0.0444487
-0.102439 0.204821 -0.206258
-0.207707 -0.127448 -0.138561
0.207707 0.161836 -0.101302
0.0917506 0.204821 -0.169752
-0.101745 0.204821 0.336454
-0.121447 -0.116835 0.135658
-0.136036 0.204821 0.279182
-0.0543509 0.17791 -0.380795
-0.0242742 0.204821 0.237476
-0.172883 -0.182937 0.403874
-0.0425629 0.209149 0.400041
-0.0960329 0.19761 0.32769
0.127898 0.151453 0.390419
-0.207707 0.184671 -0.225511
-0.0700343 -0.128374 0.0241138
0.181777 -0.118185 0.331754
-0.207707 -0.203762 0.40101
0.184628 -0.159665 -0.0760699
-0.109824 0.19761 -0.106602
0.0597514 -0.128374 -0.340318
-0.140297 0.209149 -0.398504
0.124537 -0.116835 -0.0515578
-0.165998 0.19761 0.00897038
-0.00837721 -0.128374 -0.0413123
-0.0219367 0.204821 -0.153465
0.110605 0.19761 -0.067694
-0.00675285 0.19761 0.0377679
-0.104035 0.19761 0.0721066
0.161549 0.0240187 0.401242
-0.111529 0.175396 -0.403874
-0.0786751 0.151595 0.380796
0.108485 0.204821 0.221449
0.207707 0.0659645 0.403233
0.0498473 0.204821 0.199055
-0.102472 -0.128374 0.143032
0.184628 0.193148 0.276635
-0.147364 -0.117254 0.170204
-0.184628 0.184993 -0.0537751
0.069996 0.19761 -0.0477428
-0.11586 0.204821 0.242099
0.15629 0.19761 0.0546146
0.154157 0.19761 0.2249
0.207707 -0.145594 0.0906641
0.087071 -0.116835 0.335992
0.0844475 0.19761 0.147686
-0.0703542 0.204821 -0.0011638
0.187562 0.151453 0.124387
0.113207 -0.116835 -0.327567
0.0343177 -0.118019 0.262518
-0.207707 0.164287 -0.149082
0.149031 0.204821 -0.390728
-0.152816 0.19761 0.212394
0.0974592 -0.128374 -0.0072029
0.0873202 -0.116835 0.00504501
-0.0220206 0.188721 0.380796
-0.0807228 -0.142228 0.403874
0.182378 0.201166 0.403874
0.0887971 0.187412 -0.380795
0.14978 0.19761 0.282752
0.160616 -0.116835 -0.146756
-0.171214 0.19761 -0.0184671
-0.13712 0.19761 0.241326
0.152288 0.19761 0.0778836
-0.207707 -0.144758 -0.189932
-0.203675 0.151453 -0.0903327
0.0875157 0.19761 0.224755
-0.048505 0.197526 -0.380795
-0.207707 0.187636 0.0273409
-0.182349 -0.116835 -0.129887
0.183596 -0.116835 0.266245
-0.12488 -0.116835 -0.0509026
0.102607 -0.116835 -0.197764
-0.207707 0.182623 0.316961
-0.00216376 0.19761 -0.137215
-0.0668598 0.157629 -0.403874
0.0797732 -0.132909 0.403874
0.151395 -0.116835 0.224998
-0.157924 -0.128374 0.195511
0.0280008 0.19761 0.187908
-0.0354715 0.19761 -0.0383431
-0.114462 0.19761 0.314299
-0.191127 0.039442 -0.357717
-0.113887 -0.118679 -0.287039
0.161549 0.0169966 0.385313
-0.185155 -0.116835 -0.288554
-0.207707 0.160172 0.244511
-0.139584 -0.116835 0.150206
-0.170894 0.0180155 0.403874
0.184628 -0.130458 -0.0298117
0.0482062 -0.128374 -0.12255
-0.114107 -0.116835 0.0579501
-0.105808 0.163186 0.403874
-0.0832099 0.204821 -0.331937
0.133838 -0.128374 0.0188175
0.0191098 -0.162992 -0.38265
0.125639 0.204821 -0.233195
-0.00551195 -0.162954 0.380796
-0.0197181 0.19761 0.205996
0.168541 -0.191766 -0.403874
-0.184628 -0.159867 -0.227767
0.0354929 -0.117365 -0.356275
-0.207707 0.207751 0.333571
0.0541202 -0.128374 -0.216751
0.108885 -0.128374 -0.0533226
0.116641 -0.116835 -0.342031
0.0285745 -0.127175 0.380796
-0.00218964 0.204821 -0.0610376
0.0970016 -0.127315 -0.103853
-0.207707 0.121708 -0.372066
0.121684 0.19761 -0.0404796
0.113454 -0.128374 -0.0580688
-0.0819799 0.204821 0.100562
0.115374 -0.128374 -0.0545375
0.207707 0.165963 0.325002
-0.184628 -0.161065 -0.0889754
-0.170008 -0.103307 0.357717
0.0530085 0.204821 -0.245665
0.109265 0.204821 -0.359252
0.207707 -0.162757 0.358106
0.161549 -0.0887513 -0.360071
0.188148 -0.162992 -0.0418693
-0.202514 0.151453 0.257575
-0.0398467 0.19761 -0.0137912
-0.0800433 0.204821 0.321473
0.0288616 0.204821 -0.110178
-0.053144 -0.140089 0.403874
0.0391044 -0.149117 -0.403874
0.025002 -0.116835 0.0869469
0.0132402 -0.128374 -0.191463
-0.143386 0.162151 0.403874
-0.112892 0.19761 0.17326
0.0962181 -0.116835 0.198462
-0.16155 0.0309079 -0.363232
0.16354 -0.0518123 0.403874
-0.163102 -0.125508 -0.357717
-0.0056145 -0.116835 0.135472
0.0556451 0.204821 -0.20059
0.206172 -0.05627 0.357717
0.0770273 0.19761 0.301538
0.207707 0.18968 0.340022
0.117625 0.195784 0.380796
-0.198869 0.0359327 0.357717
-0.207707 0.193875 0.323989
-0.0276714 0.19761 0.0244076
0.0302645 -0.117194 -0.0346177
-0.115768 0.19761 -0.329434
0.207707 0.182331 -0.0191078
-0.207707 -0.0361652 0.392019
-0.0458371 0.204821 0.243648
0.207707 -0.109193 0.381186
0.189107 -0.116835 0.193998
0.192504 -0.116835 -0.152124
-0.113761 0.19761 -0.0918203
-0.173853 0.0819084 -0.403874
0.184628 0.188442 -0.135426
-0.187852 0.151453 0.183996
-0.0363863 0.204821 -0.239446
-0.144021 0.19761 -0.118896
-0.16155 -0.0457252 0.394204
-0.184628 -0.119391 0.0553062
-0.184628 0.153658 0.0101369
0.00360134 -0.116835 -0.203215
0.106572 -0.121698 0.262518
0.169901 -0.136895 0.357717
0.136459 0.159848 0.403874
0.137139 0.19761 0.353892
0.207707 -0.040261 -0.390168
-0.0011587 -0.116835 -0.059976
-0.116618 0.19398 0.403874
-0.0812813 -0.116835 0.0650289
0.186145 -0.116835 0.277246
0.00746293 -0.116835 0.128144
0.184628 0.17037 -0.0168264
-0.00249178 0.19761 0.386249
-0.153498 -0.128374 -0.276929
-0.134644 -0.162992 0.398444
0.207707 -0.146071 0.371666
-0.170024 0.048115 -0.357717
-0.189412 0.151453 -0.303585
0.197241 0.209149 0.247821
-0.207707 0.0746926 -0.373535
-0.207707 0.157963 0.189176
0.15112 0.204821 8.71271e-05
0.118403 -0.118745 -0.287039
0.157062 0.204821 0.036267
0.207707 -0.157135 0.1711
0.207707 -0.206512 -0.378319
0.0736977 -0.162992 0.389897
0.00721678 0.193736 -0.403874
0.184628 0.170655 -0.000680216
-0.207707 -0.1219 0.250711
0.183323 -0.125081 0.331754
-0.204471 0.151453 -0.182329
0.0825905 -0.116835 0.0830772
0.173497 0.0524421 0.403874
-0.207707 0.168403 0.162886
0.207707 0.200599 -0.0885788
0.207707 -0.019908 -0.371876
-0.140584 0.19761 0.15604
0.0630614 -0.116835 -0.256017
-0.00511581 0.204821 0.26373
-0.146455 0.19761 -0.193769
-0.1106 0.19761 0.00909328
-0.207384 0.110969 0.357717
-0.172092 -0.116835 0.158931
0.0148376 -0.162992 0.395978
-0.0910451 0.204821 -0.14706
0.024758 -0.128374 0.0969036
-0.0346279 0.19761 0.370726
