ply
format ascii 1.0
comment Created by Open3D
element vertex 1264
property double x
property double y
property double z
end_header
0.218671 -0.399122 -0.171083
-0.117279 -0.366723 -0.171539
-0.123331 -0.366472 -0.170736
0.2185 -0.392296 -0.171404
0.212486 -0.38937 -0.168966
-0.117325 -0.357387 -0.171855
-0.123373 -0.357144 -0.171046
0.218321 -0.382132 -0.171741
0.21234 -0.379221 -0.169245
-0.117376 -0.344975 -0.172209
-0.123423 -0.34474 -0.171403
0.218141 -0.371975 -0.172078
0.212243 -0.372459 -0.169431
-0.117413 -0.335676 -0.172464
-0.123457 -0.335449 -0.171655
0.217962 -0.361825 -0.172415
0.212097 -0.362322 -0.169709
-0.11745 -0.326383 -0.172719
-0.123492 -0.326163 -0.171908
0.217788 -0.351688 -0.172742
0.211952 -0.352191 -0.169986
-0.117487 -0.317096 -0.172974
-0.123527 -0.316883 -0.17216
0.217649 -0.341584 -0.173003
0.211806 -0.342066 -0.170264
-0.120659 -0.307422 -0.173633
0.217509 -0.331487 -0.173264
0.211661 -0.331949 -0.170541
0.217371 -0.321395 -0.173524
-0.113964 -0.296901 -0.170018
-0.123608 -0.29525 -0.172749
-0.119541 -0.407024 0.164116
0.217232 -0.311309 -0.173785
-0.114099 -0.287369 -0.170926
-0.123643 -0.285988 -0.173001
-0.119573 -0.394268 0.163805
-0.119594 -0.385768 0.163597
0.217093 -0.30123 -0.174046
0.215539 -0.405976 0.163882
-0.117647 -0.276914 -0.174077
0.210848 -0.300196 -0.165106
-0.119615 -0.377271 0.16339
0.21546 -0.396935 0.163675
0.216954 -0.291157 -0.174306
-0.120792 -0.267363 -0.174579
0.210085 -0.289646 -0.166572
-0.119647 -0.36453 0.163079
0.215341 -0.383381 0.163364
0.222038 -0.282296 -0.171622
0.211035 -0.281518 -0.171735
-0.119668 -0.35604 0.162872
0.215263 -0.374348 0.163158
-0.114325 -0.256183 -0.172449
-0.123758 -0.255154 -0.173839
0.221381 -0.271889 -0.172846
0.210912 -0.27145 -0.171969
0.215184 -0.365319 0.162951
-0.115123 -0.344608 0.166131
-0.123748 -0.343454 0.164019
-0.114353 -0.246927 -0.172633
-0.123769 -0.245965 -0.173914
0.215105 -0.356293 0.162744
-0.115199 -0.33595 0.165411
-0.123772 -0.334959 0.163782
0.221102 -0.261723 -0.173366
0.210789 -0.261387 -0.172203
0.215026 -0.347269 0.162537
-0.117744 -0.236951 -0.17475
-0.115261 -0.32734 0.16483
-0.123795 -0.326468 0.163545
0.220846 -0.251582 -0.173843
0.21068 -0.251337 -0.172413
0.220277 -0.334472 0.163834
0.21131 -0.3343 0.165258
-0.115323 -0.314516 0.164245
-0.12383 -0.313738 0.163189
-0.114353 -0.225455 -0.172633
-0.123769 -0.224577 -0.173914
0.220846 -0.241586 -0.173843
0.21068 -0.24135 -0.172413
0.220091 -0.325362 0.163351
0.211199 -0.325246 0.164965
-0.115364 -0.305973 0.163855
-0.123854 -0.305255 0.162953
0.219942 -0.316285 0.162965
0.211088 -0.316196 0.164671
-0.114353 -0.216253 -0.172633
-0.123769 -0.21541 -0.173914
-0.115405 -0.297436 0.163466
-0.123877 -0.296776 0.162716
0.220846 -0.231589 -0.173843
0.21068 -0.231363 -0.172413
0.219794 -0.307213 0.16258
0.210989 -0.307159 0.164409
-0.114353 -0.20705 -0.172633
-0.123769 -0.206244 -0.173914
-0.115459 -0.284659 0.16296
-0.123912 -0.284063 0.162361
0.220846 -0.221592 -0.173843
0.21068 -0.221376 -0.172413
0.21957 -0.293617 0.161999
0.210855 -0.29362 0.164054
-0.115489 -0.276161 0.16268
-0.123936 -0.275592 0.162125
-0.117744 -0.197205 -0.17475
0.220846 -0.211596 -0.173843
0.21068 -0.211389 -0.172413
0.219452 -0.284579 0.161693
0.210765 -0.284598 0.163817
-0.119891 -0.267073 0.1607
0.219345 -0.275552 0.161415
0.210676 -0.27558 0.16358
0.220846 -0.201599 -0.173843
0.21068 -0.201402 -0.172413
-0.114353 -0.185578 -0.172633
-0.123769 -0.184856 -0.173914
-0.115563 -0.254931 0.161982
-0.123994 -0.254429 0.161534
0.219238 -0.266529 0.161137
0.210587 -0.266566 0.163343
-0.115571 -0.246487 0.161898
-0.124 -0.246007 0.161478
0.220846 -0.191602 -0.173843
0.21068 -0.191415 -0.172413
0.214251 -0.257215 0.160506
-0.114353 -0.176376 -0.172633
-0.123769 -0.175689 -0.173914
-0.115571 -0.233846 0.161898
-0.124 -0.233391 0.161478
0.220846 -0.181606 -0.173843
0.21068 -0.181428 -0.172413
0.21907 -0.244043 0.160702
0.210446 -0.24409 0.162971
-0.114353 -0.167174 -0.172633
-0.123769 -0.166523 -0.173914
-0.115571 -0.225419 0.161898
-0.124 -0.22498 0.161478
0.21907 -0.235087 0.160702
0.210446 -0.235132 0.162971
0.220846 -0.171609 -0.173843
0.21068 -0.171442 -0.172413
-0.117744 -0.157458 -0.17475
-0.115571 -0.216992 0.161898
-0.124 -0.21657 0.161478
0.21907 -0.226131 0.160702
0.210446 -0.226175 0.162971
0.220846 -0.161612 -0.173843
0.21068 -0.161455 -0.172413
0.21907 -0.217176 0.160702
0.210446 -0.217217 0.162971
-0.115571 -0.204352 0.161898
-0.124 -0.203954 0.161478
-0.114353 -0.145702 -0.172633
-0.123769 -0.145135 -0.173914
-0.133066 -0.144631 -0.17483
-0.115571 -0.195925 0.161898
-0.124 -0.195544 0.161478
0.220846 -0.151616 -0.173843
0.21068 -0.151468 -0.172413
0.21907 -0.203742 0.160702
0.210446 -0.203781 0.162971
-0.114353 -0.1365 -0.172633
-0.123769 -0.135968 -0.173914
-0.133066 -0.135496 -0.17483
-0.142254 -0.139181 -0.148534
-0.115571 -0.187498 0.161898
-0.124 -0.187133 0.161478
0.21907 -0.194786 0.160702
0.210446 -0.194824 0.162971
-0.1421 -0.140516 -0.118649
0.220846 -0.141619 -0.173843
0.21068 -0.141481 -0.172413
0.21907 -0.185831 0.160702
0.210446 -0.185866 0.162971
-0.114353 -0.127298 -0.172633
-0.123769 -0.126802 -0.173914
-0.133066 -0.126362 -0.17483
-0.142272 -0.129773 -0.148701
-0.142314 -0.138081 -0.0903044
-0.119928 -0.174491 0.160342
-0.142293 -0.130574 -0.120409
-0.142309 -0.139249 -0.0579364
0.220846 -0.131623 -0.173843
0.21068 -0.131494 -0.172413
0.21907 -0.176875 0.160702
0.210446 -0.176909 0.162971
-0.142314 -0.131427 -0.0903044
-0.14214 -0.140727 -0.0216768
-0.133066 -0.117227 -0.17483
-0.142272 -0.120392 -0.148701
-0.142337 -0.132335 -0.0582092
-0.114353 -0.115028 -0.172633
-0.123769 -0.11458 -0.173914
-0.142293 -0.120902 -0.120409
-0.142388 -0.138027 0.0128
0.220846 -0.121626 -0.173843
0.21068 -0.121507 -0.172413
0.21907 -0.163441 0.160702
0.210446 -0.163473 0.162971
-0.142314 -0.121445 -0.0903044
-0.142362 -0.129752 -0.0239187
-0.142378 -0.139332 0.0526381
-0.142272 -0.111011 -0.148701
-0.142337 -0.122024 -0.0582092
-0.142388 -0.130665 0.0128
-0.142176 -0.141005 0.0976937
0.21907 -0.154486 0.160702
0.210446 -0.154515 0.162971
-0.114353 -0.105826 -0.172633
-0.123769 -0.105414 -0.173914
-0.133066 -0.105048 -0.17483
-0.142293 -0.11123 -0.120409
-0.142417 -0.131646 0.0522149
0.220846 -0.111629 -0.173843
0.21068 -0.11152 -0.172413
-0.142314 -0.111463 -0.0903044
-0.142362 -0.119087 -0.0239187
-0.14248 -0.137959 0.140414
0.21907 -0.14553 0.160702
0.210446 -0.145558 0.162971
-0.142272 -0.10163 -0.148701
-0.142337 -0.111712 -0.0582092
-0.142388 -0.119623 0.0128
-0.142447 -0.128741 0.0946337
-0.114353 -0.0966235 -0.172633
-0.123769 -0.0962472 -0.173914
-0.133066 -0.0959132 -0.17483
-0.142293 -0.101558 -0.120409
-0.142362 -0.111977 -0.0239187
-0.142417 -0.120199 0.0522149
-0.14248 -0.129723 0.140414
0.220846 -0.101633 -0.173843
0.21068 -0.101533 -0.172413
0.21907 -0.136574 0.160702
0.210446 -0.136601 0.162971
-0.142314 -0.101481 -0.0903044
-0.142388 -0.112262 0.0128
-0.142447 -0.120818 0.0946337
-0.142272 -0.0922484 -0.148701
-0.142337 -0.1014 -0.0582092
-0.14248 -0.121487 0.140414
0.21421 -0.127478 0.160399
-0.114353 -0.0874212 -0.172633
-0.123769 -0.0870808 -0.173914
-0.133066 -0.0867786 -0.17483
-0.142293 -0.0918856 -0.120409
-0.142362 -0.101313 -0.0239187
-0.142417 -0.108751 0.0522149
0.220846 -0.091636 -0.173843
0.21068 -0.0915465 -0.172413
-0.142314 -0.0914996 -0.0903044
-0.142388 -0.10122 0.0128
-0.142447 -0.108934 0.0946337
-0.142337 -0.091088 -0.0582092
-0.142417 -0.10112 0.0522149
-0.14248 -0.109132 0.140414
0.21907 -0.114185 0.160702
0.210446 -0.114207 0.162971
-0.142272 -0.0797401 -0.148701
-0.142293 -0.0822134 -0.120409
-0.142362 -0.0906483 -0.0239187
-0.142447 -0.101012 0.0946337
0.220846 -0.0816393 -0.173843
0.21068 -0.0815595 -0.172413
-0.114353 -0.0751516 -0.172633
-0.123769 -0.0748589 -0.173914
-0.133066 -0.0745992 -0.17483
-0.142314 -0.0815178 -0.0903044
-0.142388 -0.0901775 0.0128
-0.14248 -0.100896 0.140414
0.21907 -0.105229 0.160702
0.210446 -0.10525 0.162971
-0.142337 -0.0807762 -0.0582092
-0.142417 -0.0896721 0.0522149
-0.142272 -0.070359 -0.148701
-0.142362 -0.0799838 -0.0239187
-0.142447 -0.0891281 0.0946337
0.220846 -0.0716427 -0.173843
0.21068 -0.0715727 -0.172413
0.21907 -0.0962737 0.160702
0.210446 -0.0962922 0.162971
-0.114353 -0.0659493 -0.172633
-0.123769 -0.0656925 -0.173914
-0.133066 -0.0654646 -0.17483
-0.142293 -0.0693172 -0.120409
-0.142314 -0.071536 -0.0903044
-0.142388 -0.0791353 0.0128
-0.142417 -0.0820404 0.0522149
-0.14248 -0.0885411 0.140414
-0.142337 -0.0704643 -0.0582092
-0.142447 -0.0812056 0.0946338
0.21907 -0.087318 0.160702
0.210446 -0.0873348 0.162971
-0.142272 -0.0609778 -0.148701
-0.142362 -0.0693193 -0.0239187
-0.142388 -0.0717739 0.0128
-0.14248 -0.0803047 0.140414
0.220846 -0.061646 -0.173843
0.21068 -0.0615858 -0.172413
-0.114353 -0.0567471 -0.172633
-0.123769 -0.0565261 -0.173914
-0.133066 -0.05633 -0.17483
-0.142293 -0.0596451 -0.120409
-0.142314 -0.0615543 -0.0903044
-0.142417 -0.0705929 0.0522149
-0.142337 -0.0601525 -0.0582092
-0.142362 -0.0622096 -0.0239187
-0.142447 -0.0693219 0.0946338
-0.14248 -0.0720683 0.140414
0.21907 -0.0738845 0.160702
0.210446 -0.0738987 0.162971
-0.142272 -0.0515966 -0.148701
-0.142388 -0.0607318 0.0128
0.220846 -0.0516493 -0.173843
0.21068 -0.0515989 -0.172413
-0.117744 -0.0473902 -0.17475
-0.129788 -0.0473282 -0.173099
-0.139017 -0.047183 -0.173671
-0.142293 -0.0499729 -0.120409
-0.142314 -0.0515725 -0.0903044
-0.142417 -0.0591454 0.0522149
-0.142447 -0.0613994 0.0946338
0.21907 -0.0649288 0.160702
0.210446 -0.0649412 0.162971
-0.142337 -0.0498406 -0.0582092
-0.142362 -0.0515451 -0.0239187
-0.14248 -0.0597138 0.140414
-0.142272 -0.0422154 -0.148701
-0.142388 -0.0496896 0.0128
-0.142417 -0.0515137 0.0522149
0.220846 -0.0416527 -0.173843
0.21068 -0.041612 -0.172413
0.0924374 -0.0406242 -0.167791
0.0816885 -0.0404663 -0.168959
0.0711451 -0.0403254 -0.16978
0.0608647 -0.0402106 -0.170053
0.0506427 -0.0400965 -0.170324
0.0404785 -0.039983 -0.170594
0.0303725 -0.0398702 -0.17086
0.0203232 -0.0397581 -0.171124
0.0103303 -0.0396466 -0.171387
0.000424385 -0.0395407 -0.171538
-0.0094233 -0.0394364 -0.171668
-0.0192192 -0.0393326 -0.171797
-0.0289633 -0.0392295 -0.171924
-0.0386563 -0.0391269 -0.17205
-0.0482987 -0.0390248 -0.172175
-0.0578908 -0.0389232 -0.172299
-0.0706031 -0.0387887 -0.172464
-0.0800797 -0.0386884 -0.172587
-0.0895075 -0.0385886 -0.17271
-0.0988868 -0.0384893 -0.172832
-0.108214 -0.0383916 -0.172927
-0.142293 -0.0403007 -0.120409
-0.142314 -0.0415907 -0.0903044
-0.142447 -0.0495156 0.0946338
-0.14248 -0.0514774 0.140414
0.199331 -0.038142 -0.173335
0.192095 -0.0380734 -0.173382
0.181289 -0.0379709 -0.173452
0.170542 -0.0378689 -0.173523
0.159853 -0.0377676 -0.173592
0.14922 -0.0376667 -0.173662
0.142163 -0.0375998 -0.173708
0.131625 -0.0374998 -0.173777
0.121142 -0.0374004 -0.173845
0.110715 -0.0373015 -0.173913
0.100343 -0.0372031 -0.173981
-0.117749 -0.0351592 -0.174782
-0.129788 -0.0351144 -0.173099
-0.139017 -0.0350067 -0.173671
-0.142337 -0.0395288 -0.0582092
-0.142362 -0.0408806 -0.0239187
-0.142388 -0.0423282 0.0128
-0.0711104 -0.0324865 -0.175013
-0.0805329 -0.0324077 -0.174996
-0.0899098 -0.0323293 -0.17498
-0.0992414 -0.0322513 -0.174963
-0.108528 -0.0321736 -0.174946
-0.142417 -0.0400663 0.0522149
-0.142447 -0.0415931 0.0946338
0.220846 -0.0316561 -0.173843
0.20928 -0.0315276 -0.175081
0.202051 -0.0314728 -0.175069
0.191254 -0.0313911 -0.175051
0.180513 -0.0313099 -0.175033
0.169828 -0.031229 -0.175015
0.159205 -0.0311491 -0.174981
0.152156 -0.0310963 -0.174954
0.141626 -0.0310173 -0.174914
0.0897674 -0.0306284 -0.174717
0.0795514 -0.0305518 -0.174679
0.0693864 -0.0304756 -0.17464
0.059272 -0.0303997 -0.174602
0.0492079 -0.0303243 -0.174564
0.0391936 -0.0302492 -0.174526
0.0292287 -0.0301745 -0.174488
0.019313 -0.0301001 -0.17445
0.00944601 -0.0300261 -0.174413
-0.000372574 -0.0299525 -0.174376
-0.0101431 -0.0298792 -0.174338
-0.019866 -0.0298063 -0.174301
-0.0295415 -0.0297337 -0.174265
-0.03917 -0.0296615 -0.174228
-0.0487519 -0.0295897 -0.174192
-0.0582875 -0.0295182 -0.174156
-0.142272 -0.0297071 -0.148701
-0.142293 -0.0306285 -0.120409
-0.142314 -0.031609 -0.0903044
-0.14248 -0.0391228 0.140414
-0.120145 -0.0261102 -0.17
-0.129788 -0.0259541 -0.173099
-0.139017 -0.0258745 -0.173671
-0.142337 -0.0292169 -0.0582092
-0.142362 -0.0302161 -0.0239187
-0.142388 -0.0312861 0.0128
-0.142417 -0.0324346 0.0522149
0.129926 -0.0243454 -0.177696
0.119487 -0.0242806 -0.177772
0.109104 -0.0242162 -0.177849
0.102212 -0.0241734 -0.177899
-0.118383 -0.0228136 -0.179157
-0.125116 -0.023237 -0.161114
-0.142447 -0.0297094 0.0946338
-0.14248 -0.0308864 0.140414
0.22831 -0.021556 -0.18023
0.221036 -0.0215178 -0.18024
0.210173 -0.0214608 -0.180256
0.199367 -0.0214041 -0.180272
0.192195 -0.0213665 -0.180282
0.181484 -0.0213102 -0.180298
0.17083 -0.0212543 -0.180314
0.160231 -0.0211987 -0.180329
0.149687 -0.0211434 -0.180344
0.139198 -0.0210883 -0.18036
0.0909642 -0.0208352 -0.18043
0.0807785 -0.0207817 -0.180445
0.0706449 -0.0207286 -0.180461
0.0605631 -0.0206756 -0.180476
0.0505326 -0.020623 -0.180491
0.040553 -0.0205706 -0.180506
0.030624 -0.0205185 -0.180521
0.0207453 -0.0204666 -0.180535
0.0109162 -0.0204151 -0.18055
0.00113668 -0.0203637 -0.180565
-0.00859386 -0.0203127 -0.180579
-0.0182757 -0.0202618 -0.180594
-0.0279092 -0.0202113 -0.180608
-0.0406794 -0.0201442 -0.180627
-0.0501998 -0.0200944 -0.180634
-0.0596719 -0.020045 -0.180634
-0.0690975 -0.0199959 -0.180634
-0.078477 -0.019947 -0.180634
-0.0878108 -0.0198983 -0.180634
-0.100185 -0.0198338 -0.180634
-0.109413 -0.0197856 -0.180633
-0.142272 -0.0203259 -0.148701
-0.142293 -0.0209564 -0.120409
-0.142314 -0.0216272 -0.0903044
-0.142337 -0.0223423 -0.0582092
-0.118598 -0.016701 -0.180643
-0.129788 -0.0167939 -0.173099
-0.139017 -0.0167423 -0.173671
-0.142362 -0.0195516 -0.0239187
-0.142388 -0.0202439 0.0128
-0.142417 -0.0209871 0.0522149
-0.142447 -0.0217869 0.0946338
0.132368 -0.0145795 -0.180068
0.121982 -0.0145423 -0.180046
0.111649 -0.0145053 -0.180023
0.101369 -0.0144686 -0.180001
-0.125683 -0.013875 -0.165338
-0.14248 -0.0185319 0.140414
0.226328 -0.0116379 -0.177194
0.215458 -0.0116084 -0.177115
0.204642 -0.0115789 -0.177037
0.197463 -0.0115594 -0.176985
0.186738 -0.0115302 -0.176907
0.176068 -0.0115012 -0.17683
0.165451 -0.0114723 -0.176753
0.154888 -0.0114435 -0.176676
0.144377 -0.0114149 -0.1766
0.0891962 -0.0112648 -0.176199
0.0824004 -0.0112463 -0.17615
0.0722486 -0.0112187 -0.176076
0.0621464 -0.0111912 -0.176003
0.0520937 -0.0111638 -0.17593
0.04209 -0.0111366 -0.175857
0.0321349 -0.0111095 -0.175785
0.0222282 -0.0110825 -0.175713
0.0123694 -0.0110557 -0.175642
-0.000701591 -0.0110201 -0.175547
-0.0104498 -0.0109936 -0.175476
-0.0201512 -0.0109672 -0.175406
-0.0297887 -0.0109418 -0.175265
-0.0393694 -0.0109172 -0.175073
-0.0489071 -0.0108927 -0.174882
-0.0584021 -0.0108684 -0.174692
-0.0678547 -0.0108441 -0.174502
-0.0803927 -0.0108119 -0.174251
-0.0897475 -0.0107879 -0.174064
-0.0990607 -0.010764 -0.173877
-0.108333 -0.0107402 -0.173691
-0.121287 -0.0109172 -0.155907
-0.12202 -0.0111294 -0.138051
-0.142272 -0.0109447 -0.148701
-0.142293 -0.0112842 -0.120409
-0.142314 -0.0116454 -0.0903044
-0.142337 -0.0120305 -0.0582092
-0.142362 -0.0124419 -0.0239187
0.219146 -0.0106922 0.102076
0.210825 -0.0106922 0.10402
0.198344 -0.0106922 0.106936
0.190022 -0.0106922 0.10888
0.181701 -0.0106921 0.110825
0.16922 -0.0106921 0.113741
0.160899 -0.0106921 0.115685
0.148418 -0.010692 0.118601
0.140097 -0.010692 0.120545
0.131776 -0.010692 0.122489
0.119295 -0.0106919 0.125405
0.110974 -0.0106919 0.12735
0.0984931 -0.0106919 0.130266
0.0901726 -0.0106918 0.13221
0.081852 -0.0106918 0.134154
0.0693712 -0.0106918 0.13707
0.0610507 -0.0106917 0.139014
0.0485702 -0.0106917 0.14193
0.0402498 -0.0106917 0.143874
0.0319294 -0.0106917 0.145818
0.0194491 -0.0106916 0.148734
0.0111289 -0.0106916 0.150678
-0.00135137 -0.0106915 0.153594
-0.00967146 -0.0106915 0.155538
-0.0179915 -0.0106915 0.157482
-0.0304715 -0.0106915 0.160398
-0.0387915 -0.0106914 0.162341
-0.0512714 -0.0106914 0.165257
-0.0595912 -0.0106914 0.167201
-0.067911 -0.0106913 0.169145
-0.0803908 -0.0106913 0.172061
-0.142388 -0.00920179 0.0128001
-0.142417 -0.00953959 0.0522149
-0.142447 -0.00990313 0.0946338
-0.14248 -0.0102955 0.140414
-0.129788 -0.00458015 -0.173099
-0.139017 -0.0045661 -0.173671
-0.142272 -0.00156354 -0.148701
-0.142293 -0.00161204 -0.120409
-0.142314 -0.00166364 -0.0903044
-0.142337 -0.00171865 -0.0582092
-0.142362 -0.00177743 -0.0239187
-0.142388 -0.00184037 0.0128001
-0.142417 -0.00190793 0.0522149
-0.142447 -0.00198064 0.0946338
-0.14248 -0.00205911 0.140414
-0.129788 0.00458013 -0.173099
-0.139017 0.00456608 -0.173671
-0.142272 0.00781767 -0.148701
-0.142293 0.00806015 -0.120409
-0.142314 0.00831815 -0.0903044
-0.142337 0.00859322 -0.0582092
-0.142362 0.0088871 -0.0239187
-0.142388 0.00920179 0.0128001
-0.142417 0.00953959 0.0522149
-0.142447 0.00990313 0.0946338
-0.14248 0.0102955 0.140414
-0.129788 0.0137404 -0.173099
-0.139017 0.0136983 -0.173671
-0.142447 0.0178256 0.0946338
-0.14248 0.0185319 0.140414
-0.142293 0.0177323 -0.120409
-0.142314 0.0182999 -0.0903044
-0.142337 0.0189051 -0.0582092
-0.142362 0.0195516 -0.0239187
-0.142388 0.0202439 0.0128001
-0.142417 0.0209871 0.0522149
-0.142272 0.0203259 -0.148701
-0.129788 0.0229007 -0.173099
-0.139017 0.0228305 -0.173671
-0.142388 0.0276054 0.0128001
-0.142417 0.0286188 0.0522149
-0.142447 0.0297094 0.0946338
-0.14248 0.0308864 0.140414
-0.142314 0.0282817 -0.0903044
-0.142337 0.0292169 -0.0582092
-0.142362 0.0302161 -0.0239187
-0.142272 0.0297071 -0.148701
-0.142293 0.0306285 -0.120409
-0.142447 0.0376319 0.0946338
-0.14248 0.0391228 0.140414
-0.142388 0.0386475 0.0128001
-0.142417 0.0400662 0.0522149
-0.129788 0.0351144 -0.173099
-0.139017 0.0350067 -0.173671
-0.142314 0.0382635 -0.0903044
-0.142337 0.0395288 -0.0582092
-0.142362 0.0408806 -0.0239187
-0.142272 0.0390883 -0.148701
-0.142293 0.0403007 -0.120409
-0.142417 0.0476979 0.0522149
-0.142447 0.0495156 0.0946338
-0.14248 0.0514774 0.140414
-0.142362 0.0479903 -0.0239187
-0.142388 0.0496896 0.0128001
-0.129788 0.0442747 -0.173099
-0.139017 0.0441389 -0.173671
-0.142314 0.0482453 -0.0903044
-0.142337 0.0498406 -0.0582092
-0.14248 0.0597138 0.140414
-0.142272 0.0484695 -0.148701
-0.142293 0.0499729 -0.120409
-0.142417 0.0591454 0.0522149
-0.142447 0.0613994 0.0946338
-0.142362 0.0586548 -0.0239187
-0.142388 0.0607318 0.0128001
-0.14248 0.0679502 0.140414
-0.129788 0.053435 -0.173099
-0.139017 0.0532711 -0.173671
-0.142314 0.058227 -0.0903044
-0.142337 0.0601525 -0.0582092
-0.142447 0.0693219 0.0946338
-0.142272 0.0578507 -0.148701
-0.142293 0.0596451 -0.120409
-0.142388 0.0680932 0.0128001
-0.142417 0.0705929 0.0522149
-0.142362 0.0693193 -0.0239187
-0.14248 0.0803047 0.140414
-0.129788 0.0625953 -0.173099
-0.141669 0.0625948 -0.170326
-0.142314 0.0682088 -0.0903044
-0.142337 0.0704643 -0.0582092
-0.142417 0.0782246 0.0522149
-0.142447 0.0812056 0.0946338
-0.142293 0.0693172 -0.120409
-0.142388 0.0791353 0.0128001
-0.14248 0.0885411 0.140414
-0.142272 0.070359 -0.148701
-0.142362 0.0799838 -0.0239187
-0.142447 0.0891281 0.0946338
-0.142314 0.0781906 -0.0903044
-0.142337 0.0807762 -0.0582092
-0.142417 0.0896721 0.0522149
-0.129788 0.074809 -0.173099
-0.139017 0.0745796 -0.173671
-0.142293 0.0789894 -0.120409
-0.142388 0.0901775 0.0128001
-0.14248 0.100896 0.140414
-0.142272 0.0797402 -0.148701
-0.142337 0.0876508 -0.0582092
-0.142362 0.0906483 -0.0239187
-0.142447 0.101012 0.0946338
-0.142314 0.0881723 -0.0903044
-0.142388 0.0975389 0.0128001
-0.142417 0.10112 0.0522149
-0.14248 0.109132 0.140414
-0.129788 0.0839693 -0.173099
-0.139017 0.0837118 -0.173671
-0.142293 0.0886616 -0.120409
-0.142362 0.097758 -0.0239187
-0.142447 0.108934 0.0946338
-0.142272 0.0891213 -0.148701
-0.142337 0.0979626 -0.0582092
-0.142417 0.108751 0.0522149
-0.142314 0.0981541 -0.0903044
-0.142388 0.108581 0.0128001
-0.142526 0.121431 0.139872
-0.129788 0.0931296 -0.173099
-0.139017 0.0928439 -0.173671
-0.142293 0.0983337 -0.120409
-0.142362 0.108422 -0.0239187
-0.142477 0.120782 0.0942972
-0.142272 0.0985025 -0.148701
-0.142337 0.108274 -0.0582092
-0.142431 0.120181 0.0520552
-0.142727 0.129404 0.137516
-0.142314 0.108136 -0.0903044
-0.142389 0.119622 0.0127938
-0.14267 0.128454 0.0921166
-0.142293 0.108006 -0.120409
-0.142362 0.119087 -0.0239187
-0.142618 0.127574 0.0500311
-0.129788 0.105343 -0.173099
-0.139017 0.10502 -0.173671
-0.142272 0.107884 -0.148701
-0.142337 0.118586 -0.0582092
-0.143026 0.141304 0.134001
-0.142314 0.118118 -0.0903044
-0.142659 0.130313 0.00997233
-0.142958 0.139908 0.088865
-0.142293 0.117678 -0.120409
-0.14261 0.129431 -0.0264231
-0.142896 0.138613 0.0470142
-0.143458 0.148848 0.128929
-0.129788 0.114504 -0.173099
-0.139017 0.114152 -0.173671
-0.142565 0.128606 -0.0604258
-0.142292 0.120369 -0.148874
-0.142522 0.127834 -0.0922647
-0.142926 0.140948 0.00717115
-0.143573 0.150796 0.0819306
-0.144008 0.156133 0.12246
-0.144476 0.161861 0.165964
-0.142869 0.139707 -0.029037
-0.143423 0.149213 0.0412863
-0.129777 0.123676 -0.173015
-0.139025 0.123275 -0.173736
-0.142561 0.130225 -0.122858
-0.142815 0.138547 -0.0628708
-0.143283 0.147739 0.00343251
-0.144101 0.157785 0.0759665
-0.144553 0.163338 0.116063
-0.145073 0.169235 0.15865
-0.142521 0.129452 -0.150902
-0.142846 0.14066 -0.0953161
-0.143393 0.149529 -0.0343276
-0.144186 0.159313 0.0330002
-0.145928 0.176037 0.148176
-0.129744 0.132876 -0.172765
-0.141742 0.132727 -0.170952
-0.142796 0.139543 -0.125005
-0.143264 0.148142 -0.0672437
-0.144021 0.157505 -0.00428891
-0.144884 0.168127 0.0671319
-0.145587 0.173589 0.103917
-0.14275 0.138493 -0.152921
-0.146769 0.18272 0.137883
-0.143365 0.149806 -0.100214
-0.144104 0.158937 -0.0415117
-0.144973 0.169195 0.0244488
-0.1464 0.180051 0.0943682
-0.143245 0.148498 -0.129099
-0.143953 0.157261 -0.0739697
-0.146056 0.177569 0.0538987
-0.147595 0.189289 0.127768
-0.148559 0.195508 0.166999
-0.129676 0.145182 -0.172242
-0.139068 0.144522 -0.174092
-0.145068 0.170165 -0.0152425
-0.145736 0.175254 0.0161657
-0.147199 0.186406 0.0849781
-0.143343 0.150047 -0.158168
-0.144034 0.158609 -0.106517
-0.144409 0.163267 -0.0784166
-0.144808 0.168208 -0.0486155
-0.14683 0.183723 0.0451586
-0.148524 0.195502 0.116391
-0.14964 0.201576 0.153176
-0.145802 0.175996 -0.0229262
-0.147987 0.192651 0.0757159
-0.150171 0.204558 0.146383
-0.129495 0.154599 -0.170856
-0.1391 0.153602 -0.174364
-0.144109 0.159871 -0.136984
-0.146857 0.18417 0.00399089
-0.147594 0.189776 0.0365399
-0.149561 0.201323 0.103689
-0.143971 0.158321 -0.163727
-0.144693 0.167294 -0.112736
-0.14586 0.176693 -0.0592381
-0.148992 0.198308 0.0639067
-0.150071 0.204185 0.097442
-0.151216 0.210421 0.133026
-0.145577 0.174634 -0.0898019
-0.146883 0.184581 -0.03424
-0.147594 0.189991 -0.00401616
-0.148461 0.195492 0.0267483
-0.151729 0.213304 0.12646
-0.15306 0.219726 0.162452
-0.132956 0.163064 -0.173963
-0.144747 0.168273 -0.142809
-0.14531 0.172697 -0.118558
-0.149979 0.203842 0.0523194
-0.151075 0.209817 0.0851517
-0.146908 0.184963 -0.0698176
-0.148434 0.195488 -0.0131356
-0.149421 0.200874 0.0159174
-0.15281 0.218798 0.112631
-0.154273 0.22501 0.146219
-0.144622 0.169492 -0.169485
-0.146596 0.182676 -0.0997419
-0.147955 0.192946 -0.0454556
-0.150943 0.209263 0.0409892
-0.152056 0.215331 0.0731379
-0.153398 0.221356 0.105116
-0.146302 0.180524 -0.127914
-0.149359 0.200674 -0.0231817
-0.15036 0.206151 0.00532436
-0.15258 0.217942 0.066713
-0.155454 0.230153 0.130419
-0.157015 0.236787 0.165026
-0.132823 0.175468 -0.172918
-0.146025 0.178493 -0.154483
-0.147946 0.193029 -0.080302
-0.148856 0.197998 -0.0548878
-0.151889 0.21457 0.0298792
-0.154551 0.226374 0.0903759
-0.1576 0.239334 0.156825
-0.144848 0.178243 -0.171483
-0.147594 0.190551 -0.109475
-0.150263 0.205764 -0.0330085
-0.151281 0.211319 -0.00507438
-0.153706 0.22284 0.052931
-0.156604 0.235161 0.115035
-0.147275 0.188192 -0.137081
-0.148817 0.197909 -0.0890927
-0.149738 0.20296 -0.0641159
-0.152914 0.219528 0.0178388
-0.154258 0.225243 0.046168
-0.155674 0.231264 0.0760115
-0.157167 0.237616 0.107498
-0.158856 0.244005 0.139208
-0.132543 0.185093 -0.170715
-0.151153 0.210752 -0.0426679
-0.152184 0.216385 -0.0152678
-0.153454 0.221876 0.0114982
-0.159489 0.246234 0.130335
-0.161363 0.252707 0.161977
-0.147285 0.188424 -0.165978
-0.147931 0.19318 -0.143272
-0.148777 0.197832 -0.121014
-0.149669 0.202705 -0.0976942
-0.150606 0.207825 -0.073196
-0.155342 0.229961 0.032891
-0.156769 0.236031 0.0620109
-0.158328 0.242271 0.091969
-0.160112 0.24843 0.121595
-0.145026 0.190083 -0.173061
-0.15322 0.220981 -0.0269594
-0.154514 0.226488 -0.00095737
-0.155873 0.23228 0.0263863
-0.162604 0.257081 0.143696
-0.135955 0.193481 -0.173549
-0.149604 0.202467 -0.129081
-0.152497 0.217954 -0.0572701
-0.153735 0.223224 -0.0327792
-0.15784 0.24067 0.048311
-0.159542 0.24655 0.0757196
-0.16133 0.252726 0.104502
-0.16321 0.259218 0.134762
-0.165237 0.265887 0.165864
-0.149145 0.200009 -0.154722
-0.150922 0.20973 -0.110348
-0.151877 0.214954 -0.0865025
-0.153002 0.220148 -0.0627512
-0.155548 0.230995 -0.0131097
-0.15692 0.236823 0.0135646
-0.158432 0.242755 0.0407398
-0.161926 0.254826 0.0961425
-0.163806 0.261325 0.12597
-0.165887 0.267808 0.155769
-0.145139 0.198978 -0.174055
-0.154747 0.227636 -0.0442007
-0.157434 0.239054 0.00726902
-0.160722 0.250708 0.0599314
-0.164395 0.263398 0.117298
-0.166527 0.269697 0.145842
-0.135711 0.203085 -0.171575
-0.150818 0.209269 -0.140918
-0.151739 0.214309 -0.118595
-0.152799 0.219372 -0.096145
-0.153992 0.22447 -0.0735046
-0.156561 0.23539 -0.0250115
-0.159592 0.246839 0.0259101
-0.1613 0.252743 0.052204
-0.163091 0.258939 0.0797997
-0.167156 0.271555 0.136078
-0.169407 0.27808 0.165225
-0.150332 0.206657 -0.165912
-0.15574 0.23194 -0.0554034
-0.158527 0.243197 -0.00611401
-0.163662 0.260949 0.0717939
-0.165629 0.267164 0.0991062
-0.167774 0.273382 0.126475
-0.170021 0.279896 0.155148
-0.145209 0.207941 -0.174679
-0.15161 0.213705 -0.148639
-0.153758 0.223558 -0.106186
-0.154965 0.228687 -0.0840676
-0.157551 0.239684 -0.0366397
-0.159086 0.245163 -0.0129526
-0.16072 0.250812 0.0114831
-0.16243 0.256732 0.0370897
-0.166241 0.26897 0.090089
-0.168383 0.27518 0.117028
-0.170626 0.281682 0.145239
-0.153074 0.22069 -0.132077
-0.15671 0.236148 -0.0663562
-0.158072 0.241695 -0.0427621
-0.164798 0.26482 0.0558568
-0.166843 0.270749 0.0812138
-0.17122 0.283439 0.135494
-0.173629 0.289975 0.163484
-0.154701 0.227646 -0.116057
-0.155916 0.232812 -0.0944018
-0.16018 0.249018 -0.0263615
-0.161816 0.254684 -0.00253522
-0.16353 0.260606 0.022365
-0.167436 0.272499 0.0724772
-0.16957 0.278689 0.0985855
-0.171804 0.285168 0.125912
-0.174244 0.29153 0.152803
-0.138833 0.218037 -0.172139
-0.152883 0.219949 -0.161053
-0.153999 0.224698 -0.141417
-0.157659 0.240264 -0.0770673
-0.15915 0.245486 -0.0554166
-0.160715 0.250915 -0.0329058
-0.16598 0.268309 0.0392777
-0.17015 0.280402 0.0895836
-0.172379 0.286869 0.116485
-0.174848 0.293059 0.142311
-0.148206 0.219983 -0.174385
-0.155625 0.231648 -0.12572
-0.156847 0.236848 -0.104514
-0.158175 0.242147 -0.0828906
-0.162885 0.258448 -0.0162114
-0.164607 0.264356 0.00795865
-0.166558 0.270014 0.0311751
-0.168594 0.275919 0.0554074
-0.17072 0.28209 0.0807325
-0.172972 0.28843 0.106762
-0.175441 0.29456 0.132002
-0.178018 0.300957 0.158339
-0.154906 0.228625 -0.150565
-0.160197 0.24919 -0.0677206
-0.161768 0.25462 -0.0458059
-0.163409 0.260292 -0.0229148
-0.165178 0.266042 0.000313044
-0.169159 0.277589 0.0470679
-0.171282 0.283751 0.072014
-0.173564 0.289927 0.0970546
-0.176024 0.296036 0.121872
-0.17859 0.302408 0.147757
-0.156529 0.235567 -0.135182
-0.157764 0.240785 -0.114469
-0.159207 0.245787 -0.0945467
-0.167687 0.273347 0.0153309
-0.179153 0.303833 0.137361
-0.181829 0.310415 0.163754
-0.141944 0.229903 -0.17269
-0.148264 0.228943 -0.174921
-0.155793 0.232472 -0.159528
-0.161221 0.252793 -0.0797569
-0.162795 0.258232 -0.0583788
-0.164437 0.26391 -0.036061
-0.166296 0.26934 -0.0146471
-0.170264 0.28086 0.0307809
-0.172379 0.286996 0.0549787
-0.174718 0.292846 0.0781266
-0.17716 0.298912 0.102129
-0.179706 0.305234 0.127146
-0.182394 0.311662 0.152607
-0.157414 0.239406 -0.144451
-0.158766 0.244333 -0.125352
-0.160215 0.249342 -0.105915
-0.164981 0.265549 -0.0430087
-0.168782 0.276588 -3.48091e-05
-0.172943 0.288465 0.0462186
-0.17528 0.29427 0.0688974
-0.180249 0.30661 0.117108
-0.182949 0.312886 0.141664
-0.18582 0.319094 0.166006
-0.162221 0.256308 -0.0914978
-0.163796 0.261753 -0.070637
-0.167383 0.272545 -0.0291821
-0.169319 0.278172 -0.00755513
-0.171337 0.284031 0.0149676
-0.175834 0.29567 0.0598196
-0.180783 0.307963 0.10724
-0.183493 0.314087 0.130921
-0.186348 0.320262 0.154826
-0.145087 0.238597 -0.173597
-0.154147 0.238085 -0.173378
-0.158353 0.242962 -0.154274
-0.159748 0.247786 -0.136024
-0.1612 0.252806 -0.117035
-0.166056 0.268722 -0.0567645
-0.171862 0.285582 0.00723517
-0.174057 0.291281 0.0289227
-0.178793 0.303046 0.0737441
-0.184028 0.315267 0.120372
-0.163196 0.259737 -0.102954
-0.164799 0.265096 -0.0829185
-0.166583 0.270275 -0.0635008
-0.168437 0.275666 -0.0432889
-0.170368 0.281272 -0.0222731
-0.174601 0.292656 0.0204803
-0.176914 0.298402 0.0421041
-0.17932 0.304379 0.0645952
-0.181835 0.310545 0.0878035
-0.187377 0.322532 0.133077
-0.190312 0.32888 0.15705
-0.15931 0.246325 -0.164292
-0.160708 0.251159 -0.14645
-0.170881 0.282789 -0.0294752
-0.172917 0.288496 -0.00832009
-0.175136 0.294008 0.0121703
-0.179838 0.30569 0.0555938
-0.185069 0.317563 0.099835
-0.187877 0.323637 0.122497
-0.190795 0.329947 0.146043
-0.162634 0.257848 -0.133227
-0.164148 0.263084 -0.114137
-0.165835 0.268151 -0.0956092
-0.167613 0.273325 -0.0766772
-0.169463 0.278697 -0.0570206
-0.182886 0.312862 0.0683814
-0.185576 0.318681 0.0898374
-0.188369 0.324722 0.112107
-0.148108 0.250584 -0.173494
-0.161646 0.254456 -0.156637
-0.168119 0.274817 -0.0831406
-0.169966 0.280181 -0.0637451
-0.171887 0.285759 -0.0435775
-0.180849 0.308248 0.0380256
-0.183398 0.31399 0.0589194
-0.186075 0.31978 0.0800141
-0.194814 0.337913 0.146164
-0.160013 0.253353 -0.171645
-0.163563 0.261113 -0.143709
-0.165133 0.26616 -0.125714
-0.176692 0.297944 -0.0119911
-0.178973 0.303611 0.00833631
-0.181342 0.309497 0.0294517
-0.183902 0.315099 0.0496184
-0.192203 0.33296 0.113947
-0.195265 0.338791 0.135029
-0.198436 0.344829 0.156862
-0.167337 0.272592 -0.113999
-0.169109 0.277741 -0.09581
-0.170951 0.283089 -0.0769212
-0.172894 0.288525 -0.0577058
-0.175005 0.293772 -0.0390992
-0.177195 0.299215 -0.0198013
-0.179468 0.304862 0.000221133
-0.181841 0.31066 0.0207883
-0.189791 0.327868 0.0820432
-0.192666 0.33386 0.103399
-0.195707 0.339652 0.124101
-0.202118 0.35186 0.167738
-0.151179 0.259366 -0.173899
-0.164474 0.264289 -0.153997
-0.166118 0.269076 -0.137283
-0.171433 0.284514 -0.0833763
-0.187518 0.322963 0.0515456
-0.190249 0.328878 0.072359
-0.193121 0.334744 0.0930421
-0.202506 0.352619 0.156213
-0.166602 0.270503 -0.142968
-0.168306 0.275454 -0.125876
-0.182831 0.31284 0.00357985
-0.185362 0.318317 0.0226382
-0.187981 0.323998 0.0424072
-0.202887 0.353363 0.144907
-0.206274 0.359146 0.165197
-0.160258 0.264703 -0.174207
-0.165438 0.267141 -0.164869
-0.176491 0.297527 -0.0609993
-0.178659 0.302915 -0.0425332
-0.180907 0.308502 -0.0233859
-0.183314 0.313904 -0.00481594
-0.185833 0.319354 0.0139401
-0.20007 0.348015 0.112805
-0.203263 0.354075 0.13375
-0.167552 0.273305 -0.154125
-0.169252 0.278243 -0.137452
-0.171014 0.283363 -0.120166
-0.172873 0.288551 -0.102636
-0.174887 0.293559 -0.0856593
-0.176972 0.298742 -0.0680888
-0.183789 0.314951 -0.0130776
-0.197398 0.342943 0.0823542
-0.20046 0.348776 0.102294
-0.203638 0.354724 0.122639
-0.169715 0.279611 -0.143131
-0.192011 0.332699 0.0350864
-0.194859 0.338124 0.0534301
-0.197801 0.343729 0.0723821
-0.200842 0.349525 0.0919813
-0.210737 0.366737 0.150388
-0.154022 0.274865 -0.172168
-0.163263 0.273563 -0.174199
-0.168478 0.276037 -0.165007
-0.189766 0.32793 0.00720954
-0.192445 0.333541 0.0259209
-0.195275 0.338932 0.0439572
-0.211044 0.367272 0.138979
-0.214545 0.373189 0.158866
-0.180512 0.307599 -0.0713083
-0.182782 0.312821 -0.054132
-0.185171 0.317993 -0.0370877
-0.187639 0.32335 -0.0194353
-0.192871 0.334369 0.0169108
-0.207981 0.362111 0.108874
-0.211346 0.367797 0.127787
-0.214817 0.373665 0.147303
-0.171072 0.283614 -0.159743
-0.172853 0.288574 -0.143687
-0.174779 0.293363 -0.128137
-0.176769 0.298312 -0.112067
-0.178828 0.303431 -0.0954456
-0.180959 0.308728 -0.0782437
-0.185614 0.318992 -0.0447932
-0.190615 0.3298 -0.00954342
-0.20195 0.351683 0.0621066
-0.205067 0.357199 0.0802288
-0.208304 0.362671 0.0982374
-0.211641 0.368312 0.116806
-0.157042 0.283759 -0.172139
-0.169084 0.28286 -0.172126
-0.177224 0.299459 -0.118441
-0.199346 0.346741 0.0342226
-0.202307 0.352378 0.0524967
-0.205408 0.35779 0.0701064
-0.20862 0.36322 0.0877957
-0.222568 0.385542 0.160687
-0.199716 0.347461 0.0250846
-0.205743 0.358371 0.0601656
-0.208931 0.36376 0.0775445
-0.219134 0.380365 0.131181
-0.222765 0.385853 0.148967
-0.186913 0.321848 -0.0673635
-0.191844 0.332472 -0.0337642
-0.194505 0.337543 -0.0176526
-0.19725 0.342772 -0.00104177
-0.20008 0.348168 0.0161014
-0.203001 0.353731 0.0337719
-0.206072 0.358941 0.0504019
-0.21586 0.37543 0.103051
-0.219359 0.380719 0.12002
-0.160051 0.292662 -0.172043
-0.17468 0.293184 -0.167043
-0.176584 0.297918 -0.152288
-0.17855 0.302808 -0.137049
-0.180582 0.307862 -0.1213
-0.182738 0.312804 -0.105858
-0.184997 0.317721 -0.0904688
-0.187333 0.322771 -0.0746605
-0.189745 0.327983 -0.0583417
-0.197624 0.343508 -0.00957787
-0.203345 0.354344 0.0245101
-0.216111 0.375821 0.0924103
-0.169302 0.294087 -0.174688
-0.192652 0.33404 -0.0497103
-0.195283 0.339054 -0.034098
-0.21304 0.370752 0.0648764
-0.216357 0.376205 0.0819662
-0.226972 0.392248 0.132441
-0.204018 0.355507 0.00636792
-0.210119 0.365823 0.0383415
-0.213305 0.371212 0.0550414
-0.223517 0.387039 0.104295
-0.227122 0.392488 0.121273
-0.201475 0.350883 -0.0183623
-0.207332 0.361123 0.0130246
-0.210403 0.366322 0.0289844
-0.223696 0.387321 0.0936474
-0.227269 0.392728 0.110331
-0.16621 0.303763 -0.173591
-0.175192 0.303036 -0.1736
-0.180237 0.307068 -0.160716
-0.182274 0.311892 -0.146241
-0.184433 0.316561 -0.132188
-0.186658 0.32137 -0.117709
-0.188951 0.326329 -0.102783
-0.191317 0.331443 -0.0873887
-0.193818 0.336302 -0.0727015
-0.196403 0.341237 -0.0577739
-0.204668 0.356632 -0.011165
-0.220424 0.382388 0.0672684
-0.223872 0.387599 0.083197
-0.227414 0.392958 0.099578
-0.191696 0.332271 -0.0943964
-0.199412 0.346981 -0.0503209
-0.202139 0.352174 -0.034762
-0.214072 0.372544 0.026562
-0.217297 0.377672 0.0420529
-0.220626 0.382704 0.0572897
-0.224044 0.387871 0.072938
-0.183107 0.313719 -0.158509
-0.185248 0.318349 -0.144834
-0.187453 0.323118 -0.130749
-0.189726 0.328031 -0.116236
-0.194564 0.337762 -0.0874171
-0.197121 0.342631 -0.0729624
-0.199753 0.347643 -0.058085
-0.202463 0.352804 -0.0427655
-0.205297 0.357719 -0.0281184
-0.208221 0.362663 -0.0133649
-0.211227 0.367753 0.00181937
-0.214319 0.372973 0.0173962
-0.224214 0.388139 0.0628649
-0.16917 0.312746 -0.173137
-0.194929 0.33847 -0.0946218
-0.17824 0.314537 -0.174449
-0.221209 0.383618 0.0284076
-0.224543 0.388671 0.0432906
-0.195643 0.339854 -0.108708
-0.206202 0.359284 -0.0525236
-0.209066 0.364139 -0.0384325
-0.212009 0.369109 -0.0240047
-0.215035 0.374216 -0.00917768
-0.218172 0.379038 0.00488842
-0.221396 0.383912 0.019116
-0.188978 0.326467 -0.155751
-0.191209 0.331293 -0.142014
-0.193561 0.335899 -0.12885
-0.201064 0.35019 -0.0879565
-0.203723 0.355103 -0.0738813
-0.175209 0.324062 -0.173815
-0.184127 0.323392 -0.173547
-0.196337 0.341198 -0.12238
-0.228356 0.394454 0.0296007
-0.191929 0.332798 -0.154523
-0.20169 0.351406 -0.102219
-0.212754 0.370399 -0.0485763
-0.215718 0.375358 -0.0345527
-0.21879 0.380003 -0.0213475
-0.22194 0.384764 -0.00781143
-0.225169 0.389655 0.00609195
-0.228482 0.394653 0.0203011
-0.19701 0.342503 -0.135655
-0.201996 0.352 -0.109191
-0.207341 0.36127 -0.0832499
-0.210131 0.36598 -0.0700514
-0.178126 0.333186 -0.172921
-0.19264 0.334189 -0.166876
-0.190042 0.335023 -0.173213
-0.197664 0.34377 -0.14855
-0.202594 0.353163 -0.122827
-0.205202 0.357673 -0.110421
-0.207886 0.362209 -0.0979263
-0.216373 0.376377 -0.0588819
-0.219378 0.38092 -0.0462949
-0.222456 0.38559 -0.0333576
-0.225611 0.39035 -0.0201685
-0.228845 0.395229 -0.00664985
-0.213693 0.372025 -0.0795425
-0.18088 0.343225 -0.169724
-0.198299 0.345002 -0.161081
-0.203179 0.354255 -0.136162
-0.211131 0.367709 -0.0997297
-0.190144 0.343372 -0.174884
-0.203469 0.354755 -0.142771
-0.208672 0.363565 -0.119113
-0.219936 0.381816 -0.069988
-0.222947 0.386359 -0.0577115
-0.226031 0.391011 -0.0451396
-0.229189 0.395802 -0.0321978
-0.198774 0.347327 -0.170451
-0.217199 0.37766 -0.0895422
-0.220117 0.382097 -0.0776566
-0.204035 0.355753 -0.155654
-0.209176 0.364435 -0.132715
-0.214575 0.373552 -0.108628
-0.190102 0.352654 -0.174187
-0.201734 0.353038 -0.170509
-0.226431 0.39164 -0.0689136
-0.229511 0.396497 -0.0561373
-0.209666 0.36528 -0.145919
-0.214996 0.374281 -0.122518
-0.220642 0.382914 -0.0999493
-0.223567 0.387327 -0.0884029
