ply
format ascii 1.0
comment Created by Open3D
element vertex 1635
property double x
property double y
property double z
end_header
0.214531 0.130914 -0.243314
0.222295 -0.00436412 0.0132152
-0.119823 0.130914 -0.144465
-0.225349 0.0305464 0.189855
-0.0284018 0.0305464 0.236424
0.227081 -0.00436412 0.167311
-0.113927 0.130914 -0.0286067
0.082959 0.0305464 -0.337642
-0.111392 0.130914 -0.208039
-0.222449 0.0398774 0.405834
0.233176 0.0016823 -0.397107
0.230191 0.122027 -0.241032
0.07711 0.0305464 0.171704
0.170383 0.0305464 -0.326565
-0.130482 0.0305464 0.330885
0.00674373 0.0305464 0.293909
-0.100468 0.130914 -0.0543775
-0.241101 0.0228095 -0.0776638
-0.00330464 0.0292491 -0.397107
0.0398253 0.0831122 -0.405834
0.191234 0.0595453 -0.405834
-0.241101 0.00903783 -0.0310363
0.230191 0.0820425 0.381929
-0.0308858 0.000589171 -0.397107
-0.176075 0.130914 0.108516
-0.107779 0.0305464 -0.114793
-0.0445198 0.0305464 0.396519
-0.227859 0.130914 0.0661565
-0.0104007 0.0305464 0.284384
-0.114386 0.0305464 -0.178297
0.227765 0.0305464 0.299476
0.238919 0.00686346 -0.364842
0.0838043 0.130914 0.37344
0.116741 0.123191 -0.405834
0.0984623 0.0305464 0.171599
-0.190585 0.014557 0.397107
-0.110168 0.0305464 -0.326915
0.22869 0.0305464 -0.226158
-0.223645 -0.00187092 -0.287936
0.238919 0.00271944 -0.401484
0.113939 0.0305464 -0.25671
0.212292 0.0305464 0.212301
0.205105 -0.00321924 -0.414562
0.076845 0.0305464 0.219872
-0.131311 0.130914 0.179607
-0.0859384 0.130914 -0.149453
0.221464 0.0303708 0.240286
-0.223645 0.0161895 -0.330164
-0.232373 0.0360972 0.240068
0.114216 0.0305464 -0.284312
-0.0950079 0.0305464 -0.0223618
0.00592037 0.0305464 -0.275606
-0.155948 0.130914 -0.350428
-0.195161 0.130914 -0.170151
0.0561693 0.0297634 -0.397107
-0.0686667 0.0305464 0.238635
0.0549199 0.130914 0.0704499
-0.0756468 0.130914 -0.103825
0.205782 0.130914 -0.110098
0.0217932 0.0190246 0.414562
0.209179 0.0305464 0.286756
0.153527 0.0305464 0.126274
-0.185805 0.130914 0.214326
0.178398 0.0305464 0.380018
-0.0125778 0.0305464 -0.393934
0.221464 0.0128358 -0.30792
0.174893 0.0305464 0.402946
0.0608946 0.130914 0.379622
-0.13388 0.0305464 -0.0952648
0.146362 0.0305464 -0.319534
-0.232373 0.119918 0.194795
-0.0483983 0.0305464 0.0770482
0.0373248 0.0192101 -0.397107
0.0384751 0.0305464 -0.0447744
0.0159123 0.0765384 -0.405834
-0.223645 -0.00187081 -0.214531
-0.171089 0.130914 -0.0911035
0.221464 0.0262016 -0.350974
-0.232373 0.0758983 0.107242
-0.0527428 0.0305464 0.145035
0.151656 0.130914 0.199274
0.232506 0.0305464 -0.278781
-0.232373 0.109838 0.395113
-0.0987839 0.0305464 0.147908
0.167521 0.130914 -0.23765
-0.0642001 0.0305464 0.322207
-0.239472 -0.130914 0.413241
0.13213 0.130914 -0.0529566
-0.160158 0.0305464 0.347367
0.0546004 0.130914 0.278526
-0.156776 0.0305464 0.290281
0.0350479 0.130914 0.334131
0.184032 0.0305464 -0.374603
-0.0852097 0.130914 0.0537209
-0.228929 0.0191282 0.414562
0.124496 0.130914 -0.0239516
-0.152895 0.130914 -0.14335
-0.223595 0.0305464 -0.308313
-0.138701 0.130914 -0.0164612
0.228002 0.130914 0.0184669
-0.0732017 0.0305464 -0.169476
-0.0511304 0.0305464 0.247529
-0.232373 0.104465 -0.0225926
0.0927256 0.0338425 0.405834
-0.00729067 0.130914 -0.268839
-0.116845 0.0305464 0.126361
-0.232373 0.122777 0.339693
-0.241101 0.00228033 -0.336328
0.0243881 0.0305464 0.295549
-0.10857 0.130914 -0.0289961
0.0754165 0.130914 -0.315533
0.230191 0.0892327 0.216411
-0.154065 -0.00151678 0.397107
-0.0251205 0.0305464 -0.290013
0.193187 0.0305464 -0.0896496
-0.00521705 0.0305464 -0.211394
0.153033 0.0305464 -0.0344587
0.230191 0.10277 0.308517
0.0731094 0.130914 -0.354442
-0.156538 0.0305464 -0.190235
-0.0134517 0.130914 -0.272681
-0.243282 0.00193876 0.403943
-0.0304645 0.0305464 -0.400781
-0.202743 0.0305464 0.20944
-0.0293123 0.0305464 -0.218833
-0.213988 0.0305464 0.191087
-0.0618035 0.130914 0.047535
-0.19916 0.0305464 0.121373
0.19026 0.0305464 0.206862
0.10802 0.0210248 0.414562
-0.0757584 0.0305464 -0.0677676
-0.0292414 0.113811 0.405834
-0.172954 0.0305464 -0.174554
-0.232373 0.092974 0.24488
-0.140819 0.0305464 -0.361077
-0.03592 0.130914 -0.0030558
0.133731 0.130914 -0.144708
-0.0544233 0.130914 -0.0535611
0.0625998 0.130914 0.30706
-0.210601 0.0305464 -0.0736411
0.0415233 0.130914 -0.376811
0.142949 0.0305464 -0.351251
-0.233642 -0.125816 0.397107
0.197076 0.130914 -0.390573
-0.228171 0.0305464 -0.277274
0.238919 -0.00339835 0.10351
-0.0684167 0.0305464 0.35669
-0.207827 0.130914 0.171511
-0.0591717 0.0305464 0.331143
-0.23139 -0.110261 -0.416744
-0.0473072 0.130914 0.024079
-0.00895099 0.130914 -0.305254
-0.0834449 0.0305464 0.0997103
0.094631 0.0305464 -0.204927
0.118973 0.0305464 0.219113
0.230191 0.046146 0.020004
0.230177 -0.0843163 0.416744
0.221464 0.0114826 0.234572
0.230191 0.0791045 -0.0152931
0.137752 0.0305464 0.191765
-0.239025 -0.00436412 0.406837
-0.01694 0.0305464 -0.289211
0.203096 0.0603399 -0.405834
-0.101905 0.0305464 -0.169638
0.230191 0.0374863 0.25193
-0.0750513 0.0575666 0.405834
0.0205671 0.0305464 -0.0368811
0.0344165 0.0636825 -0.405834
-0.241101 0.00681957 0.113839
-0.167241 0.130914 0.231273
-0.232373 0.0492064 -0.0331806
0.186629 0.0536527 -0.405834
0.152489 0.0305464 -0.193804
0.180011 0.130914 -0.203572
0.00940536 0.130914 -0.0960972
-0.182924 0.0305464 0.342129
-0.223645 0.0184524 -0.320607
-0.238012 -0.00436412 0.329282
-0.164001 0.130914 -0.169805
-0.192736 0.0305464 -0.166619
-0.138537 0.130914 0.305413
-0.218477 0.130914 -0.142629
0.0662237 0.130914 0.180272
-0.0253688 0.0305464 0.286376
-0.0957993 0.00184491 0.414562
-0.0974094 0.0305464 -0.0627274
0.230191 0.048769 0.219182
-0.232373 0.0809808 -0.232942
-0.18887 0.130914 0.045388
-0.187241 0.0305464 -0.148922
-0.127215 0.0305464 0.0872803
0.238919 0.0288163 0.0428768
0.228176 0.0305464 0.3965
0.221821 0.130914 -0.158401
-0.115632 0.0305464 -0.360016
-0.232373 0.0941487 -0.371788
-0.241101 0.0188393 -0.347401
0.0758446 0.0305464 -0.357762
0.169289 0.130914 -0.246637
-0.210464 0.0305464 -0.183409
0.0661263 0.0305464 0.349872
0.127249 0.0305464 0.0195479
0.069985 0.0305464 -0.0834068
-0.0362408 0.130914 0.0841661
0.216351 0.130914 0.129936
-0.132819 0.130914 -0.280236
-0.186486 0.130914 0.0888996
-0.142593 0.130914 0.404571
0.0474961 0.130914 -0.38516
-0.0683354 0.0305464 -0.0922209
-0.0952215 0.0305464 0.0660931
0.152376 0.0305464 -0.102302
-0.0173863 0.0305464 -0.188274
0.135713 0.0305464 -0.115668
-0.127886 0.0338189 0.405834
0.185408 0.0305464 -0.385073
-0.23782 0.0305464 -0.416027
0.0174936 0.130914 -0.282766
-0.143679 0.130914 -0.244868
-0.0976924 0.130914 0.125446
-0.102013 0.0305464 0.398206
0.0259157 0.0305464 -0.208861
0.2182 0.130914 0.240557
0.0706011 0.0305464 0.0216721
0.0774017 0.0886296 -0.405834
0.0320962 0.130914 0.137686
0.230191 0.102019 -0.278352
0.0293344 0.0855435 -0.405834
0.221464 0.0205174 -0.2749
0.162066 0.130914 0.262315
0.0919379 0.0305464 -0.250514
0.074136 0.0305464 0.260684
-0.18257 0.130914 0.0769673
0.0868538 0.130914 -0.363548
-0.207966 0.0305464 -0.00423703
-0.202702 0.0305464 0.374302
-0.155998 0.130914 0.265915
0.0834185 0.0305464 0.253805
0.0209623 0.0305464 0.277347
-0.0495762 0.130914 -0.185873
-0.156778 0.0305464 -0.256487
-0.0536995 0.0258048 -0.397107
-0.00168841 0.0305464 0.216362
0.180766 0.0305464 -0.137879
0.221464 0.00211912 -0.17915
0.0385395 0.0305464 0.0263885
0.0791355 0.0305464 0.109655
0.034821 0.00016133 0.397107
0.0579959 0.0305464 -0.195967
-0.0585124 0.130914 0.39051
0.15458 0.0305464 0.351564
0.238919 0.0161185 -0.131009
-0.0968764 0.0305464 -0.128092
-0.149602 0.0305464 0.175861
0.238919 0.00894548 -0.0431256
0.0678517 0.0305464 -0.156974
0.0615045 0.0305464 0.0917559
-0.00744163 0.116457 -0.405834
0.0378469 0.0305464 -0.288533
0.230191 0.0976857 0.140153
0.241101 0.0161552 0.412276
0.140721 0.0305464 0.0251234
-0.068696 0.10458 -0.405834
-0.205802 0.130914 -0.38605
0.0481145 0.0305464 -0.0667696
0.147664 0.130914 0.335929
-0.152129 0.0305464 -0.0085744
-0.0456185 0.130914 0.0695647
-0.140549 0.130914 -0.258134
-0.241101 0.0240965 0.0524184
-0.223645 0.0265225 -0.170802
0.221464 0.0264179 0.0523489
0.0884374 0.106686 0.405834
0.238919 0.00913363 -0.281807
-0.224837 0.0305464 0.283973
-0.130897 0.0487759 0.405834
0.0463487 0.0305464 0.363181
-0.0403623 0.0305464 0.307193
0.0593552 0.0305464 0.26703
0.230191 0.110862 0.153868
0.226811 -0.00436412 -0.210419
-0.0520813 0.0305464 0.0708707
0.226662 0.130914 0.37481
0.00290259 0.0305464 -0.299929
-0.166236 0.00337631 -0.414562
-0.152727 0.0305464 0.0825753
-0.180749 0.0182913 0.397107
-0.141566 0.0515926 -0.405834
2.15322e-06 0.0305464 0.0173861
-0.00230806 0.0305464 0.0161974
-0.223645 0.0214228 0.00113215
-0.210349 0.130914 0.281629
-0.0985072 0.0305464 0.325385
0.234172 -0.0658274 0.416744
-0.142767 0.0305464 -0.145921
0.19462 0.00736986 0.397107
0.221464 -0.019228 0.397533
-0.232373 0.0358455 -0.0827223
0.0524829 0.0147965 -0.397107
0.0383575 0.0305464 -0.317991
0.0940242 0.0305464 -0.365926
-0.157801 0.0305464 -0.389515
0.216547 0.0305464 -0.0975145
0.112244 0.130914 0.27333
0.0222149 0.130914 -0.333531
-0.232373 0.106622 0.0764418
-0.14242 0.130914 -0.295488
0.212644 0.130914 -0.066258
0.0276562 0.130914 0.235795
-0.0486739 0.0305464 -0.159688
0.230191 0.0411863 -0.0698558
0.134359 0.130914 -0.195505
-0.092975 0.130914 -0.273398
-0.1808 0.130914 0.214845
-0.19515 0.0305464 -0.335304
-0.101134 0.0305464 0.26342
-0.232373 0.0981158 -0.0480847
0.170294 0.0305464 -0.0861095
-0.0697316 0.0305464 -0.0466697
0.153779 0.130914 0.0365283
0.0798722 0.130914 -0.381678
-0.0136739 0.0305464 -0.149202
-0.133312 0.0305464 0.402759
-0.232373 0.0655929 0.195073
-0.0736761 0.0305464 0.298225
0.0895963 0.0305464 -0.298638
0.15816 0.130914 0.356948
-0.00905287 0.0305464 0.0825026
0.230191 0.0446552 0.122435
-0.124752 0.0305464 0.180455
-0.124905 0.130914 -0.112008
-0.0113626 0.0305464 0.178658
-0.21424 0.0305464 -0.308274
0.0467775 0.0305464 -0.138939
-0.0742798 0.130914 0.278701
-0.201758 0.0149893 0.414562
0.220002 0.0782817 -0.405834
-0.0832314 0.0305464 -0.0675244
-0.00696049 0.129506 -0.405834
0.202867 0.0305464 0.355174
-0.0417599 0.130914 0.131783
-0.222293 0.0305464 -0.244522
0.135707 0.130914 -0.0538038
-0.0673732 0.130914 0.290118
-0.211142 0.0305464 0.17517
-0.145406 0.0305464 0.372001
0.0252918 0.130914 0.130107
0.0967786 0.0305464 -0.321288
-0.17972 0.130914 0.351764
0.238408 0.0305464 -0.413573
0.17522 0.0305464 0.23995
0.211831 0.0305464 -0.0227247
0.238919 0.0007187 -0.302493
-0.0822746 0.0305464 -0.212803
-0.241101 0.0230068 0.373909
-0.23277 -0.00436412 0.149501
0.0510026 0.0305464 -0.264312
0.0661878 0.0305464 -0.175112
0.104684 0.130914 0.304004
-0.0487766 0.130914 -0.0644583
0.0421769 0.130914 -0.330101
-0.0368435 0.130914 0.0739384
-0.232373 0.121719 0.156665
-0.0148183 0.0305464 0.213853
-0.038231 0.0305464 -0.349362
-0.19418 0.0305464 0.0922473
-0.00355025 0.130914 -0.331846
-0.0375751 0.0305464 -0.0318013
-0.232373 0.107746 -0.203438
-0.238301 0.0305464 0.415861
-0.234356 -0.00436412 0.184778
0.0980845 0.0305464 -0.0588792
-0.218962 0.130914 0.231598
-0.241101 0.011977 0.130011
-0.232373 0.103437 0.145786
0.171969 0.0305464 0.244043
-0.12467 0.130914 0.213623
0.151038 0.0305464 -0.000730634
0.20711 0.0765716 0.405834
-0.241101 -0.00392062 -0.357253
-0.127208 0.0305464 0.0458959
0.230191 0.120281 0.337329
0.217121 0.0305464 -0.25658
0.137133 0.0249819 -0.414562
0.15953 0.106628 -0.405834
0.166194 0.130914 -0.36198
-0.184012 0.00135898 -0.414562
-0.0682742 0.0305464 -0.343559
-0.0193423 0.130914 0.183278
0.101767 0.0305464 0.35844
-0.104572 0.0305464 0.146442
-0.0595031 0.130914 -0.0414482
0.22527 0.130914 0.305701
0.0899703 0.130914 -0.151435
0.230191 0.0943981 -0.0977151
-0.223645 -0.0531242 -0.403217
0.187892 0.0305464 0.297082
0.113748 0.0305464 -0.32572
-0.14413 0.0305464 0.359275
-0.232373 0.0599471 0.319656
0.0349358 0.130914 -0.384933
-0.0897978 0.0305464 -0.023103
-0.179184 0.130914 0.405678
-0.083423 0.130914 0.293455
0.228541 0.130914 -0.286288
0.103796 0.0305464 0.073446
-0.102684 0.0305464 0.321148
0.14479 0.0305464 0.231576
-0.147959 0.130914 -0.0849937
-0.232373 0.0564875 0.357901
-0.241101 0.00112704 -0.267602
-0.0484938 0.0305464 0.116974
0.105317 0.130914 -0.0510106
0.163325 0.130914 -0.387438
0.166626 0.0305464 -0.291662
0.119379 0.0305464 -0.0628423
0.0330269 0.130914 0.192561
0.114946 0.0305464 0.0885653
-0.201713 0.0305464 0.292211
0.230191 0.0699896 0.349705
0.193381 0.130914 -0.161062
0.0491632 0.130914 -0.317969
-0.1426 0.0183224 0.397107
-0.232373 0.0739918 -0.166897
0.00399599 0.130914 0.385215
0.0416903 0.070933 -0.405834
-0.223645 0.00843079 0.376235
-0.232373 0.113123 0.171233
-0.151916 0.0305464 -0.354819
0.154054 0.130914 -0.222152
0.198431 0.0305464 0.198124
-0.0831454 0.0305464 0.404829
0.102407 0.0305464 -0.374698
0.18616 0.130914 -0.161512
-0.0371157 0.0305464 -0.319014
0.138213 0.0305464 -0.400471
-0.12058 0.0305464 0.0620016
0.0922004 0.0305464 0.0841717
-0.0407007 0.0305464 0.349445
0.21502 0.103442 0.405834
0.115261 0.0305464 -0.233492
0.0875026 0.0305464 0.380066
-0.00237703 0.130914 0.296995
-0.198263 0.0305464 0.0886276
-0.0489667 0.0305464 0.0556722
0.0547588 0.0305464 -0.151229
0.214581 0.0305464 0.279813
-0.232373 0.1151 0.129244
-0.164112 0.130914 -0.35775
-0.0309632 0.0305464 -0.271056
0.21085 0.0305464 -0.0632328
0.188485 0.130914 -0.150972
0.0123909 0.0305464 -0.127906
0.230213 -0.00436412 -0.0160217
0.172497 0.0305464 0.0251107
0.0848025 0.0305464 0.39926
-0.157505 0.130914 0.209603
0.158062 0.130914 -0.179726
-0.179097 0.130914 -0.286855
0.048184 0.0305464 0.0174701
0.126203 0.0305464 -0.388019
0.0218445 0.0305464 0.305138
-0.223645 0.0042799 0.25654
0.190779 0.0305464 -0.139557
0.0217053 0.0305464 -0.051526
0.0966654 0.130914 -0.270946
0.051151 0.0305464 0.25477
0.0800324 0.0305464 0.396017
-0.241101 0.0106781 0.294664
-0.0955293 0.0305464 0.0860905
0.0223818 0.130914 -0.0102664
0.042782 0.0305464 -0.264749
0.0743273 0.130914 -0.300277
0.088433 0.130914 -0.0319128
-0.144571 0.0305464 0.114809
0.105845 0.130914 -0.0270975
0.0456037 0.130914 -0.35309
-0.0323639 0.0305464 0.396995
-0.194654 0.0305464 0.0913457
0.230191 0.102137 -0.16593
-0.0122134 0.0305464 0.254864
0.194613 0.0305464 0.272275
-0.241101 -0.00408027 -0.206178
-0.014663 0.0305464 0.0837725
-0.169584 0.130914 -0.0496829
-0.229157 0.0305464 0.177691
-0.178419 0.130914 -0.337468
0.0933202 0.0305464 0.00353761
0.166016 0.0305464 0.0370463
-0.0547216 0.0305464 0.180943
-0.166943 0.130914 -0.398569
0.208573 0.0305464 -0.225214
0.18908 0.130914 0.131634
-0.223645 -0.0320583 -0.40932
0.201577 0.0305464 -0.345879
0.0493326 0.0305464 0.0979761
0.022425 0.0305464 0.0682611
0.0222661 0.0354031 0.405834
0.221464 0.000346305 -0.372509
-0.0378821 0.130914 0.282632
0.00649764 0.0305464 0.300949
-0.0284899 0.0305464 -0.24848
0.232746 0.00164413 -0.397107
-0.142506 0.130914 -0.0707848
0.0323784 0.0305464 -0.327803
-0.223872 0.0305464 -0.229398
-0.0597841 0.0305464 0.00274524
0.0803495 0.0305464 -0.355083
0.0846949 0.130914 -0.118806
0.0882837 0.0305464 0.258511
0.201448 0.130914 -0.274932
-0.0875257 0.130914 -0.35183
-0.140011 0.0305464 -0.0954382
-0.22538 0.130914 0.323959
-0.124109 0.0305464 0.025136
0.100066 0.0305464 -0.361226
-0.243282 -0.0360482 -0.416372
-0.161246 0.0305464 -0.217406
-0.148091 0.130914 0.0891823
0.13646 0.0305464 -0.216523
0.0312669 0.130914 -0.040433
-0.101607 0.0305464 0.372693
0.205113 0.0305464 -0.157373
0.210998 0.0305464 0.263985
-0.00179538 0.130914 -0.184078
-0.0518968 0.0305464 -0.226703
-0.162554 0.0191866 -0.414562
-0.233156 -0.00436412 -0.393819
-0.167767 0.0305464 -0.341935
0.0052583 0.130914 -0.256592
-0.039072 0.0305464 0.0310986
-0.223645 -0.105275 -0.402599
-0.232373 0.106695 -0.079836
-0.0282958 0.0305464 0.251161
-0.204321 0.0305464 0.0727392
0.0426567 0.130914 0.390799
0.221464 0.0145425 -0.0901851
-0.229346 0.0911009 0.405834
-0.104721 0.0305464 -0.283988
0.221464 0.0134239 0.161586
-0.220994 0.0305464 -0.150194
0.126092 0.108718 0.405834
0.200863 0.130914 -0.280192
0.0348138 0.0305464 -0.0994712
-0.241101 0.0169848 0.172623
-0.100122 0.0305464 0.00481861
-0.207792 0.130914 -0.243488
0.106392 0.0305464 -0.170504
-0.0165105 0.0305464 0.106068
-0.200787 0.0305464 -0.153331
-0.174321 0.0305464 -0.308296
-0.100887 0.0305464 -0.319588
0.212316 0.130914 0.15765
0.107411 0.080852 0.405834
0.230191 0.113653 -0.101972
-0.232373 0.082809 0.298726
0.22666 0.0305464 0.306942
-0.154207 0.0305464 0.131207
-0.112314 0.130914 0.247357
0.241101 -0.0837644 0.400151
-0.136544 0.130914 -0.0709122
-0.0189505 0.130914 -0.211946
0.184018 0.0305464 0.019455
-0.223645 -0.0281892 -0.40851
0.206672 -0.00436412 0.40814
0.0750975 0.0305464 -0.201333
-0.0741648 0.0305464 -0.077858
0.230191 0.0391375 -0.364113
0.237921 0.0305464 0.00011983
0.219239 0.0214645 0.414562
0.221464 0.0268911 0.25638
-0.232373 0.0775479 -0.11229
0.150285 0.0305464 -0.347206
-0.110736 0.130914 -0.360326
-0.138507 0.0305464 0.160746
-0.100356 0.0305464 -0.288443
-0.202211 0.0305464 -0.365265
-0.0752755 0.130914 0.231209
0.197105 0.0496729 0.405834
-0.215328 0.0305464 0.0551817
-0.183721 0.130914 0.00361924
-0.0940603 0.0268609 -0.397107
-0.232373 0.0411214 -0.253432
0.195178 0.0305464 0.302286
-0.14038 0.0305464 0.022198
-0.0356377 0.130914 0.115128
0.230191 0.0487982 -0.374729
0.223852 -0.128591 -0.416744
-0.223645 0.0173257 -0.350729
0.0508763 0.0305464 0.24605
0.22664 0.0305464 -0.0338276
0.221464 -0.043028 -0.401802
0.230191 0.038154 0.332634
-0.223645 0.000914505 -0.29603
0.152037 0.0305464 0.306117
-0.223267 0.0305464 0.271228
-0.145025 0.0305464 -0.397544
0.230191 0.0579965 -0.35659
0.077791 0.130914 -0.203006
-0.224117 0.130914 0.206621
0.113543 0.0305464 0.00762589
-0.232373 0.113413 -0.0480969
0.0423047 0.0305464 0.361318
-0.129675 0.0305464 0.380081
-0.128708 0.0305464 -0.229023
-0.105811 0.0305464 0.328471
-0.043759 0.0305464 0.124711
0.0380292 0.0305464 0.103071
-0.0175675 0.0287755 -0.397107
0.0235859 -0.0039487 0.397107
-0.029064 0.0305464 0.302342
0.194153 0.130914 -0.288155
-0.037659 0.130914 -0.124668
-0.00915851 0.0305464 0.131115
-0.224124 0.0305464 0.271689
-0.235296 0.0259312 -0.414562
0.163104 0.0197567 -0.397107
-0.140352 0.0305464 0.122681
-0.0722307 0.0305464 -0.146899
0.0737329 0.0305464 0.308701
-0.241101 0.0264904 0.371979
0.0606751 0.0305464 0.00319329
-0.127147 0.0305464 -0.228775
-0.0925389 0.0305464 0.345201
0.117333 0.130914 0.256168
-0.0357239 0.130914 -0.175479
-0.232373 0.123663 0.16512
-0.243056 -0.125202 0.397107
-0.232373 0.0930565 -0.1175
-0.0883832 0.130914 0.35253
0.233973 0.0305464 -0.406893
0.178329 0.0305464 0.380485
0.075743 0.0305464 0.0965535
0.0998904 0.0305464 -0.170256
0.178503 0.130914 0.199465
0.126791 0.0305464 0.233262
0.0596059 0.0585919 0.405834
-0.124172 0.0305464 -0.101211
0.00980816 0.0305464 0.289313
0.0455674 0.130914 -0.0542574
0.238292 -0.0163008 0.416744
0.223847 -0.00436412 0.166316
0.209853 0.0259569 -0.414562
0.230191 0.0570033 0.126283
0.0271506 0.0305464 -0.338974
-0.15848 0.0305464 -0.160345
0.0801874 0.0305464 0.293382
0.192621 -0.00436412 -0.398158
-0.0814303 0.130914 -0.246545
0.183294 0.0305464 -0.309302
-0.194962 0.0305464 -0.191718
-0.0903845 0.0305464 0.160203
0.221281 0.0831789 -0.405834
-0.000865746 0.130914 0.27519
0.177287 0.0305464 -0.403116
-0.232373 0.0595481 0.059195
0.147124 0.0305464 0.320177
0.192694 0.0305464 0.398938
0.228167 -0.00436412 0.133288
-0.232373 0.122856 -0.0850264
-0.118062 0.0305464 0.241917
0.238919 0.0824053 0.275125
-0.095856 0.0305464 0.131813
-0.0869926 0.130914 -0.326353
0.231448 0.0305464 0.195365
-0.227126 0.0305464 0.351593
-0.165262 0.130914 0.0483986
0.230191 0.0997839 -0.23238
0.221464 0.0294912 -0.0439619
0.238919 0.0109332 -0.104741
0.107644 0.130914 0.381501
0.0253113 0.0305464 0.386547
0.16892 0.0305464 -0.165986
-0.0652579 0.0305464 -0.404054
-0.0331858 0.130914 0.177577
-0.066592 0.0305464 0.254843
0.133319 0.0305464 -0.219287
0.0735942 0.130914 0.365496
-0.0413043 0.0305464 -0.0459186
0.230191 0.0848009 -0.0914215
-0.139645 0.0305464 0.0776674
-0.10083 0.0305464 0.00392922
0.166305 0.0946432 -0.405834
-0.133394 0.0305464 0.188733
-0.154287 0.0305464 0.352791
-0.117016 0.130914 -0.0563871
-0.146157 0.0305464 0.134866
-0.0274407 0.113826 -0.405834
0.118782 0.130914 -0.269391
-0.108691 0.130914 0.0474726
0.0162664 0.076346 0.405834
-0.0341162 0.0305464 0.401451
-0.100405 0.130914 -0.314563
0.0430756 0.0305464 -0.0597733
-0.020182 0.103247 0.405834
-0.219785 0.130914 -0.22024
0.0752122 0.0305464 -0.00763668
-0.0407585 0.0305464 -0.0644704
-0.0725715 0.0305464 -0.195212
-0.208124 0.0305464 0.294369
0.0119711 0.130914 -0.111831
-0.0907503 0.130914 0.0363104
0.153094 0.0305464 0.129885
-0.018849 0.130914 -0.314496
-0.241101 0.0144816 -0.241558
-0.161517 0.130914 -0.02579
-0.199803 0.130914 0.395903
0.221464 0.00809106 0.396301
0.191057 0.130914 0.00788987
0.0390677 0.0206888 -0.397107
0.221478 0.0305464 -0.409125
0.221464 0.011045 0.274144
-0.0283097 0.130914 0.0954549
-0.0911266 0.0305464 -0.270237
0.167625 0.0305464 0.129362
0.125531 0.130914 -0.217022
-0.195048 0.0305464 -0.293632
-0.119775 0.0305464 0.397087
0.0611272 0.0305464 0.182786
-0.241101 -0.00195891 0.245708
0.230191 0.0559512 -0.220771
0.230191 0.0522568 -0.367913
0.0746823 0.0878553 -0.405834
-0.0516933 0.0305464 -0.142259
-0.223645 0.0215602 -0.0688175
-0.0369174 0.130914 -0.282742
0.131556 0.130914 -0.291075
-0.00151771 0.130914 -0.111483
0.19831 0.130914 -0.371223
-0.20103 0.0305464 0.0550143
0.230191 0.0862944 0.119362
0.179929 0.0305464 -0.0671602
0.0803617 0.0305464 0.12173
0.230191 0.10226 -0.15922
0.139146 0.0305464 -0.0619672
0.00328682 0.0305464 0.393117
-0.204219 0.0305464 0.071604
-0.232373 0.0666348 -0.216803
-0.194481 0.130914 -0.386467
-0.132793 0.130914 -0.192584
-0.197476 0.130914 0.0190555
-0.052431 0.0848531 0.405834
0.203103 0.0305464 0.355856
-0.178038 0.0305464 -0.323749
-0.16532 0.0305464 0.319421
-0.150066 0.130914 -0.0805875
-0.195848 0.130914 0.292097
-0.117961 0.130914 0.398422
-0.0848036 0.0305464 -0.162337
-0.229316 0.0305464 -0.00151217
-0.0946578 0.130914 -0.0577596
-0.232373 0.107757 -0.392911
0.188512 0.130914 -0.0588933
-0.17781 0.130914 -0.207642
-0.188622 0.130914 0.257757
0.238919 -0.000143428 0.145845
-0.114497 0.0305464 -0.278383
0.230191 0.097372 0.0858493
0.241101 -0.106411 -0.403961
0.221464 -0.0719585 0.403972
-0.211833 0.0305464 -0.311277
0.211328 0.130914 0.201391
0.0555754 0.0305464 -0.214336
0.220154 0.0305464 0.00666031
0.0238514 0.0272288 -0.414562
-0.0738322 0.0305464 0.211405
0.0378449 0.0305464 0.256472
-0.168178 0.0305464 -0.14118
-0.0322662 0.0305464 0.0898626
-0.0171793 0.0305464 0.271815
-0.0927605 0.0305464 -0.388543
0.16256 0.0305464 -0.285554
-0.234128 -0.130914 -0.404973
0.034234 0.0133635 0.414562
0.238919 0.0101268 0.299245
0.0116577 0.0305464 -0.27101
-0.232373 0.112153 -0.333103
0.230191 0.0894286 0.331427
-0.0581984 0.130914 0.241192
0.0641136 0.0305464 -0.414196
0.206976 0.125151 -0.405834
-0.234308 0.000728031 0.397107
0.0188836 0.130914 -0.0436778
0.17034 0.0305464 -0.268895
-0.127193 0.0305464 0.399075
-0.111845 0.0305464 -0.0456557
-0.08285 0.0305464 -0.362807
0.238919 -0.00223682 -0.186277
0.230191 0.126659 -0.0118074
-0.0129175 0.0305464 0.390744
0.127839 0.0305464 0.107273
-0.141769 0.0305464 -0.282285
0.230191 0.084351 0.396304
-0.129976 0.130914 0.263599
0.0331601 0.0305464 -0.362451
-0.073791 0.0778926 0.405834
-0.116637 0.0305464 -0.360876
-0.241101 0.0146011 -0.00284897
0.172222 0.0305464 -0.00607136
0.156357 0.0305464 -0.148107
0.230191 0.116934 0.0381361
-0.0719199 0.130914 0.267409
0.172492 0.130914 0.119892
0.127366 0.0305464 -0.2373
-0.112298 0.0305464 0.306126
0.0651739 -0.00436412 -0.404934
-0.0775118 0.0305464 -0.36352
-0.0443595 0.130914 0.125562
-0.0630784 0.130914 -0.387393
-0.232373 0.0480171 -0.0689118
-0.146381 0.0305464 0.110242
-0.127234 0.130914 -0.285072
0.142345 0.0305464 0.225416
-0.230711 0.130914 -0.20901
-0.178785 0.0305464 0.00195949
-0.0431661 0.0305464 -0.277202
0.233813 0.0305464 -0.0814118
0.238919 0.0163333 -0.0848315
0.0362771 0.130914 0.356403
-0.241101 0.0211324 0.397053
0.196559 0.0305464 0.311233
-0.0150997 0.0305464 0.374268
0.15469 0.0305464 -0.300794
-0.150818 0.0272817 0.414562
-0.241101 0.00654264 0.275009
-0.0215049 0.0305464 -0.201436
0.0073526 0.0305464 0.405698
0.0822593 0.0305464 -0.0616955
0.172299 0.103074 0.405834
-0.194613 0.0305464 0.149438
-0.188466 0.0305464 0.375979
-0.209461 0.0305464 0.154448
0.201921 0.0305464 -0.270331
-0.229923 0.0305464 0.155331
0.221464 -0.0202525 0.404481
-0.10452 0.130914 0.235019
-0.205365 0.0305464 -0.386323
0.171305 0.0305464 -0.347311
0.221464 -0.0695717 0.407716
-0.241101 -0.000527159 -0.355617
-0.204587 0.0305464 0.162216
0.142865 0.0305464 0.258564
0.108029 0.0305464 -0.298033
0.230043 -0.114084 -0.397107
0.230191 0.0759986 -0.0293054
-0.218298 0.0305464 -0.140189
-0.207386 0.0305464 0.0841171
-0.199702 0.0305464 -0.251843
-0.0764063 0.130914 0.0499865
-0.241101 0.0224173 -0.255778
-0.223645 0.0148808 0.216236
0.221464 0.00231533 -0.0236381
0.221464 0.00108062 -0.198853
0.00141167 0.130914 -0.282222
0.147886 0.0607311 -0.405834
0.230191 0.0731459 -0.188647
0.135813 0.130914 -0.264435
0.187742 0.130914 -0.00939067
-0.232373 0.0618467 0.274523
0.226242 -0.00436412 -0.286507
0.0793956 0.130914 -0.331041
-0.191565 0.0305464 -0.331977
-0.161216 0.130914 0.0738191
0.230191 0.061278 -0.205994
-0.241101 0.000554099 -0.261796
-0.077378 0.0305464 -0.272485
-0.191703 0.130914 0.146539
0.230191 0.0871465 -0.286533
0.172619 0.130914 -0.265344
-0.181121 0.0305464 0.0635482
-0.152813 0.0305464 -0.0531065
0.085434 0.0305464 -0.275258
0.0483635 -0.00436412 0.411863
0.230191 0.0724505 0.121009
0.217846 0.00960506 -0.414562
0.238919 -0.00305494 -0.339274
0.177302 0.0305464 0.293337
-0.110739 0.0305464 -0.374292
-0.0565391 0.0305464 -0.226185
-0.170251 0.130914 0.134986
0.024788 0.0525847 -0.405834
-0.22572 0.0305464 -0.041785
-0.0635186 0.130914 -0.388646
0.158236 0.130914 -0.0957827
0.0713099 0.0305464 -0.11924
0.221464 -0.00210918 0.0430068
0.0641214 0.0305464 -0.149679
0.0587092 -0.00436412 0.407314
-0.076368 0.0305464 -0.341485
-0.00823736 0.130914 0.28907
-0.155377 0.0305464 -0.116376
-0.0169764 0.0305464 0.13701
-0.232373 0.0961805 -0.122376
0.159143 0.130914 -0.0904812
-0.227426 0.0305464 0.285428
-0.216851 0.130914 -0.369425
0.0532391 0.018415 0.414562
0.0111195 0.130914 -0.284087
-0.206836 0.0305464 -0.00948523
0.0603717 -0.00436412 0.410349
0.0508336 0.0305464 -0.0995991
0.199596 0.0305464 0.278995
-0.0143708 0.0305464 0.182546
-0.106947 0.130914 -0.0350518
-0.0542102 0.0305464 -0.252264
-0.0537997 0.0305464 -0.315133
-0.0239222 0.0305464 -0.00659764
0.230191 0.0536897 0.0512948
-0.241101 0.00378831 -0.328336
-0.227078 -0.00436412 -0.126298
0.199114 0.110149 0.405834
-0.0472569 0.0305464 -0.403148
0.0928576 0.0305464 -0.208578
-0.205639 0.0305464 0.153844
-0.0377042 0.130914 0.053628
0.0767155 0.0305464 0.198517
0.229921 0.0305464 0.40874
-0.203779 0.130914 0.146229
0.179146 0.0305464 0.0716303
0.163187 0.0898091 -0.405834
0.238919 0.00758083 -0.038661
-0.232373 0.0608163 0.0651611
-0.14009 0.130914 0.270185
0.238919 0.0171742 -0.260323
0.233384 -0.00436412 -0.280162
0.00654872 0.130914 -0.0358346
0.230191 0.0595395 0.319217
0.230191 0.102041 -0.009382
0.132097 0.130914 -0.0799913
0.087494 0.0963612 0.405834
-0.208391 0.130914 0.245585
-0.091086 0.0305464 0.130577
0.0382228 0.0942105 -0.405834
0.0129763 0.130914 0.199381
-0.00518283 0.0305464 0.0503337
0.137568 0.130914 0.291371
0.000278678 0.130914 0.122568
0.230191 0.104782 0.379182
-0.0939068 0.0305464 0.0574016
0.230191 0.0858041 -0.148836
0.173254 0.0305464 0.104454
0.0411289 0.0305464 0.110037
0.230191 0.0907285 -0.33181
-0.13704 0.0305464 0.351963
-0.167108 0.0305464 0.189529
0.221464 -0.0304749 0.408634
-0.12659 0.130914 0.33047
-0.155463 0.0305464 0.281002
-0.0703096 0.0305464 -0.131483
0.011787 0.130914 0.393332
-0.232373 0.0769557 0.209651
0.214323 -0.00436412 0.412641
0.116444 0.0305464 0.349423
-0.222336 0.0621512 0.405834
0.0410329 0.0305464 0.229814
-0.0725116 0.0305464 -0.239723
0.206608 0.0305464 -0.13224
0.100594 0.0305464 0.0203922
-0.0806265 0.0305464 0.317942
0.0951845 0.130914 0.188699
-0.0304566 0.0305464 0.372373
-0.221131 0.130914 0.184395
0.221464 0.0291491 -0.413503
-0.18379 0.0305464 0.237531
-0.157794 0.0305464 0.27902
-0.0592378 0.0305464 0.354647
0.00610608 0.0692242 -0.405834
0.0393629 0.0305464 -0.30459
0.141597 0.0305464 0.378806
-0.0936895 0.130914 -0.152111
0.141927 0.0305464 -0.298884
0.0199482 0.0305464 0.172676
0.0269412 0.0305464 0.184022
-0.241101 -0.00121987 -0.388206
-0.0566027 0.0305464 0.380016
-0.0561837 0.130914 0.260191
-0.213292 0.130914 -0.0848824
-0.126928 0.0305464 -0.398004
-0.232373 0.123902 0.372259
0.124371 0.130914 -0.0939474
0.134846 0.0192971 0.397107
0.190788 0.0305464 0.0274436
-0.0507465 0.0305464 0.298154
0.138994 0.130914 -0.12304
-0.0604668 0.0991838 -0.405834
0.104438 0.130914 -0.105653
0.238647 0.0187189 0.416744
-0.102013 0.130914 -0.0462128
0.222676 0.0305464 -0.0613122
-0.218171 0.0305464 -0.391544
-0.1453 0.0305464 0.114842
-0.232373 0.0839832 0.330235
-0.0748189 0.0305464 -0.0541929
0.134941 0.0305464 -0.210729
0.00311831 0.0305464 -0.0492587
0.118923 0.0305464 0.149439
-0.241101 0.0080098 -0.209002
0.230191 0.0662703 0.141083
0.0081109 0.0305464 -0.376601
-0.0377451 0.0305464 -0.0939142
-0.0509092 0.0305464 -0.36266
0.136213 0.0305464 0.0515896
0.221464 -0.0798487 -0.414074
0.0659621 0.0314003 0.405834
-0.241101 0.0169665 -0.0512371
0.0529363 0.0305464 -0.31331
0.175091 0.130914 -0.0907677
0.183765 0.0305464 0.092843
0.151109 0.130914 -0.298998
-0.107269 0.130914 -0.24398
-0.243282 -0.012625 -0.40563
-0.241101 0.00224433 -0.334115
0.218689 0.0305464 0.319662
0.0741683 0.0851331 -0.405834
-0.232373 0.129711 -0.295885
0.232609 0.0305464 0.0492882
-0.204707 0.130914 0.176684
0.218992 0.0305464 -0.123542
0.238919 0.000937183 0.375404
0.190667 -0.00124964 0.414562
0.047955 0.130914 -0.0824791
0.0681301 0.0305464 -0.192174
-0.0874565 0.0137099 -0.397107
0.235375 -0.11133 0.397107
-0.197922 0.0305464 -0.299268
0.183727 0.0305464 -0.0592147
0.0295636 0.0459589 -0.405834
-0.151493 0.0305464 -0.314735
-0.0740392 0.0305464 -0.0993163
-0.0830404 0.0305464 -0.187815
-0.231393 -0.0392457 -0.416744
0.0400552 0.0305464 -0.158908
0.221464 0.0215202 -0.342346
-0.23592 -0.00436412 -0.220553
0.237205 0.0305464 -0.415136
0.0112336 0.0305464 0.092736
0.238919 0.00532662 -0.196143
-0.223523 0.0104248 0.397107
0.238919 0.00831966 -0.183648
-0.0652974 0.0305464 -0.175753
-0.0564912 0.0305464 0.126534
0.227883 0.0305464 -0.105974
-0.121232 0.00257769 -0.397107
0.0509967 0.130914 -0.339672
0.241101 -0.081998 0.398504
0.204152 0.0305464 -0.313418
-0.011395 0.0305464 0.275008
0.232606 0.0305464 -0.291556
0.176797 0.0305464 -0.220956
-0.173655 -0.00436412 -0.408247
-0.171179 0.0305464 0.176835
0.165904 0.130914 0.307903
-0.176725 0.130914 0.327199
-0.0320008 0.0305464 0.044404
0.238919 0.0265032 -0.409842
-0.223645 0.0289645 -0.350189
-0.243282 -0.0782164 0.409106
0.0768751 0.0305464 0.302223
-0.0691109 0.0305464 0.300875
-0.186939 0.0305464 0.105069
-0.241101 0.0243282 0.249314
0.163061 0.0305464 -0.121415
-0.160259 0.130914 -0.204
-0.0425699 0.130914 -0.202005
0.116501 0.0305464 0.333095
-0.0866485 0.0305464 -0.126995
-0.152871 0.0305464 -0.104709
0.0138639 0.130914 -0.113591
-0.223645 -0.0684096 0.408474
-0.223645 0.00775207 0.342127
-0.223645 0.0062381 -0.107342
-0.191356 0.0305464 0.192421
0.230191 0.112521 0.253856
0.0861879 0.0305464 -0.149625
0.230191 0.0670168 0.306343
0.0942691 0.0305464 -0.211206
-0.068006 0.0305464 0.000900626
0.229283 0.130914 0.218888
-0.207199 0.130914 0.186593
0.215588 0.0271688 -0.414562
0.168199 0.0305464 -0.287362
0.0178561 0.0305464 -0.370384
-0.129914 0.0305464 0.189661
0.204381 0.0305464 0.291848
0.130473 0.0305464 -0.320968
0.202774 0.0305464 0.392971
-0.18326 0.130914 0.0404708
-0.0634728 0.0305464 -0.394975
-0.219859 0.0305464 0.369462
0.238919 0.0130182 -0.36365
-0.216202 0.0305464 0.10257
0.230191 0.0522983 -0.190648
0.0388366 0.0305464 -0.179534
0.117797 0.0305464 -0.331856
-0.0443689 0.0305464 0.373112
-0.128958 0.00467821 0.397107
-0.232073 0.0305464 0.156969
-0.110263 0.0305464 -0.21544
-0.0207054 0.0305464 -0.110425
0.0147478 0.0305464 0.31606
-0.23199 -0.00436412 0.0916509
-0.18369 0.0305464 0.111455
0.0708548 0.0305464 -0.00986312
0.00944507 0.130914 -0.0737102
-0.120173 0.0305464 0.113825
0.0589589 0.0305464 0.221364
-0.129521 0.0278232 -0.414562
0.163976 0.0305464 -0.138014
-0.119281 0.130914 0.336188
0.230191 0.0904312 -0.183896
-0.0886218 -0.00436412 0.403754
-0.223645 0.00557593 0.0756578
0.230191 0.0808114 -0.345936
-0.223645 0.0242368 0.224765
0.230191 0.124454 -0.382439
-0.241101 0.0141143 -0.155828
-0.232373 0.0394206 0.15859
-0.241101 0.00497698 0.366919
0.121948 0.0305464 -0.0819811
0.223568 0.0305464 -0.0670998
-0.0454201 0.0305464 -0.273292
0.166747 0.0305464 0.347147
0.0596248 0.0305464 0.172509
0.134206 0.0305464 0.102738
-0.151018 0.0305464 -0.20838
-0.101657 0.0305464 -0.00754742
0.221464 0.0197091 0.408685
-0.000424832 0.114289 -0.405834
0.230191 0.0416384 0.0675347
-0.0996834 0.0305464 0.0557132
-0.00775224 0.0305464 -0.203777
0.238919 0.0245176 -0.167265
0.00239632 0.0305464 0.0239753
-0.00456578 0.130914 0.09586
0.186484 0.0305464 0.372136
-0.23146 -0.0385202 0.416744
0.00976529 0.0305464 0.0998169
0.138793 0.130914 0.29521
-0.232373 0.0705736 -0.209882
0.230191 0.048683 0.203534
0.202198 0.0305464 -0.201113
-0.0986153 0.130914 -0.0932838
0.159632 0.0305464 0.235671
-0.0447936 0.0305464 -0.252313
-0.225352 0.0305464 0.194715
-0.191052 -0.00436412 0.407152
0.00775922 0.114822 0.405834
0.10464 0.130914 0.398149
-0.140521 0.0305464 0.309541
0.230191 0.121469 0.26853
-0.201889 0.0305464 0.0798013
0.237309 -0.0218262 -0.397107
0.0180619 0.0305464 -0.28266
-0.184999 0.0305464 0.178787
0.181613 0.0954558 0.405834
0.122685 0.130914 0.215646
-0.241101 0.0284065 -0.237591
-0.161729 0.0305464 -0.412387
0.0532454 0.0184977 0.397107
-0.0250735 0.0305464 -0.083937
-0.200207 0.130914 -0.209814
-0.0919318 0.130914 0.147994
-0.0101679 0.0305464 0.255985
0.220622 0.0305464 0.145319
0.085841 0.0238213 -0.414562
0.236618 -0.130585 -0.416744
0.175089 0.0305464 -0.390152
-0.130751 0.0305464 0.165608
0.0592362 0.0305464 -0.0857247
0.00717953 0.130914 0.265747
-0.0536541 0.0305464 0.227079
0.230191 0.0678083 -0.333584
-0.223645 0.0036115 -0.408704
-0.117622 0.0305464 -0.0734631
-0.230714 0.0305464 0.311868
0.143598 0.0305464 0.0267249
0.210661 0.0305464 -0.348785
-0.223645 -0.0447159 0.416377
0.0924503 0.0305464 -0.125091
0.0718084 0.0305464 -0.320921
-0.186946 0.0305464 -0.0115394
0.221464 0.0242588 -0.0771802
0.216285 0.0741493 0.405834
0.105168 0.130914 -0.283798
0.118305 0.0305464 0.412438
0.0287337 0.0305464 -0.0210591
0.0116629 0.0305464 0.305461
0.230191 0.0943517 -0.250581
-0.222484 0.130914 -0.280389
0.0634844 0.0305464 0.0928983
-0.232373 0.104977 -0.0292331
-0.145304 0.0305464 -0.136166
0.0191004 0.118886 -0.405834
-0.205865 0.130914 -0.0757055
-0.243282 0.0252439 0.412908
0.154186 0.0668066 -0.405834
-0.147086 0.130914 -0.149725
-0.17559 0.0151149 -0.397107
-0.000946075 0.0305464 -0.0967885
0.238919 -0.00184407 0.0918357
0.105052 0.0305464 0.201664
-0.197134 0.130914 0.150221
-0.232373 0.0456256 -0.253321
0.0263729 0.130914 0.038292
-0.232373 0.110824 0.170531
0.0370848 0.130914 0.174945
0.190105 0.0305464 -0.0897034
0.0292397 0.130914 0.233316
-0.104199 0.130914 0.150162
0.115401 0.0305464 -0.143326
-0.119868 0.0305464 -0.302661
-0.0568066 0.0305464 -0.250058
-0.0156698 0.0305464 0.316018
-0.228718 0.0305464 -0.119784
-0.147279 0.130914 0.18327
-0.0105482 0.0305464 -0.211301
-0.117008 0.0305464 -0.0353741
0.0355497 0.0305464 0.118902
-0.0425226 0.130914 0.0873484
0.0117059 0.0305464 -0.175808
-0.177799 0.0305464 -0.396931
-0.145945 0.0305464 0.170613
0.143606 0.0305464 0.311229
0.0635802 0.0305464 -0.330841
0.065021 0.0305464 -0.396314
-0.00934142 -0.00436412 0.410917
-0.220436 0.0945018 -0.405834
-0.241101 0.0187243 -0.262644
0.13725 0.0305464 0.239744
0.0734477 0.0305464 -0.181373
-0.232373 0.127773 -0.113452
0.155183 0.130914 -0.375918
-0.232373 0.0755166 -0.332866
-0.168025 0.130914 0.312636
0.230191 0.0737482 0.000605807
-0.223645 -0.107807 0.406549
0.0118555 0.0305464 -0.263996
-0.0445514 0.130914 -0.3146
0.1319 0.0305464 -0.00916925
0.128527 0.0305464 0.32932
0.221464 0.0118716 -0.202223
0.0407344 0.0305464 -0.133134
0.144401 0.0305464 -0.14361
-0.177735 0.0305464 -0.240867
0.213025 0.0305464 0.269637
-0.232373 0.0333788 -0.320258
0.196513 0.0305464 -0.251811
0.235387 -0.00436412 0.179397
-0.231109 0.130914 0.291243
0.143745 0.0305464 -0.189873
0.000952296 0.0305464 -0.185163
-0.207123 0.0305464 0.0986492
-0.232373 0.119248 -0.187717
0.238919 0.0127523 0.0934236
-0.067592 0.130914 0.280052
-0.0363606 0.0305464 0.268748
0.207663 0.0305464 -0.122013
0.230191 0.107224 0.0111669
-0.232373 0.0881348 -0.0679194
0.230191 0.066484 0.405687
-0.0833995 0.0305464 0.281074
0.13387 0.130914 -0.229757
-0.232373 0.105696 -0.119445
-0.213825 0.130914 0.22042
0.0350809 0.0305464 -0.323581
-0.050557 0.0281947 0.397107
0.0214265 0.0305464 -0.235812
0.0439086 0.0305464 0.357641
0.241101 -0.0846488 0.398957
-0.184841 0.0305464 -0.254398
-0.135601 0.0305464 0.146779
0.221464 0.0211004 0.308296
0.230191 0.129365 -0.106307
0.014287 0.0305464 0.184162
-0.241101 0.0257009 0.180251
-0.182398 0.130914 -0.304699
0.219758 0.130914 -0.235337
0.0972731 0.0305464 -0.247247
-0.123301 0.0305464 -0.00062719
0.0163541 0.130914 -0.129359
-0.232373 0.125942 -0.246956
-0.147704 0.0305464 0.166018
-0.0799262 0.00704032 -0.397107
-0.239908 0.0305464 -0.368197
-0.0237287 0.113316 0.405834
0.219075 0.130914 -0.00760189
-0.23916 0.0305464 0.265272
-0.0623482 0.0279559 -0.414562
-0.0400094 0.130914 0.111236
-0.184539 0.0305464 -0.0127973
-0.232373 0.0837002 0.0960223
0.149583 0.00486691 -0.414562
-0.101185 0.0305464 -0.267376
0.168342 0.0305464 -0.38842
0.0437223 0.130914 0.26685
-0.0320453 0.107108 0.405834
0.179033 0.0305464 0.262441
-0.0384622 0.0305464 0.367975
-0.000117603 0.0305464 -0.37337
0.190089 0.0305464 -0.0757771
0.239925 0.0124271 -0.416744
-0.164133 0.0305464 -0.0100966
-0.0827783 0.130914 -0.0511645
0.230191 0.112576 -0.00821754
-0.0952275 0.0305464 -0.307751
-0.0390914 0.0589561 0.405834
-0.0144631 0.0305464 0.391627
-0.229323 0.0305464 -0.305025
-0.152146 0.0305464 0.0163973
-0.199959 0.130914 -0.122214
0.166575 0.130914 0.126668
-0.122848 0.130914 0.388108
-0.0229887 0.0305464 0.21246
0.00312128 0.130914 -0.261441
-0.210041 0.0305464 0.225429
-0.0659971 0.0305464 0.290838
0.0556353 0.0305464 0.265458
-0.232373 0.112869 -0.328352
-0.147367 0.0305464 0.125991
0.00449026 0.0305464 -0.332627
0.230191 0.105126 0.121863
-0.121082 0.130914 0.261713
0.13123 0.130914 0.0582462
-0.223645 0.00923984 0.0203241
-0.127516 0.0305464 0.312055
0.238919 0.0106335 0.412215
-0.00409092 0.0407122 -0.405834
-0.167597 0.130914 0.00959224
0.154418 0.0203028 -0.414562
0.0106566 0.0305464 -0.30706
-0.0401428 0.0305464 0.306823
0.0241414 0.130914 0.209861
0.230191 0.124142 0.310088
0.104571 0.0383757 -0.405834
0.221009 0.130914 0.396439
0.0446893 0.0305464 -0.0648921
0.153195 0.0305464 -0.396973
0.162033 0.0305464 0.342885
-0.179554 0.130914 -0.129345
0.114896 0.0305464 -0.0118555
-0.0177984 0.0305464 0.228152
0.198769 0.0305464 0.00766623
0.0815962 0.0305464 0.0390669
-0.223645 0.00360557 0.284365
0.166052 0.0305464 -0.225083
0.0967712 0.0305464 0.127803
-0.0858076 0.130914 0.236115
-0.188053 0.0305464 -0.402619
-0.232373 0.0570916 -0.139176
-0.0168363 0.0305464 0.316459
0.230191 0.076607 -0.383628
-0.00303328 0.0305464 0.30892
0.0257937 0.0305464 0.329206
0.100561 0.0305464 0.113467
0.227556 0.0305464 0.22736
0.213849 0.0305464 -0.170043
-0.223645 0.0120024 0.0776306
-0.03759 0.0305464 0.157981
-0.0696836 0.0305464 -0.0773727
-0.11921 0.0480532 0.405834
-0.0330542 0.0305464 -0.257351
0.0591779 0.0305464 -0.33297
-0.182767 0.0305464 0.33987
-0.0919767 0.0383783 0.405834
0.105428 0.130914 -0.326185
0.206174 0.095564 -0.405834
-0.232373 0.0371488 0.0586181
-0.0902937 0.0305464 0.256411
0.199065 0.0305464 -0.187814
-0.16328 0.0786113 -0.405834
0.230191 0.0319157 0.369615
-0.141253 0.130914 -0.384914
0.194094 0.0305464 0.0445831
0.0538848 0.130914 -0.166769
-0.10244 0.0305464 -0.269584
-0.232373 0.0475722 -0.0477848
0.230191 0.110828 -0.380615
0.0233759 0.0305464 -0.393838
-0.131363 0.130914 0.316738
-0.193168 0.0305464 -0.107381
-0.189078 0.130914 -0.15857
-0.206477 0.130914 0.246906
-0.0988507 0.118653 0.405834
-0.154199 0.0305464 0.00200026
-0.232373 0.130492 0.0353247
0.230191 0.0906317 0.205869
0.160421 0.0305464 -0.209636
-0.163153 0.0242278 0.414562
-0.174535 0.0305464 0.141956
-0.202867 0.0305464 0.380461
-0.000551061 0.0305464 0.38786
0.221464 0.0126212 0.0486451
0.0956146 0.130914 -0.198253
0.165211 0.130914 0.295601
0.021543 0.0305464 0.072343
0.230191 0.0493314 0.127236
0.06205 0.130914 -0.0981361
0.0427804 0.0305464 -0.242139
-0.167462 0.0575091 0.405834
0.178131 0.0305464 -0.0438598
0.133328 0.130914 -0.112496
-0.0589774 0.0305464 -0.0609521
-0.113316 0.130914 0.288335
0.0380327 0.130914 -0.218053
0.233425 -0.00436412 0.359101
0.07423 0.130914 -0.113881
-0.202646 0.130914 0.380981
-0.0248839 0.0305464 0.200905
0.0573297 0.130914 -0.037484
-0.0371258 0.0305464 0.0851277
-0.241101 0.0192781 0.0331782
-0.122867 0.0305464 -0.329725
0.0651826 0.111617 -0.405834
-0.0808612 0.130914 -0.102589
0.0755636 0.0305464 0.0235953
-0.223645 0.0204765 0.254199
0.238919 0.0155205 0.263894
0.238919 -0.000153007 0.139743
0.0392628 0.130914 0.198578
0.230191 0.122424 0.144442
-0.0939249 0.0305464 0.162012
-0.123279 0.0836178 0.405834
0.189956 0.130914 0.0650621
0.230191 0.0373883 -0.105454
0.21553 0.0305464 0.0679594
-0.0489638 0.08696 -0.405834
0.224405 0.0305464 0.35282
0.0642949 0.0305464 -0.401666
0.211491 0.0179042 0.414562
0.102979 0.130914 0.327474
-0.143759 0.130914 0.0588501
-0.0892101 0.0305464 0.265945
0.0902356 0.130914 -0.151836
0.122333 0.0481584 -0.405834
0.0505575 0.130914 -0.211955
-0.210923 0.130914 0.102027
0.238919 0.0270739 -0.362884
-0.136883 0.0305464 -0.167645
0.0703788 0.130914 0.156273
-0.137746 0.130914 -0.111703
0.221464 -0.000268459 0.0724256
-0.00634269 0.130914 -0.0744967
-0.0221314 0.0305464 0.120803
0.230191 0.0756713 0.292351
-0.17863 0.130914 -0.00552852
-0.0835932 0.0305464 -0.0757245
-0.0604692 0.0305464 -0.30866
0.221464 0.0234828 0.131876
0.0128287 -0.00436412 0.410892
0.0682687 0.130914 -0.140295
-0.0228344 0.0305464 -0.238416
-0.0751449 0.130914 0.199709
-0.124142 0.0305464 0.331165
-0.15437 0.0315409 0.405834
-0.232373 0.0548734 -0.0466433
-0.0147563 0.0305464 0.36485
-0.232373 0.109018 0.305028
0.208706 0.130914 0.24162
0.221464 0.022521 -0.0558587
0.179071 0.130914 0.045537
-0.00841306 0.130914 0.0883261
0.217428 0.0305464 0.18953
-0.15759 0.0305464 0.290989
0.230191 0.0727866 0.221212
0.158461 0.0305464 0.219204
0.00516175 0.0305464 0.16487
-0.0994237 0.130914 -0.313413
0.230191 0.069676 -0.250833
0.213713 0.130914 -0.274017
-0.138171 0.0305464 -0.333722
-0.201465 0.130914 0.160189
-0.233436 0.0305464 0.0819313
0.12404 0.0305464 0.401594
0.22807 0.0305464 -0.359003
0.0717927 0.130914 -0.108413
0.003611 0.0305464 0.0763436
0.0653225 0.0305464 -0.0101573
0.0711433 0.130914 -0.0172683
0.1923 0.0305464 0.321894
-0.0774753 0.130914 0.105074
0.230191 0.128611 0.336399
-0.0420344 0.130914 -0.125048
0.121336 -0.00436412 0.40813
-0.143024 0.0305464 -0.267925
-0.185 -0.00436412 -0.410569
-0.006232 0.130914 0.0199651
0.230191 0.126472 0.264414
-0.218638 0.0305464 0.0657484
-0.228171 0.0305464 -0.0134227
-0.0749239 0.130914 0.0918739
-0.106025 0.130914 -0.354863
0.230191 0.0306208 -0.0948259
0.232848 -0.0739368 -0.416744
-0.0724661 0.0305464 -0.403686
0.119772 0.0305464 0.184427
-0.163863 0.0305464 -0.330614
0.0300959 0.0305464 -0.336639
0.18515 0.130914 0.204393
0.22811 0.130914 0.25708
-0.0560728 0.130914 0.181056
0.00447652 0.130914 -0.153504
0.111523 0.0305464 0.137064
0.132754 0.0539483 -0.405834
0.0777318 0.0305464 -0.103289
-0.0447141 0.0305464 0.345775
-0.0640094 0.0305464 0.160093
-0.123089 0.0804452 0.405834
-0.0777996 0.0305464 0.0570706
-0.090702 0.130914 0.131428
-0.0657309 0.130914 -0.35743
-0.187695 0.0235355 -0.397107
-0.236546 -0.00436412 -0.264193
0.00300685 0.0305464 0.220801
0.118062 0.0305464 0.0467108
0.183239 0.0305464 -0.299328
0.221464 -0.00413606 -0.216653
-0.000313185 0.0337297 -0.405834
-0.185771 0.130914 0.0535783
-0.241101 0.0162511 -0.396542
0.195104 0.0305464 0.00216186
0.130791 0.0305464 -0.0306589
-0.0690118 -0.00436412 -0.404171
-0.241101 0.00847093 -0.114587
-0.232373 0.0680202 0.248661
-0.241101 0.0183865 0.178519
-0.158015 0.130914 -0.34903
-0.0648184 0.130914 -0.0286724
-0.132221 0.0305464 -0.234263
-0.223758 0.0305464 0.111559
-0.0771374 0.0305464 -0.409927
0.186927 0.0305464 0.115341
0.031282 0.130914 0.268578
-0.182905 0.0305464 -0.206988
-0.177852 0.0305464 -0.201435
-0.193996 0.130914 0.129072
0.208163 0.0305464 -0.241135
-0.201255 0.130914 0.29799
0.0552756 0.0305464 0.164889
0.143497 0.0305464 0.329199
0.16134 0.130914 0.25875
-0.0196639 0.0305464 -0.00384992
0.222239 -0.00436412 -0.386856
0.189686 0.130914 0.0838227
-0.0888144 0.0305464 0.157451
-0.0420988 0.0305464 -0.411046
0.221464 0.0297579 -0.188932
-0.125946 0.130914 -0.339617
0.169792 -0.00436412 0.404258
-0.144821 0.0305464 -0.297184
0.0544389 0.0305464 0.300614
-0.0344286 0.0305464 -0.0689092
-0.0865771 0.0305464 0.0257339
-0.189409 0.130914 -0.261979
-0.0461692 0.130914 0.156573
-0.168394 0.01551 0.397107
0.230191 0.0527685 -0.00533203
-0.138624 0.0759199 -0.405834
0.210104 0.0305464 0.317567
-0.232373 0.0998882 -0.0414172
0.222092 0.130914 -0.242696
-0.21221 0.130914 -0.121597
-0.241101 0.0270235 -0.0139038
0.0425369 0.130914 0.298568
-0.202227 0.0305464 -0.212898
0.0862789 0.0305464 -0.160302
0.0340999 0.0305464 -0.0831253
-0.228066 0.0305464 0.174625
-0.225528 0.130914 -0.199898
0.0988821 0.0305464 -0.0168842
0.178246 0.130914 0.316372
-0.211706 0.117131 -0.405834
0.227832 0.0305464 0.0838174
0.0966789 0.130914 0.314326
0.123493 0.0125058 -0.397107
0.172038 0.130914 -0.0491413
-0.00444069 0.0305464 0.363309
0.121793 0.0305464 0.282072
-0.124657 0.0305464 -0.0875245
0.229089 0.0305464 0.0699499
0.230191 0.130826 -0.365183
0.141319 0.0305464 0.280405
0.0712427 0.0305464 -0.207288
0.155324 0.0305464 0.118982
-0.241101 -0.00180686 0.145066
-0.232373 0.118354 -0.0761903
-0.167168 0.0305464 -0.0660214
0.0345368 0.0305464 -0.28952
-0.232373 0.0517114 0.0769877
-0.0794303 0.0144741 0.414562
0.169087 0.0117786 0.414562
-0.0491713 0.0305464 -0.0542378
0.0838647 0.0305464 -0.0353661
-0.0988528 0.130914 -0.104237
0.107725 0.0305464 -0.308825
0.0871091 0.0980182 0.405834
0.204357 0.0236664 -0.397107
-0.0750455 0.121894 0.405834
-0.192204 0.0305464 -0.130077
-0.0858962 0.0305464 0.175688
-0.0835087 0.130914 0.182939
0.221464 0.0100094 0.152222
-0.130985 0.0305464 -0.160598
-0.232373 0.0541475 -0.165308
-0.212026 0.0305464 -0.0427299
0.00965547 0.130914 -0.0795686
0.0473048 0.0305464 0.130889
-0.128908 0.0250589 -0.414562
-0.194495 0.130914 -0.315904
0.018445 0.0631844 0.405834
-0.196797 0.0305464 -0.32571
0.166462 0.0305464 0.0616593
0.230191 0.122117 -0.132241
0.110631 0.130914 -0.133378
-0.0809431 0.130914 -0.206127
-0.0689418 0.130914 0.0047029
0.100545 0.0305464 0.274383
0.230191 0.0348824 0.339633
-0.0287919 0.0305464 0.393124
-0.0412344 -0.00436412 0.400399
0.132789 0.130914 0.331497
0.20836 0.0305464 -0.052583
0.0765703 0.130914 0.0326376
-0.182196 0.0305464 0.323766
0.152342 0.0305464 -0.382453
0.150447 0.130914 -0.354535
-0.205009 0.0305464 -0.174842
-0.152727 0.0293624 0.414562
0.0560869 0.0305464 -0.397604
-0.232373 0.0889092 -0.139289
0.0778184 0.0305464 -0.020118
-0.14024 0.0305464 0.0613429
-0.221061 0.0305464 -0.0954707
-0.0638883 0.0305464 -0.395778
0.205331 0.0305464 -0.367133
-0.127596 0.130914 -0.34726
