ply
format ascii 1.0
comment Created by Open3D
element vertex 976
property double x
property double y
property double z
end_header
-0.0856193 -0.438158 -0.220259
-0.0859549 -0.439931 -0.201832
-0.0740439 -0.438734 -0.223118
-0.0861208 -0.438413 -0.179496
-0.0885277 -0.435583 -0.161001
-0.0861492 -0.438481 -0.14172
-0.0885597 -0.436021 -0.119137
-0.0861813 -0.438941 -0.0993907
-0.0885895 -0.436078 -0.0803644
-0.0862107 -0.439015 -0.0601832
-0.0856193 -0.419513 -0.220259
-0.0884963 -0.420213 -0.202064
-0.0885134 -0.422416 -0.179763
-0.0885277 -0.424269 -0.161001
-0.0886197 -0.436135 -0.0408923
-0.0862409 -0.439091 -0.0202651
-0.0740439 -0.419904 -0.223118
-0.0885421 -0.422351 -0.142072
-0.0885597 -0.424597 -0.119137
-0.0886505 -0.436193 -0.000701696
-0.0862716 -0.439168 0.0203832
-0.0192498 -0.436777 -0.223158
-0.0885895 -0.424551 -0.0803644
-0.0886816 -0.436253 0.0402277
-0.0862997 -0.438842 0.0576076
-0.0885744 -0.418837 -0.0998369
-0.0886197 -0.424505 -0.0408923
-0.0887103 -0.435909 0.0777123
-0.0863316 -0.438918 0.0996995
-0.0886043 -0.418739 -0.060717
-0.0886505 -0.424457 -0.000701696
-0.0887427 -0.435967 0.120102
-0.0863607 -0.438583 0.138258
-0.0192498 -0.424919 -0.223158
-0.0856193 -0.400868 -0.220259
-0.0884963 -0.401537 -0.202064
-0.088635 -0.41864 -0.020888
-0.0886658 -0.422468 0.0196695
-0.0886816 -0.424409 0.0402277
-0.0887724 -0.435615 0.158936
-0.0863937 -0.438659 0.181872
-0.0740439 -0.401074 -0.223118
-0.0885134 -0.399887 -0.179763
-0.0886973 -0.422401 0.0609756
-0.0887103 -0.423967 0.0777123
-0.0888027 -0.435257 0.198435
-0.0885365 -0.398921 -0.149663
-0.088551 -0.400684 -0.130635
-0.0885657 -0.402462 -0.111437
-0.0887264 -0.42194 0.0988085
-0.0887427 -0.423913 0.120102
-0.0885805 -0.400425 -0.0920687
-0.0887592 -0.421867 0.141595
-0.0887724 -0.423458 0.158936
-0.0885984 -0.398726 -0.0685971
-0.0886135 -0.400522 -0.0488436
-0.0886288 -0.402333 -0.0289115
-0.0886505 -0.404897 -0.000701696
-0.088789 -0.421393 0.180797
-0.0888127 -0.424207 0.211752
-0.0856193 -0.382223 -0.220259
-0.0885049 -0.383861 -0.190943
-0.0886816 -0.404669 0.0402277
-0.0740439 -0.382244 -0.223118
-0.0885192 -0.38178 -0.172278
-0.0886658 -0.398889 0.0196695
-0.0887103 -0.404062 0.0777123
-0.0192498 -0.39725 -0.223158
-0.0885365 -0.380015 -0.149663
-0.088551 -0.381694 -0.130635
-0.0886973 -0.398604 0.0609756
-0.0887264 -0.401943 0.0988085
-0.0887427 -0.403822 0.120102
-0.0885657 -0.379573 -0.111437
-0.0885805 -0.381266 -0.0920687
-0.0887592 -0.401682 0.141595
-0.0887789 -0.403959 0.167656
-0.0885984 -0.379464 -0.0685971
-0.0886135 -0.381173 -0.0488436
-0.0887959 -0.401797 0.189599
-0.0888127 -0.403714 0.211752
-0.0886288 -0.379009 -0.0289115
-0.0886441 -0.380732 -0.00879818
-0.0886596 -0.382469 0.0114987
-0.0886816 -0.384929 0.0402277
-0.0856193 -0.359849 -0.220259
-0.0884963 -0.360449 -0.202064
-0.0885134 -0.362339 -0.179763
-0.0885277 -0.363929 -0.161001
-0.0887103 -0.384158 0.0777123
-0.0192498 -0.377486 -0.223158
-0.0740439 -0.359649 -0.223118
-0.0885421 -0.361745 -0.142072
-0.0886973 -0.378773 0.0609756
-0.0887264 -0.381946 0.0988085
-0.0887427 -0.383732 0.120102
-0.0885657 -0.360499 -0.111437
-0.0885805 -0.362107 -0.0920687
-0.0887592 -0.381497 0.141595
-0.0887789 -0.38366 0.167656
-0.0885984 -0.360202 -0.0685971
-0.0886135 -0.361824 -0.0488436
-0.0887959 -0.381402 0.189599
-0.0859523 -0.384613 0.217588
-0.0886288 -0.359573 -0.0289115
-0.0886441 -0.361207 -0.00879818
-0.0856193 -0.341204 -0.220259
-0.0884963 -0.341773 -0.202064
-0.0886596 -0.358933 0.0114987
-0.0886723 -0.360248 0.0278701
-0.088688 -0.361906 0.0485039
-0.0887103 -0.364253 0.0777123
-0.0740439 -0.340819 -0.223118
-0.0885134 -0.33981 -0.179763
-0.0885365 -0.342202 -0.149663
-0.0885597 -0.344628 -0.119137
-0.0887264 -0.361949 0.0988085
-0.0887427 -0.363641 0.120102
-0.0192498 -0.35377 -0.223158
-0.0885744 -0.342337 -0.0998369
-0.0885895 -0.343867 -0.0803644
-0.0887592 -0.361312 0.141595
-0.0886043 -0.341552 -0.060717
-0.088789 -0.360322 0.180797
-0.0859523 -0.364045 0.217588
-0.0886288 -0.340137 -0.0289115
-0.0886441 -0.341682 -0.00879818
-0.0887724 -0.35457 0.158936
-0.0884879 -0.322257 -0.213127
-0.0885049 -0.323942 -0.190943
-0.0886596 -0.339319 0.0114987
-0.0886723 -0.340563 0.0278701
-0.088688 -0.34213 0.0485039
-0.0887103 -0.344349 0.0777123
-0.0888027 -0.353519 0.198435
-0.0740439 -0.321989 -0.223118
-0.0885192 -0.321598 -0.172278
-0.0887264 -0.341952 0.0988085
-0.0887427 -0.34355 0.120102
-0.0192498 -0.334006 -0.223158
-0.0885365 -0.319515 -0.149663
-0.088551 -0.320927 -0.130635
-0.0885657 -0.322351 -0.111437
-0.0885895 -0.324657 -0.0803644
-0.0887592 -0.341127 0.141595
-0.0886043 -0.322255 -0.060717
-0.0886197 -0.323709 -0.0408923
-0.088789 -0.339964 0.180797
-0.0859523 -0.343478 0.217588
-0.088635 -0.321282 -0.020888
-0.0887724 -0.334309 0.158936
-0.0884963 -0.304421 -0.202064
-0.0886596 -0.319705 0.0114987
-0.0886723 -0.320877 0.0278701
-0.088688 -0.322354 0.0485039
-0.0887103 -0.324444 0.0777123
-0.0856193 -0.300185 -0.220259
-0.0885134 -0.302262 -0.179763
-0.0887264 -0.321954 0.0988085
-0.0192498 -0.314242 -0.223158
-0.0740439 -0.299393 -0.223118
-0.0885305 -0.30008 -0.157228
-0.0885481 -0.30167 -0.134454
-0.0887492 -0.32004 0.128675
-0.0888027 -0.32491 0.198435
-0.0885657 -0.299462 -0.111437
-0.0885805 -0.300797 -0.0920687
-0.0885984 -0.302415 -0.0685971
-0.0886197 -0.304325 -0.0408923
-0.088789 -0.319607 0.180797
-0.088635 -0.30181 -0.020888
-0.0887724 -0.314048 0.158936
-0.0886596 -0.300091 0.0114987
-0.0886723 -0.301191 0.0278701
-0.0887103 -0.304539 0.0777123
-0.0859523 -0.314683 0.217588
-0.0856193 -0.28154 -0.220259
-0.0885192 -0.283984 -0.172278
-0.088688 -0.298622 0.0485039
-0.0887264 -0.301957 0.0988085
-0.0192498 -0.294479 -0.223158
-0.0740439 -0.280564 -0.223118
-0.088502 -0.278759 -0.194656
-0.0885365 -0.281702 -0.149663
-0.0887492 -0.299912 0.128675
-0.0888027 -0.304476 0.198435
-0.0885597 -0.279891 -0.119137
-0.0885744 -0.281137 -0.0998369
-0.0886197 -0.284941 -0.0408923
-0.088789 -0.29925 0.180797
-0.0885924 -0.278801 -0.076449
-0.0886015 -0.279552 -0.0646605
-0.088635 -0.282338 -0.020888
-0.0886505 -0.283624 -0.000701696
-0.0887724 -0.293787 0.158936
-0.0886658 -0.280991 0.0196695
-0.0887103 -0.284635 0.0777123
-0.0859523 -0.294116 0.217588
-0.0885134 -0.264714 -0.179763
-0.088688 -0.278846 0.0485039
-0.0887264 -0.28196 0.0988085
-0.0192498 -0.274715 -0.223158
-0.0740439 -0.261734 -0.223118
-0.0856193 -0.259166 -0.220259
-0.0884963 -0.259598 -0.202064
-0.0885277 -0.262104 -0.161001
-0.0885481 -0.263724 -0.134454
-0.0887492 -0.279783 0.128675
-0.0888027 -0.284041 0.198435
-0.0885715 -0.261779 -0.103711
-0.088789 -0.278893 0.180797
-0.0885895 -0.259341 -0.0803644
-0.0886043 -0.260506 -0.060717
-0.0886197 -0.261681 -0.0408923
-0.0886472 -0.263823 -0.00475359
-0.0887724 -0.273526 0.158936
-0.088635 -0.258972 -0.020888
-0.0886629 -0.261102 0.0155804
-0.0887103 -0.26473 0.0777123
-0.0859523 -0.273548 0.217588
-0.0884907 -0.244233 -0.209445
-0.088688 -0.259069 0.0485039
-0.0887264 -0.261963 0.0988085
-0.0192498 -0.254951 -0.223158
-0.0885049 -0.241552 -0.190943
-0.0885421 -0.24432 -0.142072
-0.0887492 -0.259655 0.128675
-0.0888027 -0.263606 0.198435
-0.0740439 -0.239138 -0.223118
-0.0885192 -0.238848 -0.172278
-0.0885597 -0.241811 -0.119137
-0.088789 -0.258536 0.180797
-0.0885805 -0.239488 -0.0920687
-0.0885984 -0.240777 -0.0685971
-0.0886165 -0.242079 -0.0448715
-0.0886441 -0.244059 -0.00879818
-0.0886596 -0.24125 0.0114987
-0.0887071 -0.244599 0.0735165
-0.0887657 -0.248743 0.150249
-0.0886816 -0.238853 0.0402277
-0.0887167 -0.241292 0.0861273
-0.0856193 -0.221876 -0.220259
-0.0884963 -0.222246 -0.202064
-0.0887492 -0.239527 0.128675
-0.088789 -0.24225 0.180797
-0.0888127 -0.243868 0.211752
-0.0740439 -0.220308 -0.223118
-0.0885192 -0.220041 -0.172278
-0.0885365 -0.221202 -0.149663
-0.088551 -0.22218 -0.130635
-0.0885744 -0.223762 -0.0998369
-0.0192498 -0.227282 -0.223158
-0.0885895 -0.22092 -0.0803644
-0.088635 -0.223924 -0.020888
-0.0887624 -0.232346 0.145918
-0.0886135 -0.218642 -0.0488436
-0.0886505 -0.221031 -0.000701696
-0.0887038 -0.224505 0.0693285
-0.0887362 -0.226601 0.111561
-0.0886785 -0.218912 0.0361009
-0.08872 -0.221556 0.0903465
-0.0885134 -0.204637 -0.179763
-0.0886658 -0.214182 0.0196695
-0.0887492 -0.219398 0.128675
-0.0887858 -0.221683 0.176408
-0.0859523 -0.224186 0.217588
-0.0740439 -0.201479 -0.223118
-0.0856193 -0.199502 -0.220259
-0.0884963 -0.199835 -0.202064
-0.0885277 -0.201764 -0.161001
-0.0885744 -0.204637 -0.0998369
-0.0887362 -0.214569 0.111561
-0.088551 -0.199392 -0.130635
-0.0885895 -0.20171 -0.0803644
-0.088635 -0.204452 -0.020888
-0.088806 -0.214768 0.202866
-0.0192498 -0.203566 -0.223158
-0.0886135 -0.199293 -0.0488436
-0.0886505 -0.20147 -0.000701696
-0.0886973 -0.20426 0.0609756
-0.0886816 -0.199374 0.0402277
-0.0887103 -0.201036 0.0777123
-0.0887657 -0.204253 0.150249
-0.0884907 -0.184573 -0.209445
-0.0886658 -0.194532 0.0196695
-0.0887526 -0.199457 0.132974
-0.0887789 -0.200965 0.167656
-0.0859523 -0.203619 0.217588
-0.0885049 -0.181632 -0.190943
-0.0885192 -0.182427 -0.172278
-0.0885421 -0.183713 -0.142072
-0.0887264 -0.193973 0.0988085
-0.0740439 -0.178883 -0.223118
-0.0885597 -0.180882 -0.119137
-0.0885805 -0.182011 -0.0920687
-0.088635 -0.18498 -0.020888
-0.0887959 -0.19376 0.189599
-0.0192498 -0.183802 -0.223158
-0.0885984 -0.179138 -0.0685971
-0.0886135 -0.179944 -0.0488436
-0.0886505 -0.18191 -0.000701696
-0.0886973 -0.184429 0.0609756
-0.0886816 -0.179634 0.0402277
-0.0887103 -0.181131 0.0777123
-0.0887592 -0.183684 0.141595
-0.0886658 -0.174882 0.0196695
-0.0887427 -0.178807 0.120102
-0.0887724 -0.180324 0.158936
-0.0856193 -0.162212 -0.220259
-0.0884963 -0.162482 -0.202064
-0.0885421 -0.164774 -0.142072
-0.0887264 -0.173975 0.0988085
-0.0740439 -0.160053 -0.223118
-0.0885192 -0.159859 -0.172278
-0.0885597 -0.161842 -0.119137
-0.0886043 -0.164022 -0.060717
-0.0888027 -0.173694 0.198435
-0.0859523 -0.174824 0.217588
-0.0192498 -0.164039 -0.223158
-0.0885805 -0.15902 -0.0920687
-0.0886197 -0.160885 -0.0408923
-0.0886441 -0.162055 -0.00879818
-0.0886973 -0.164598 0.0609756
-0.0886816 -0.159894 0.0402277
-0.0887103 -0.161227 0.0777123
-0.0887592 -0.163499 0.141595
-0.088789 -0.164893 0.180797
-0.0887427 -0.158716 0.120102
-0.0887724 -0.160063 0.158936
-0.0885134 -0.14456 -0.179763
-0.0886596 -0.151026 0.0114987
-0.0887264 -0.153978 0.0988085
-0.0740439 -0.141223 -0.223118
-0.0856193 -0.139838 -0.220259
-0.0884963 -0.140071 -0.202064
-0.0885277 -0.141423 -0.161001
-0.088551 -0.142423 -0.130635
-0.0886043 -0.144726 -0.060717
-0.0888127 -0.153698 0.211752
-0.0192498 -0.144275 -0.223158
-0.0885657 -0.13924 -0.111437
-0.0885805 -0.139861 -0.0920687
-0.0886197 -0.141502 -0.0408923
-0.0886973 -0.144767 0.0609756
-0.0886441 -0.138625 -0.00879818
-0.0886723 -0.139768 0.0278701
-0.0887103 -0.141322 0.0777123
-0.0887657 -0.143584 0.150249
-0.088789 -0.144536 0.180797
-0.0887427 -0.138626 0.120102
-0.0884907 -0.124913 -0.209445
-0.0886596 -0.131413 0.0114987
-0.0887264 -0.133981 0.0988085
-0.0740439 -0.122394 -0.223118
-0.0885049 -0.121712 -0.190943
-0.0885192 -0.122245 -0.172278
-0.0885744 -0.124312 -0.0998369
-0.0859523 -0.133689 0.217588
-0.0192498 -0.124511 -0.223158
-0.0885365 -0.119109 -0.149663
-0.088551 -0.119635 -0.130635
-0.0885895 -0.121026 -0.0803644
-0.0886135 -0.121898 -0.0488436
-0.0886288 -0.122449 -0.0289115
-0.0886973 -0.124936 0.0609756
-0.0886441 -0.119101 -0.00879818
-0.0886723 -0.120083 0.0278701
-0.0887103 -0.121418 0.0777123
-0.088789 -0.124179 0.180797
-0.0888027 -0.124651 0.198435
-0.0887427 -0.118535 0.120102
-0.0887724 -0.119541 0.158936
-0.0886596 -0.111799 0.0114987
-0.0887264 -0.113984 0.0988085
-0.0887592 -0.115055 0.141595
-0.0885421 -0.104167 -0.142072
-0.0192498 -0.104747 -0.223158
-0.0740439 -0.0997978 -0.223118
-0.0856193 -0.0988187 -0.220259
-0.0884963 -0.0989834 -0.202064
-0.0885192 -0.0996766 -0.172278
-0.0885597 -0.100913 -0.119137
-0.0885805 -0.101543 -0.0920687
-0.0885984 -0.102089 -0.0685971
-0.0886135 -0.0986792 -0.0488436
-0.0886288 -0.0991255 -0.0289115
-0.0886441 -0.0995759 -0.00879818
-0.0886723 -0.100397 0.0278701
-0.088688 -0.100859 0.0485039
-0.0887038 -0.101325 0.0693285
-0.0887427 -0.102462 0.120102
-0.088789 -0.103821 0.180797
-0.0888027 -0.104216 0.198435
-0.0859523 -0.104894 0.217588
-0.0887724 -0.0992797 0.158936
-0.0886596 -0.0921849 0.0114987
-0.0887264 -0.0939867 0.0988085
-0.0887592 -0.0948697 0.141595
-0.0884907 -0.0838967 -0.209445
-0.0885134 -0.0844832 -0.179763
-0.0192498 -0.0849838 -0.223158
-0.0740439 -0.080968 -0.223118
-0.0885277 -0.0810826 -0.161001
-0.088551 -0.0816559 -0.130635
-0.0885657 -0.0820183 -0.111437
-0.0885805 -0.082384 -0.0920687
-0.088635 -0.0837279 -0.020888
-0.0885984 -0.0789748 -0.0685971
-0.0886135 -0.0793304 -0.0488436
-0.0886723 -0.0807114 0.0278701
-0.088688 -0.0810828 0.0485039
-0.0887038 -0.0814577 0.0693285
-0.0887427 -0.0823717 0.120102
-0.088789 -0.0834643 0.180797
-0.0888027 -0.0837819 0.198435
-0.0859523 -0.0843269 0.217588
-0.0887724 -0.0790186 0.158936
-0.0886505 -0.0723729 -0.000701696
-0.0887264 -0.0739895 0.0988085
-0.0887592 -0.0746846 0.141595
-0.0740439 -0.0621382 -0.223118
-0.0856193 -0.0615286 -0.220259
-0.0884963 -0.0616312 -0.202064
-0.0885192 -0.0620628 -0.172278
-0.0885365 -0.0623904 -0.149663
-0.0886043 -0.0636792 -0.060717
-0.088635 -0.0642563 -0.020888
-0.0886658 -0.064844 0.0196695
-0.088551 -0.0588682 -0.130635
-0.0885657 -0.0591295 -0.111437
-0.0885805 -0.0593931 -0.0920687
-0.0886197 -0.0600897 -0.0408923
-0.0886816 -0.0611939 0.0402277
-0.0887038 -0.06159 0.0693285
-0.0887427 -0.062281 0.120102
-0.0888127 -0.0635285 0.211752
-0.0192498 -0.0573147 -0.223158
-0.0887724 -0.0587574 0.158936
-0.0887264 -0.0539924 0.0988085
-0.0887592 -0.0544996 0.141595
-0.088789 -0.0549643 0.180797
-0.0886505 -0.0489006 -0.000701696
-0.0885744 -0.0439874 -0.0998369
-0.0886043 -0.0443825 -0.060717
-0.088635 -0.0447847 -0.020888
-0.0740439 -0.0395425 -0.223118
-0.0856193 -0.0391546 -0.220259
-0.0884963 -0.0392199 -0.202064
-0.0885192 -0.0394945 -0.172278
-0.0885365 -0.039703 -0.149663
-0.088551 -0.0398785 -0.130635
-0.0885895 -0.040342 -0.0803644
-0.0886197 -0.0407059 -0.0408923
-0.0886723 -0.04134 0.0278701
-0.088688 -0.0415302 0.0485039
-0.0887038 -0.0417222 0.0693285
-0.0887427 -0.0421904 0.120102
-0.0887724 -0.0384962 0.158936
-0.0192498 -0.0335982 -0.223158
-0.0887264 -0.0339952 0.0988085
-0.0887592 -0.0343145 0.141595
-0.088789 -0.0346072 0.180797
-0.0888027 -0.0347388 0.198435
-0.0859523 -0.0349648 0.217588
-0.0886505 -0.0293404 -0.000701696
-0.0884907 -0.0242368 -0.209445
-0.0885134 -0.0244062 -0.179763
-0.0885421 -0.0246214 -0.142072
-0.0885744 -0.0248625 -0.0998369
-0.0740439 -0.0207127 -0.223118
-0.0885277 -0.0207421 -0.161001
-0.0885597 -0.0209442 -0.119137
-0.0885895 -0.0211315 -0.0803644
-0.0886135 -0.0212837 -0.0488436
-0.0886288 -0.02138 -0.0289115
-0.0886723 -0.0216543 0.0278701
-0.088688 -0.0217539 0.0485039
-0.0887038 -0.0218545 0.0693285
-0.0887427 -0.0220997 0.120102
-0.0887724 -0.0222873 0.158936
-0.0192498 -0.0138346 -0.223158
-0.0887264 -0.013998 0.0988085
-0.0887592 -0.0141295 0.141595
-0.088789 -0.01425 0.180797
-0.0888027 -0.0143042 0.198435
-0.0859523 -0.0143973 0.217588
-0.0886441 -0.00976235 -0.00879818
-0.0886596 -0.00980691 0.0114987
-0.0740439 -0.00188299 -0.223118
-0.0856193 -0.00186452 -0.220259
-0.0884963 -0.00186762 -0.202064
-0.0885192 -0.0018807 -0.172278
-0.0885365 -0.00189063 -0.149663
-0.088551 -0.00189899 -0.130635
-0.0885657 -0.00190742 -0.111437
-0.0885805 -0.00191592 -0.0920687
-0.0885984 -0.00192623 -0.0685971
-0.0886135 -0.0019349 -0.0488436
-0.0886288 -0.00194365 -0.0289115
-0.0886723 -0.00196858 0.0278701
-0.088688 -0.00197764 0.0485039
-0.0887038 -0.00198679 0.0693285
-0.0887427 -0.00200908 0.120102
-0.0887724 -0.00202613 0.158936
-0.0192498 0.00592908 -0.223158
-0.0887264 0.00599913 0.0988085
-0.0887592 0.00605549 0.141595
-0.088789 0.00610713 0.180797
-0.0888027 0.00613036 0.198435
-0.0859523 0.00617024 0.217588
-0.0886441 0.00976235 -0.00879818
-0.0886596 0.00980691 0.0114987
-0.0886723 0.0177171 0.0278701
-0.088688 0.0177987 0.0485039
-0.0887038 0.017881 0.0693285
-0.0887427 0.0180816 0.120102
-0.0887724 0.0182351 0.158936
-0.0740439 0.0207128 -0.223118
-0.0856193 0.0205096 -0.220259
-0.0884963 0.0205438 -0.202064
-0.0885192 0.0206876 -0.172278
-0.0885365 0.0207968 -0.149663
-0.088551 0.0208887 -0.130635
-0.0885657 0.0209815 -0.111437
-0.0885805 0.021075 -0.0920687
-0.0885984 0.0211884 -0.0685971
-0.0886135 0.0212838 -0.0488436
-0.0886288 0.02138 -0.0289115
-0.0192498 0.0256928 -0.223158
-0.0887264 0.0259963 0.0988085
-0.0887592 0.0262405 0.141595
-0.088789 0.0264643 0.180797
-0.0886441 0.0292871 -0.00879818
-0.0886596 0.0294207 0.0114987
-0.0888027 0.0347388 0.198435
-0.0859523 0.0349648 0.217588
-0.0884907 0.0354231 -0.209445
-0.0885134 0.0356707 -0.179763
-0.0885421 0.0359851 -0.142072
-0.0886816 0.0375059 0.0402277
-0.0887038 0.0377487 0.0693285
-0.0887427 0.0381723 0.120102
-0.0887724 0.0384962 0.158936
-0.0740439 0.0395425 -0.223118
-0.0885277 0.0395985 -0.161001
-0.0885597 0.0399845 -0.119137
-0.0885805 0.040234 -0.0920687
-0.0885984 0.0404505 -0.0685971
-0.0886135 0.0406326 -0.0488436
-0.0886288 0.0408164 -0.0289115
-0.0192498 0.0454565 -0.223158
-0.0886658 0.0451943 0.0196695
-0.0887264 0.0459935 0.0988085
-0.0887592 0.0464256 0.141595
-0.0886441 0.0488117 -0.00879818
-0.088789 0.0549643 0.180797
-0.0888027 0.0551734 0.198435
-0.0859523 0.0555323 0.217588
-0.0885715 0.0554131 -0.103711
-0.0886043 0.0559606 -0.060717
-0.0887038 0.0576164 0.0693285
-0.0887427 0.0582629 0.120102
-0.0887724 0.0587574 0.158936
-0.0740439 0.0583723 -0.223118
-0.0856193 0.0577996 -0.220259
-0.0884963 0.057896 -0.202064
-0.0885192 0.0583014 -0.172278
-0.0885365 0.0586092 -0.149663
-0.088551 0.0588682 -0.130635
-0.0885862 0.0594993 -0.0842728
-0.0886197 0.0600897 -0.0408923
-0.0886816 0.0611939 0.0402277
-0.0192498 0.0652201 -0.223158
-0.0887264 0.0659907 0.0988085
-0.0886441 0.0683364 -0.00879818
-0.0886596 0.0686483 0.0114987
-0.0887592 0.0746846 0.141595
-0.088789 0.0753215 0.180797
-0.0888027 0.075608 0.198435
-0.0859523 0.0760999 0.217588
-0.0885984 0.0751223 -0.0685971
-0.0887071 0.0775558 0.0735165
-0.0887427 0.0783535 0.120102
-0.0887724 0.0790185 0.158936
-0.0885365 0.0775154 -0.149663
-0.088551 0.077858 -0.130635
-0.0885744 0.0784124 -0.0998369
-0.0886135 0.0793304 -0.0488436
-0.0886723 0.0807114 0.0278701
-0.088688 0.0810828 0.0485039
-0.0740439 0.080968 -0.223118
-0.0856193 0.0801736 -0.220259
-0.0884963 0.0803073 -0.202064
-0.0885192 0.0808696 -0.172278
-0.0886288 0.0835764 -0.0289115
-0.0887233 0.0859078 0.0945736
-0.0886441 0.0878611 -0.00879818
-0.0192498 0.0928893 -0.223158
-0.088789 0.0956787 0.180797
-0.0888027 0.0960426 0.198435
-0.0886288 0.0952383 -0.0289115
-0.0886596 0.0961077 0.0114987
-0.0887362 0.0982605 0.111561
-0.0887691 0.0991862 0.154589
-0.0884907 0.0950829 -0.209445
-0.0885134 0.0957476 -0.179763
-0.0885744 0.0975374 -0.0998369
-0.0885895 0.0979734 -0.0803644
-0.0886043 0.0984134 -0.060717
-0.0886723 0.100397 0.0278701
-0.0887008 0.101232 0.0651481
-0.0887492 0.102654 0.128675
-0.0859523 0.104894 0.217588
-0.0740439 0.0997978 -0.223118
-0.0885277 0.099939 -0.161001
-0.088551 0.100646 -0.130635
-0.088688 0.104814 0.0485039
-0.08872 0.105788 0.0903465
-0.0192498 0.112653 -0.223158
-0.0886441 0.111291 -0.00879818
-0.0887592 0.115055 0.141595
-0.0887789 0.115707 0.167656
-0.0887959 0.116256 0.189599
-0.0886596 0.115722 0.0114987
-0.0887362 0.118314 0.111561
-0.0885391 0.115429 -0.145871
-0.0886043 0.11771 -0.060717
-0.0886197 0.118241 -0.0408923
-0.0886723 0.120083 0.0278701
-0.0886973 0.120969 0.0609756
-0.0888127 0.125008 0.211752
-0.0740439 0.118628 -0.223118
-0.0884963 0.11766 -0.202064
-0.0885192 0.118483 -0.172278
-0.0885481 0.11953 -0.134454
-0.0885744 0.120487 -0.0998369
-0.0885895 0.121026 -0.0803644
-0.08872 0.125748 0.0903465
-0.0856193 0.121193 -0.220259
-0.0886347 0.13046 -0.020888
-0.0887592 0.13524 0.141595
-0.0887758 0.135878 0.163292
-0.0887858 0.136264 0.176408
-0.0192498 0.136369 -0.223158
-0.0886596 0.135335 0.0114987
-0.0887362 0.138367 0.111561
-0.0885597 0.135186 -0.119137
-0.0886165 0.137501 -0.0448715
-0.0886723 0.139768 0.0278701
-0.0886973 0.1408 0.0609756
-0.0888027 0.145086 0.198435
-0.0859523 0.146029 0.217588
-0.0884907 0.136099 -0.209445
-0.0885248 0.137531 -0.164766
-0.0885421 0.138259 -0.142072
-0.0885744 0.139612 -0.0998369
-0.0886015 0.14074 -0.0646605
-0.08872 0.145708 0.0903465
-0.0740439 0.141223 -0.223118
-0.0885049 0.140437 -0.190943
-0.0885895 0.144078 -0.0803644
-0.0886319 0.149796 -0.0249034
-0.0887592 0.155425 0.141595
-0.0887724 0.156011 0.158936
-0.0192498 0.156133 -0.223158
-0.0886629 0.155091 0.0155804
-0.0886848 0.156089 0.0443619
-0.0887362 0.15842 0.111561
-0.0885895 0.155605 -0.0803644
-0.0886472 0.158294 -0.00475359
-0.0887008 0.16078 0.0651481
-0.088789 0.164893 0.180797
-0.0888027 0.16552 0.198435
-0.0885134 0.155825 -0.179763
-0.0885628 0.158174 -0.115291
-0.0885715 0.158596 -0.103711
-0.0886043 0.160163 -0.060717
-0.0887167 0.165514 0.0861273
-0.0740439 0.160053 -0.223118
-0.0856193 0.158483 -0.220259
-0.0884963 0.158747 -0.202064
-0.0885365 0.160703 -0.149663
-0.0886197 0.164762 -0.0408923
-0.0859523 0.174824 0.217588
-0.0886347 0.169403 -0.020888
-0.0887526 0.17528 0.132974
-0.0887724 0.176272 0.158936
-0.0192498 0.175897 -0.223158
-0.0886848 0.175847 0.0443619
-0.0886658 0.178812 0.0196695
-0.0887008 0.180629 0.0651481
-0.0887858 0.185075 0.176408
-0.088806 0.186132 0.202866
-0.0885277 0.175365 -0.161001
-0.0885687 0.177546 -0.107577
-0.0885984 0.179138 -0.0685971
-0.0886135 0.179944 -0.0488436
-0.0887167 0.185456 0.0861273
-0.0740439 0.178883 -0.223118
-0.0884992 0.177577 -0.198363
-0.0885421 0.179925 -0.142072
-0.0886472 0.185653 -0.00475359
-0.0859523 0.195392 0.217588
-0.0856193 0.180857 -0.220259
-0.0885805 0.185843 -0.0920687
-0.0886288 0.188533 -0.0289115
-0.0887458 0.195062 0.124385
-0.0887691 0.196348 0.154589
-0.0192498 0.19566 -0.223158
-0.0885134 0.185863 -0.179763
-0.0886785 0.195246 0.0361009
-0.0886658 0.198462 0.0196695
-0.0887008 0.200479 0.0651481
-0.0887858 0.205413 0.176408
-0.088551 0.195594 -0.130635
-0.0885984 0.1984 -0.0685971
-0.0740439 0.197713 -0.223118
-0.0884907 0.195759 -0.209445
-0.0885365 0.198515 -0.149663
-0.0885657 0.200277 -0.111437
-0.0886135 0.203163 -0.0488436
-0.0886472 0.205196 -0.00475359
-0.0887167 0.209386 0.0861273
-0.088806 0.214768 0.202866
-0.0859523 0.215959 0.217588
-0.0885805 0.205002 -0.0920687
-0.0886319 0.208158 -0.0249034
-0.0887458 0.215171 0.124385
-0.0192498 0.215424 -0.223158
-0.0887624 0.220224 0.145918
-0.088502 0.207666 -0.194656
-0.0885192 0.208757 -0.172278
-0.0886629 0.217912 0.0155804
-0.0886785 0.218912 0.0361009
-0.0887858 0.22575 0.176408
-0.0885984 0.217662 -0.0685971
-0.0886197 0.219037 -0.0408923
-0.0887008 0.224298 0.0651481
-0.0885391 0.217613 -0.145871
-0.0885597 0.218963 -0.119137
-0.0887167 0.229327 0.0861273
-0.088806 0.235222 0.202866
-0.0740439 0.220308 -0.223118
-0.0856193 0.218147 -0.220259
-0.0886502 0.228855 -0.000701606
-0.0887458 0.235281 0.124385
-0.0192498 0.235188 -0.223158
-0.0885744 0.227587 -0.0998369
-0.0887008 0.236208 0.0651481
-0.0887624 0.240428 0.145918
-0.0859523 0.244754 0.217588
-0.0886347 0.235607 -0.020888
-0.0886723 0.238197 0.0278701
-0.088688 0.239293 0.0485039
-0.0887858 0.246088 0.176408
-0.0884963 0.229716 -0.202064
-0.0885134 0.230921 -0.179763
-0.0885895 0.236289 -0.0803644
-0.0886197 0.23842 -0.0408923
-0.0887264 0.245965 0.0988085
-0.0885277 0.235705 -0.161001
-0.0885539 0.237582 -0.126809
-0.0886043 0.241209 -0.060717
-0.0888027 0.255432 0.198435
-0.0740439 0.239138 -0.223118
-0.0886502 0.248415 -0.000701606
-0.0887427 0.255151 0.120102
-0.0856193 0.240521 -0.220259
-0.0886973 0.255821 0.0609756
-0.0887592 0.260387 0.141595
-0.0859523 0.265321 0.217588
-0.0885049 0.245297 -0.190943
-0.0885657 0.24987 -0.111437
-0.0886347 0.255078 -0.020888
-0.0886723 0.257883 0.0278701
-0.0887103 0.260749 0.0777123
-0.0887724 0.265421 0.158936
-0.0192498 0.262857 -0.223158
-0.0886165 0.257572 -0.0448715
-0.0887264 0.265962 0.0988085
-0.0885421 0.255684 -0.142072
-0.0885895 0.259341 -0.0803644
-0.088789 0.274822 0.180797
-0.0888027 0.275867 0.198435
-0.0740439 0.257968 -0.223118
-0.0884907 0.255419 -0.209445
-0.0886043 0.264365 -0.060717
-0.0886472 0.267732 -0.00475359
-0.0887427 0.275242 0.120102
-0.0885744 0.265837 -0.0998369
-0.0886973 0.275652 0.0609756
-0.0887592 0.280572 0.141595
-0.0859523 0.285889 0.217588
-0.0885192 0.265177 -0.172278
-0.0885597 0.268467 -0.119137
-0.0886723 0.277568 0.0278701
-0.0887103 0.280654 0.0777123
-0.0887724 0.285683 0.158936
-0.0192498 0.282621 -0.223158
-0.0886015 0.275696 -0.0646605
-0.0887264 0.285959 0.0988085
-0.0885895 0.278552 -0.0803644
-0.0886165 0.280811 -0.0448715
-0.088789 0.295179 0.180797
-0.0885049 0.275257 -0.190943
-0.0885365 0.277921 -0.149663
-0.0886319 0.285974 -0.0249034
-0.0886502 0.287536 -0.000701606
-0.0887427 0.295333 0.120102
-0.0740439 0.280564 -0.223118
-0.0856193 0.277811 -0.220259
-0.0886973 0.295483 0.0609756
-0.0887592 0.300757 0.141595
-0.0888027 0.304476 0.198435
-0.0885597 0.287507 -0.119137
-0.0886753 0.297527 0.0319818
-0.0887103 0.300559 0.0777123
-0.0887724 0.305944 0.158936
-0.0885744 0.292612 -0.0998369
-0.0859523 0.314683 0.217588
-0.0192498 0.306337 -0.223158
-0.0885895 0.297762 -0.0803644
-0.0886043 0.299099 -0.060717
-0.0887858 0.315237 0.176408
-0.0885192 0.295268 -0.172278
-0.0886197 0.304325 -0.0408923
-0.0887264 0.313955 0.0988085
-0.0740439 0.299393 -0.223118
-0.0885365 0.300608 -0.149663
-0.0886347 0.309599 -0.020888
-0.0886502 0.311008 -0.000701606
-0.0886973 0.315314 0.0609756
-0.0887427 0.319441 0.120102
-0.0888027 0.32491 0.198435
-0.0856193 0.300185 -0.220259
-0.0884963 0.300686 -0.202064
-0.0886658 0.31636 0.0196695
-0.0886785 0.317522 0.0361009
-0.0887103 0.320463 0.0777123
-0.0887592 0.324979 0.141595
-0.0887724 0.326205 0.158936
-0.088551 0.309533 -0.130635
-0.0885657 0.310907 -0.111437
-0.0859523 0.335251 0.217588
-0.0192498 0.326101 -0.223158
-0.0886043 0.318396 -0.060717
-0.0887858 0.335575 0.176408
-0.0885895 0.320815 -0.0803644
-0.0886197 0.323709 -0.0408923
-0.0887296 0.334264 0.103051
-0.0740439 0.318223 -0.223118
-0.0884907 0.315079 -0.209445
-0.0885365 0.319515 -0.149663
-0.0886347 0.32907 -0.020888
-0.0887394 0.339215 0.115827
-0.088806 0.345674 0.202866
-0.0885134 0.321036 -0.179763
-0.0886502 0.33448 -0.000701606
-0.0886658 0.33601 0.0196695
-0.0886816 0.337553 0.0402277
-0.0887008 0.339424 0.0651481
-0.0887624 0.345489 0.145918
-0.088551 0.328523 -0.130635
-0.0886197 0.335339 -0.0408923
-0.0859523 0.355818 0.217588
-0.0192498 0.345864 -0.223158
-0.0885657 0.333796 -0.111437
-0.0886043 0.337693 -0.060717
-0.08872 0.3493 0.0903465
-0.0887858 0.355913 0.176408
-0.0885805 0.339116 -0.0920687
-0.0885049 0.335177 -0.190943
-0.0885365 0.338421 -0.149663
-0.0886347 0.348542 -0.020888
-0.0887427 0.359623 0.120102
-0.0888027 0.365779 0.198435
-0.0740439 0.340819 -0.223118
-0.0885657 0.34524 -0.111437
-0.0886502 0.35404 -0.000701606
-0.0886848 0.357622 0.0443619
-0.0887008 0.359274 0.0651481
-0.0887592 0.365349 0.141595
-0.0856193 0.341204 -0.220259
-0.0885192 0.344166 -0.172278
-0.088551 0.347512 -0.130635
-0.0886658 0.359589 0.0196695
-0.0887233 0.365608 0.0945736
-0.0192498 0.365628 -0.223158
-0.0885895 0.355394 -0.0803644
-0.0886104 0.357632 -0.0528085
-0.0887758 0.375185 0.163292
-0.0859523 0.384613 0.217588
-0.0885192 0.35545 -0.172278
-0.0886319 0.36768 -0.0249034
-0.0886472 0.369352 -0.00475359
-0.0887427 0.379713 0.120102
-0.0887858 0.384386 0.176408
-0.0740439 0.359649 -0.223118
-0.0884907 0.356095 -0.209445
-0.0885365 0.361108 -0.149663
-0.0885744 0.365287 -0.0998369
-0.0887008 0.379123 0.0651481
-0.0887592 0.385534 0.141595
-0.0886629 0.378892 0.0155804
-0.0886785 0.380631 0.0361009
-0.0887233 0.385586 0.0945736
-0.088806 0.394763 0.202866
-0.0192498 0.385392 -0.223158
-0.0885049 0.365137 -0.190943
-0.088551 0.3703 -0.130635
-0.0885984 0.375612 -0.0685971
-0.0886197 0.377984 -0.0408923
-0.0887724 0.395093 0.158936
-0.0886502 0.385337 -0.000701606
-0.0859523 0.40518 0.217588
-0.0885277 0.375243 -0.161001
-0.0886381 0.387837 -0.0168654
-0.0887394 0.399431 0.115827
-0.0887858 0.404724 0.176408
-0.0740439 0.378478 -0.223118
-0.0886973 0.398604 0.0609756
-0.0856193 0.378494 -0.220259
-0.0885805 0.388929 -0.0920687
-0.0886629 0.398524 0.0155804
-0.0886785 0.400353 0.0361009
-0.08872 0.405188 0.0903465
-0.088806 0.415217 0.202866
-0.0192498 0.405155 -0.223158
-0.088551 0.38929 -0.130635
-0.0886228 0.397726 -0.036906
-0.0887592 0.413793 0.141595
-0.0887724 0.415354 0.158936
-0.0885134 0.388623 -0.179763
-0.0885657 0.394832 -0.111437
-0.0885984 0.398726 -0.0685971
-0.0859523 0.425748 0.217588
-0.0884963 0.390331 -0.202064
-0.088641 0.407696 -0.0128354
-0.0887071 0.41562 0.0735165
-0.0887394 0.419503 0.115827
-0.088789 0.425465 0.180797
-0.0885365 0.398921 -0.149663
-0.0886912 0.417664 0.0526534
-0.0740439 0.401074 -0.223118
-0.0885805 0.408088 -0.0920687
-0.0886596 0.417774 0.0114987
-0.0886723 0.419305 0.0278701
-0.0887233 0.425544 0.0945736
-0.0888027 0.435257 0.198435
-0.0856193 0.400868 -0.220259
-0.088551 0.408279 -0.130635
-0.0886135 0.416001 -0.0488436
-0.0886257 0.417505 -0.0329123
-0.0887592 0.433978 0.141595
-0.0887724 0.435615 0.158936
-0.0885657 0.413907 -0.111437
-0.0885984 0.417988 -0.0685971
-0.0192498 0.432824 -0.223158
-0.0884963 0.409007 -0.202064
-0.0885134 0.411151 -0.179763
-0.0887038 0.435103 0.0693285
-0.0861605 0.440634 0.116828
-0.0885365 0.417827 -0.149663
-0.0886816 0.436253 0.0402277
-0.0740439 0.419904 -0.223118
-0.0885657 0.425351 -0.111437
-0.0885835 0.427629 -0.0881742
-0.0886441 0.435401 -0.00879818
-0.0862625 0.437967 0.00811082
-0.0856193 0.419513 -0.220259
-0.0885539 0.427647 -0.126809
-0.0886135 0.435349 -0.0488436
-0.0862349 0.438297 -0.0283065
-0.0885049 0.425056 -0.190943
-0.0862049 0.438228 -0.068081
-0.0885192 0.434439 -0.172278
