ply
format ascii 1.0
comment Created by Open3D
element vertex 802
property double x
property double y
property double z
end_header
-0.117225 -0.428213 0.167215
-0.11721 -0.416965 0.194526
-0.104423 -0.414457 0.203287
-0.0763064 -0.41687 0.203305
-0.0550033 -0.418698 0.203318
-0.0442815 -0.419618 0.203325
-0.0154584 -0.422092 0.203343
-0.00456196 -0.423027 0.20335
0.107118 -0.432611 0.20342
0.0247327 -0.42198 0.203368
0.0358082 -0.422922 0.203375
0.0655861 -0.421866 0.203394
0.106273 -0.433022 0.18435
-0.117242 -0.421668 0.138397
-0.117225 -0.410296 0.167215
-0.0656781 -0.400301 0.203311
-0.0442815 -0.402061 0.203325
0.103314 -0.414197 0.203417
-0.11721 -0.396029 0.194526
-0.0974242 -0.394218 0.203291
-0.0154584 -0.400899 0.203343
0.0137065 -0.399723 0.203361
-0.117262 -0.422318 0.107956
0.0543777 -0.399427 0.203387
0.0655861 -0.400324 0.203394
-0.117225 -0.392379 0.167215
-0.117283 -0.423005 0.0757301
-0.117242 -0.399571 0.138399
-0.0656781 -0.379325 0.203311
-0.0442815 -0.380992 0.203325
-0.00456196 -0.384087 0.20335
0.095723 -0.391901 0.203412
-0.11721 -0.375094 0.194526
-0.0868883 -0.374191 0.203298
-0.0154584 -0.379706 0.203343
0.0432193 -0.384236 0.20338
0.0247327 -0.379248 0.203368
0.0655861 -0.382372 0.203394
-0.117306 -0.423735 0.0415568
-0.117262 -0.399592 0.107958
-0.11721 -0.364626 0.194526
-0.117242 -0.381158 0.1384
-0.117225 -0.370879 0.167215
-0.0656781 -0.361845 0.203311
0.103314 -0.374406 0.203417
-0.0442815 -0.359923 0.203325
-0.0154584 -0.362045 0.203343
-0.11733 -0.420368 0.00525451
-0.117283 -0.395714 0.0757319
0.0137065 -0.360639 0.203361
-0.117306 -0.403652 0.0415581
-0.117262 -0.380653 0.107959
0.0543777 -0.360021 0.203387
0.0655861 -0.36083 0.203394
-0.114883 -0.344344 0.203281
-0.0868883 -0.346345 0.203298
-0.117355 -0.421059 -0.0333821
-0.117283 -0.384018 0.0757327
-0.117242 -0.359061 0.138402
-0.117225 -0.349379 0.167215
-0.0656781 -0.340868 0.203311
-0.0442815 -0.342366 0.203325
0.095723 -0.352169 0.203412
-0.11733 -0.399659 0.00525618
-0.0154584 -0.340852 0.203343
0.0358082 -0.344405 0.203375
-0.117382 -0.421796 -0.0745858
-0.117306 -0.383569 0.0415596
-0.117262 -0.361715 0.10796
0.0137065 -0.33932 0.203361
0.0843792 -0.344167 0.203405
-0.117355 -0.399685 -0.0333803
-0.117284 -0.364524 0.075734
-0.104423 -0.324282 0.203287
-0.117411 -0.422584 -0.118621
-0.117243 -0.340647 0.138403
-0.117225 -0.331462 0.167215
0.103314 -0.334614 0.203417
-0.117437 -0.432908 -0.165845
-0.11733 -0.378951 0.00525761
-0.0656781 -0.319892 0.203311
-0.0442815 -0.321298 0.203325
0.00272918 -0.324387 0.203354
-0.117382 -0.399712 -0.0745838
-0.117306 -0.363487 0.0415609
-0.11721 -0.315777 0.194526
-0.0154584 -0.319659 0.203343
0.0247327 -0.322272 0.203368
-0.117263 -0.338989 0.107962
0.0543777 -0.320616 0.203387
0.0655861 -0.321336 0.203394
-0.117411 -0.40431 -0.11862
-0.117355 -0.378311 -0.033379
-0.117442 -0.413966 -0.165789
-0.11733 -0.362385 0.00525892
-0.117243 -0.322234 0.138404
-0.0868883 -0.304574 0.203298
-0.117382 -0.382045 -0.0745826
-0.117284 -0.337233 0.0757359
-0.117225 -0.309962 0.167215
-0.0656781 -0.302411 0.203311
0.095723 -0.312437 0.203412
-0.114883 -0.295894 0.203281
-0.0442815 -0.300229 0.203325
-0.0154584 -0.301999 0.203343
-0.117356 -0.361212 -0.0333775
-0.117263 -0.32005 0.107963
0.0137065 -0.300236 0.203361
0.0843792 -0.304525 0.203405
-0.117306 -0.335371 0.041563
0.0543777 -0.299122 0.203387
-0.117411 -0.376899 -0.118617
-0.11733 -0.341677 0.00526035
-0.117442 -0.38558 -0.165789
-0.117383 -0.359961 -0.0745809
-0.117243 -0.300137 0.138405
-0.117225 -0.292045 0.167215
-0.11721 -0.284374 0.194526
-0.0763064 -0.284309 0.203305
0.103314 -0.294822 0.203417
-0.117284 -0.313841 0.0757375
-0.0550033 -0.282052 0.203318
-0.00456198 -0.284968 0.20335
-0.117412 -0.363193 -0.118616
-0.117356 -0.339838 -0.0333759
-0.117263 -0.301112 0.107965
-0.104423 -0.275727 0.203287
-0.0442815 -0.27916 0.203325
-0.0154584 -0.280806 0.203343
0.0432193 -0.284156 0.20338
-0.117307 -0.315289 0.0415643
0.0247327 -0.279539 0.203368
0.0655861 -0.281842 0.203394
-0.117442 -0.366656 -0.165789
-0.117383 -0.342294 -0.0745792
-0.11733 -0.320969 0.00526202
-0.117243 -0.281723 0.138407
-0.114883 -0.264747 0.203281
-0.117412 -0.344919 -0.118616
-0.117284 -0.294347 0.0757389
-0.117225 -0.270545 0.167215
-0.117356 -0.318464 -0.0333744
-0.117263 -0.282174 0.107966
-0.0656781 -0.260458 0.203311
-0.0442815 -0.261603 0.203325
0.00272918 -0.264118 0.203354
0.095723 -0.269094 0.203412
-0.117307 -0.295206 0.0415659
-0.0868883 -0.255843 0.203298
-0.0154584 -0.259613 0.203343
0.0247327 -0.261734 0.203368
0.0843792 -0.264883 0.203405
-0.117442 -0.343 -0.165789
-0.117383 -0.32021 -0.0745778
-0.117331 -0.300261 0.00526345
0.0543777 -0.259717 0.203387
-0.117356 -0.301365 -0.033373
-0.117284 -0.274854 0.0757403
-0.117243 -0.259627 0.138408
-0.104423 -0.244512 0.203287
-0.117225 -0.249044 0.167215
0.095723 -0.251034 0.203412
-0.117442 -0.324076 -0.165789
-0.117412 -0.312939 -0.118615
-0.117307 -0.275124 0.0415671
-0.117263 -0.259448 0.107967
-0.0656781 -0.239482 0.203311
-0.0442815 -0.240534 0.203325
-0.0154584 -0.241952 0.203343
0.0358082 -0.244474 0.203375
-0.117383 -0.298126 -0.074576
-0.117331 -0.279552 0.005265
-0.11721 -0.235524 0.194526
0.0137065 -0.239834 0.203361
0.0655861 -0.242349 0.203394
-0.117356 -0.279991 -0.0333713
-0.117243 -0.241214 0.138409
-0.117412 -0.294666 -0.118615
-0.117225 -0.231128 0.167215
-0.0974242 -0.224027 0.203291
-0.117383 -0.280459 -0.0745747
-0.117307 -0.255041 0.0415686
-0.117263 -0.24051 0.107968
-0.0656781 -0.222001 0.203311
-0.00456198 -0.224788 0.20335
0.095723 -0.229362 0.203412
-0.117442 -0.29569 -0.165789
-0.117331 -0.258845 0.00526643
-0.117285 -0.243664 0.0757422
-0.0442815 -0.219465 0.203325
-0.0154584 -0.220759 0.203343
-0.11721 -0.214589 0.194526
0.0247327 -0.219002 0.203368
0.0543777 -0.220312 0.203387
0.0655861 -0.220807 0.203394
-0.117356 -0.258617 -0.0333695
-0.117244 -0.219117 0.13841
-0.117442 -0.276766 -0.165789
-0.117412 -0.267255 -0.118615
-0.117383 -0.258375 -0.074573
-0.117331 -0.242278 0.00526762
-0.117307 -0.234959 0.0415702
-0.117264 -0.221572 0.10797
-0.117225 -0.209627 0.167215
-0.0763064 -0.204074 0.203305
0.095723 -0.211302 0.203412
-0.117285 -0.224171 0.0757437
-0.0550033 -0.201466 0.203318
-0.0442815 -0.201908 0.203325
-0.117356 -0.241519 -0.0333686
-0.104423 -0.195957 0.203287
-0.0154584 -0.199566 0.203343
0.0137065 -0.20075 0.203361
0.0543777 -0.2024 0.203387
-0.117412 -0.253549 -0.118614
0.0655861 -0.199264 0.203394
-0.117383 -0.240709 -0.0745729
-0.117244 -0.200704 0.138412
-0.117442 -0.253111 -0.165789
-0.117331 -0.22157 0.00526929
-0.117307 -0.214877 0.0415717
-0.117225 -0.19171 0.167215
-0.11721 -0.186675 0.194526
0.114744 -0.193972 0.203424
-0.117285 -0.204677 0.075745
-0.117264 -0.198846 0.107971
-0.117357 -0.220145 -0.0333668
-0.0656781 -0.180048 0.203312
-0.0442815 -0.18084 0.203325
-0.0154584 -0.181906 0.203343
0.0432193 -0.184076 0.20338
-0.114883 -0.174768 0.203281
-0.0868883 -0.175783 0.203298
0.0137065 -0.179431 0.203361
0.0655861 -0.181313 0.203394
-0.117442 -0.234187 -0.165789
-0.117412 -0.226139 -0.118614
-0.117383 -0.218625 -0.0745726
-0.117244 -0.18229 0.138413
-0.117331 -0.200863 0.00527072
-0.117307 -0.194795 0.0415728
-0.117264 -0.179908 0.107973
-0.117225 -0.17021 0.167215
0.095723 -0.17157 0.203412
-0.117357 -0.198771 -0.0333651
-0.00456198 -0.164609 0.20335
-0.117384 -0.200959 -0.0745723
-0.117285 -0.177387 0.0757469
-0.0656781 -0.159072 0.203312
-0.0442815 -0.159771 0.203325
-0.0154584 -0.160713 0.203343
0.0247327 -0.162026 0.203368
0.0843792 -0.163975 0.203405
-0.117412 -0.203296 -0.118614
-0.104423 -0.154337 0.203287
0.0543777 -0.159412 0.203387
-0.117442 -0.2058 -0.165789
-0.117331 -0.180155 0.00527215
-0.117308 -0.174713 0.0415744
-0.117244 -0.160194 0.138414
-0.117357 -0.181673 -0.0333639
-0.117264 -0.160971 0.107974
-0.117225 -0.152293 0.167215
0.114744 -0.15409 0.203424
-0.11721 -0.144804 0.194526
-0.0763064 -0.144771 0.203305
-0.117384 -0.178875 -0.074572
-0.0550033 -0.141902 0.203318
-0.0442815 -0.142214 0.203325
0.0358082 -0.144543 0.203375
-0.117442 -0.186876 -0.165789
-0.117285 -0.153995 0.0757484
-0.0154584 -0.13952 0.203343
0.0137065 -0.140347 0.203361
0.0655861 -0.141819 0.203394
-0.117412 -0.175885 -0.118613
-0.117332 -0.159447 0.0052737
-0.117308 -0.15463 0.0415759
-0.117244 -0.141781 0.138415
-0.117357 -0.160299 -0.0333631
-0.117264 -0.142033 0.107975
-0.117384 -0.161208 -0.0745718
-0.117225 -0.130793 0.167216
-0.104423 -0.126591 0.203287
0.095723 -0.131838 0.203412
-0.117442 -0.163221 -0.165789
-0.117286 -0.134502 0.0757499
-0.0656781 -0.120615 0.203312
-0.0442815 -0.121145 0.203325
-0.0154584 -0.121859 0.203343
0.0843792 -0.124333 0.203405
-0.117412 -0.153043 -0.118613
-0.117332 -0.13874 0.00527525
-0.117308 -0.134548 0.0415772
-0.11721 -0.11689 0.194526
0.0137065 -0.119029 0.203361
0.0543777 -0.120007 0.203387
-0.117357 -0.138926 -0.0333629
-0.117244 -0.119685 0.138417
-0.117384 -0.139125 -0.0745715
-0.117264 -0.119307 0.107977
0.103314 -0.11395 0.203417
-0.117442 -0.144297 -0.165789
-0.117225 -0.109293 0.167217
-0.104423 -0.105782 0.203287
-0.117412 -0.134769 -0.118613
-0.117332 -0.122174 0.00527644
-0.00456198 -0.104429 0.20335
-0.117357 -0.121827 -0.0333625
-0.117308 -0.114466 0.0415785
-0.0656781 -0.0996383 0.203312
-0.0442815 -0.100076 0.203325
-0.0154584 -0.100666 0.203343
0.0247327 -0.101489 0.203368
0.0543777 -0.102096 0.203387
0.0655861 -0.102325 0.203394
-0.117384 -0.121458 -0.0745714
-0.117286 -0.107211 0.0757519
-0.117245 -0.101272 0.138418
-0.11721 -0.0959543 0.194526
-0.117265 -0.100369 0.107978
-0.117226 -0.0913757 0.167218
0.095723 -0.0921058 0.203412
-0.117442 -0.11591 -0.165788
-0.117332 -0.101466 0.00527811
-0.114883 -0.0847883 0.203281
-0.0868883 -0.0852808 0.203298
-0.117412 -0.107359 -0.118612
-0.117357 -0.100454 -0.0333623
-0.117308 -0.0943845 0.04158
-0.0656781 -0.0821579 0.203312
0.0432193 -0.0839957 0.20338
0.0843792 -0.0846904 0.203405
-0.117384 -0.099375 -0.074571
-0.0442815 -0.0790076 0.203325
-0.0154584 -0.0794733 0.203343
0.0137065 -0.0799446 0.203361
-0.117286 -0.0838196 0.0757533
-0.117265 -0.0814317 0.107979
-0.117245 -0.0791762 0.13842
-0.0868883 -0.0748383 0.203298
-0.117442 -0.0969863 -0.165788
-0.117412 -0.0936532 -0.118612
0.103314 -0.0741576 0.203417
-0.117332 -0.0807586 0.00527906
-0.117226 -0.0698755 0.16722
-0.117384 -0.0817083 -0.0745708
-0.117357 -0.0790809 -0.0333622
-0.117308 -0.0743026 0.0415816
-0.11721 -0.0645511 0.194526
-0.117442 -0.0827931 -0.165788
-0.0656781 -0.0611814 0.203312
-0.0442815 -0.0614503 0.203325
-0.0154584 -0.0618126 0.203343
0.0137065 -0.0621791 0.203361
-0.117286 -0.0643266 0.0757546
-0.117265 -0.0624941 0.10798
-0.117245 -0.060763 0.138421
0.0543777 -0.059108 0.203387
0.0655861 -0.0592408 0.203394
-0.117412 -0.0662425 -0.118612
-0.117357 -0.0619823 -0.0333618
-0.117332 -0.0600513 0.0052793
-0.117226 -0.0519586 0.167221
0.095723 -0.0523739 0.203412
-0.117442 -0.063869 -0.165788
-0.117384 -0.0596249 -0.0745704
-0.117309 -0.0542207 0.0415831
-0.104423 -0.0468215 0.203287
-0.00456198 -0.0442497 0.20335
0.0358082 -0.0446121 0.203375
-0.117286 -0.0448336 0.0757562
-0.117245 -0.0423499 0.138422
-0.0656781 -0.040205 0.203312
-0.0442815 -0.0403817 0.203325
-0.0154584 -0.0406197 0.203343
0.0247327 -0.0409516 0.203368
0.0655861 -0.041289 0.203394
-0.117265 -0.0397689 0.107982
-0.11721 -0.0366371 0.194526
-0.117443 -0.0449448 -0.165787
-0.117412 -0.0434003 -0.118611
-0.117384 -0.0419583 -0.0745702
-0.117357 -0.0406091 -0.0333614
-0.117332 -0.0393439 0.00527966
0.103314 -0.0343657 0.203417
-0.117309 -0.0341389 0.0415845
-0.117226 -0.0304584 0.167222
-0.104423 -0.0260119 0.203287
-0.117265 -0.0208313 0.107983
-0.117245 -0.0202543 0.138423
-0.0656781 -0.0192284 0.203312
-0.0442815 -0.019313 0.203325
-0.0154584 -0.0194268 0.203343
0.0137065 -0.019542 0.203361
0.0543777 -0.0197027 0.203387
0.0655861 -0.0197469 0.203394
-0.117384 -0.019875 -0.0745698
-0.117357 -0.0192359 -0.0333612
-0.117332 -0.0186366 0.0052799
-0.11721 -0.0157016 0.194526
-0.117443 -0.0165586 -0.165787
-0.117412 -0.0159896 -0.118611
-0.117309 -0.0140572 0.0415857
-0.117286 -0.013645 0.0757583
-0.117226 -0.00895836 0.167223
0.095723 -0.00902999 0.203412
-0.104423 -0.00520239 0.203287
-0.117384 -0.00220834 -0.0745697
-0.117357 -0.00213733 -0.0333608
-0.117332 -0.00207075 0.00528014
-0.117265 -0.00189376 0.107984
-0.117245 -0.00184131 0.138425
-0.0656781 -0.00174805 0.203312
-0.0442815 -0.00175574 0.203325
-0.0154584 -0.00176608 0.203343
0.0137065 -0.00177656 0.203361
0.0543777 -0.00179116 0.203387
0.0655861 -0.00179519 0.203394
-0.117443 0.00709652 -0.165787
-0.117412 0.00685264 -0.11861
-0.117309 0.00602449 0.0415864
-0.117287 0.00584783 0.0757595
-0.11721 0.00523385 0.194526
-0.104423 0.00520237 0.203287
0.103314 0.00542615 0.203417
-0.117226 0.00895835 0.167225
-0.117384 0.019875 -0.0745692
-0.117357 0.0192359 -0.0333607
-0.117332 0.0186366 0.00528038
-0.0763064 0.015698 0.203305
-0.00456198 0.0159299 0.20335
-0.117443 0.0260207 -0.165786
-0.117412 0.0251265 -0.11861
-0.117266 0.0208313 0.107986
-0.117245 0.0202543 0.138426
-0.0550033 0.0192706 0.203318
-0.0442815 0.019313 0.203325
-0.0154584 0.0194268 0.203343
0.0247327 0.0195856 0.203368
0.0506526 0.019688 0.203384
0.0693334 0.0197617 0.203396
-0.117309 0.0261062 0.0415866
-0.117287 0.0253406 0.0757608
-0.117384 0.0375416 -0.0745691
-0.117227 0.0304583 0.167226
0.0881548 0.0306557 0.203408
-0.117357 0.0406091 -0.0333604
-0.117332 0.0393439 0.00528085
-0.11721 0.0331478 0.194526
-0.104423 0.0329485 0.203287
0.110928 0.0344177 0.203422
-0.117266 0.0397687 0.107987
-0.117246 0.0386671 0.138427
0.0432193 0.03753 0.20338
0.0655861 0.0376987 0.203394
-0.117443 0.0544068 -0.165786
-0.117412 0.0525371 -0.11861
-0.117309 0.0461879 0.0415869
-0.0763064 0.0401172 0.203305
-0.0550033 0.0402931 0.203318
-0.0442815 0.0403817 0.203325
0.010042 0.0408303 0.203359
-0.0154584 0.0441518 0.203343
0.095723 0.0451499 0.203412
-0.117384 0.0596249 -0.0745687
-0.117357 0.0577076 -0.0333601
-0.117287 0.0526305 0.0757627
-0.117227 0.0483749 0.167227
-0.117412 0.0662424 -0.11861
-0.117332 0.0600512 0.00528121
-0.117443 0.0733309 -0.165785
-0.117266 0.0587061 0.107988
-0.11721 0.0540833 0.194526
-0.104423 0.053758 0.203287
0.0247327 0.0551957 0.203368
0.0693334 0.0556921 0.203396
-0.117309 0.0662696 0.0415872
-0.117246 0.0607626 0.138429
-0.0763064 0.0575594 0.203305
-0.0550033 0.0578119 0.203318
-0.0442815 0.0579389 0.203325
0.00272918 0.058496 0.203354
0.0358082 0.0588879 0.203375
-0.117384 0.0817082 -0.0745684
-0.117357 0.0790807 -0.0333596
-0.0154584 0.0653447 0.203343
-0.117332 0.0807585 0.00528133
-0.117287 0.0760217 0.0757639
-0.117227 0.0698748 0.167228
-0.117443 0.0969861 -0.165785
-0.117412 0.093653 -0.118609
-0.117266 0.0776435 0.10799
0.095723 0.0740459 0.203412
-0.117309 0.0863512 0.0415874
-0.117246 0.0791754 0.13843
-0.11721 0.0750188 0.194526
-0.104423 0.0745675 0.203287
-0.117384 0.0993747 -0.074568
-0.0763064 0.0784901 0.203305
-0.0550033 0.0788343 0.203318
-0.0442815 0.0790076 0.203325
-0.000919104 0.0797082 0.203352
0.0358082 0.0803017 0.203375
0.0730864 0.0809041 0.203398
-0.117357 0.100454 -0.0333594
0.0210518 0.0836217 0.203366
0.103314 0.08501 0.203417
-0.117443 0.11591 -0.165785
-0.117333 0.101466 0.00528169
-0.117287 0.0955144 0.0757642
-0.117227 0.0877914 0.16723
-0.0974242 0.0850954 0.203292
-0.117412 0.116495 -0.118609
-0.117309 0.106433 0.0415878
-0.117266 0.100368 0.107991
-0.117246 0.0975882 0.138431
-0.0154584 0.0936019 0.203343
0.0581082 0.0950019 0.203389
0.0843792 0.0955019 0.203405
-0.117384 0.121458 -0.0745678
-0.117357 0.117552 -0.0333592
-0.11721 0.0959543 0.194526
0.0063829 0.0975654 0.203357
0.0358082 0.0981465 0.203375
-0.117333 0.118032 0.00528193
-0.0763064 0.0994208 0.203305
-0.0550033 0.0998568 0.203318
-0.0442815 0.100076 0.203325
-0.117287 0.115007 0.0757643
-0.117443 0.144296 -0.165784
-0.117227 0.109291 0.167231
-0.104423 0.105782 0.203287
-0.0226961 0.107572 0.203338
-0.117412 0.143906 -0.118609
-0.117384 0.139125 -0.0745677
-0.117309 0.126514 0.0415881
-0.117266 0.119305 0.107993
0.095723 0.113778 0.203412
-0.117357 0.138926 -0.0333591
-0.117246 0.119683 0.138432
0.0137065 0.115476 0.203361
-0.117333 0.138739 0.00528204
-0.0478607 0.117547 0.203323
0.0358082 0.11956 0.203375
0.0655861 0.120277 0.203394
-0.117443 0.16322 -0.165784
-0.0798388 0.120264 0.203303
0.114744 0.125085 0.203424
-0.11721 0.123868 0.194526
-0.0190799 0.125299 0.203341
-0.117412 0.166748 -0.118608
-0.117384 0.161208 -0.0745673
-0.117266 0.138243 0.107994
-0.117227 0.130791 0.167232
-0.117358 0.160299 -0.0333587
-0.117287 0.146195 0.0757649
-0.117246 0.138096 0.138434
0.0843792 0.135144 0.203405
-0.117333 0.159446 0.00528228
-0.117309 0.154629 0.0415884
-0.104423 0.133528 0.203287
0.039511 0.137508 0.203377
-0.117443 0.186875 -0.165784
-0.0833661 0.137593 0.2033
-0.0550033 0.138398 0.203318
-0.0442815 0.138702 0.203325
-0.000919104 0.139932 0.203352
0.0210518 0.140555 0.203366
-0.117412 0.185022 -0.118608
-0.117384 0.178874 -0.074567
-0.117228 0.148707 0.167233
-0.11721 0.144804 0.194526
0.0581082 0.148777 0.203389
-0.117358 0.181672 -0.0333583
-0.117287 0.165688 0.075765
-0.117267 0.160967 0.107994
-0.0154584 0.150116 0.203343
0.0995158 0.153625 0.203415
-0.117443 0.205799 -0.165784
-0.117333 0.180153 0.00528252
-0.117309 0.17471 0.0415885
-0.117247 0.160191 0.138435
-0.11721 0.155271 0.194526
-0.104423 0.154337 0.203287
-0.00456198 0.157529 0.20335
0.0247327 0.158465 0.203368
0.0358082 0.158819 0.203375
-0.117384 0.200958 -0.0745667
-0.0763064 0.158724 0.203305
-0.0550033 0.159421 0.203318
-0.0442815 0.159771 0.203325
0.0806093 0.163852 0.203403
-0.117358 0.19877 -0.033358
-0.117412 0.217001 -0.118608
-0.117287 0.185181 0.0757653
-0.117267 0.179905 0.107994
-0.117228 0.170207 0.167235
-0.0154584 0.167777 0.203343
-0.117333 0.200861 0.00528288
-0.117309 0.194792 0.0415888
-0.117247 0.178604 0.138436
0.095723 0.175182 0.203412
-0.117443 0.234185 -0.165783
-0.117384 0.218624 -0.0745665
0.00272918 0.175488 0.203354
-0.104423 0.175147 0.203287
-0.0371075 0.177588 0.203329
0.0247327 0.179831 0.203368
0.0358082 0.180233 0.203375
-0.117412 0.235274 -0.118607
-0.117358 0.220143 -0.0333577
-0.0763064 0.179655 0.203305
-0.0550033 0.180443 0.203318
0.0655861 0.184903 0.203394
-0.117267 0.198842 0.107995
-0.117228 0.188123 0.167236
-0.11721 0.183185 0.194526
-0.117443 0.253109 -0.165783
-0.117333 0.221568 0.00528312
-0.117309 0.214874 0.0415891
-0.0154584 0.18897 0.203343
-0.117384 0.240707 -0.0745662
-0.117247 0.200699 0.138438
0.0655861 0.195674 0.203394
-0.117287 0.216369 0.0757656
0.0247327 0.197636 0.203368
0.0358082 0.198078 0.203375
-0.117358 0.241516 -0.0333575
-0.114883 0.195532 0.203281
-0.0656781 0.197529 0.203312
-0.0442815 0.198397 0.203325
0.095723 0.204078 0.203412
-0.117413 0.262685 -0.118607
-0.117333 0.238134 0.00528324
-0.117267 0.217779 0.107995
-0.0904054 0.200004 0.203296
-0.000919104 0.203699 0.203352
-0.117443 0.276765 -0.165782
-0.117384 0.258374 -0.0745659
-0.117309 0.234955 0.0415893
-0.117228 0.209623 0.167237
-0.117247 0.219112 0.138438
-0.0190799 0.210008 0.203341
0.103314 0.215238 0.203417
-0.117413 0.27639 -0.118607
-0.117358 0.258615 -0.0333574
-0.117287 0.235862 0.075766
0.010042 0.218353 0.203359
0.028419 0.219165 0.20337
0.0506526 0.220147 0.203384
-0.117443 0.295688 -0.165782
-0.117333 0.258841 0.00528359
-0.0868883 0.217553 0.203298
-0.0656781 0.218505 0.203312
-0.0442815 0.219465 0.203325
0.0693334 0.224565 0.203396
-0.117384 0.280457 -0.0745658
-0.117309 0.255037 0.0415895
-0.117267 0.240504 0.107995
-0.117228 0.227539 0.167238
-0.117247 0.237524 0.138439
-0.11721 0.225056 0.194526
-0.0190799 0.227656 0.203341
-0.117358 0.279988 -0.033357
-0.117287 0.255354 0.0757661
0.0693334 0.235344 0.203396
-0.117413 0.3038 -0.118606
-0.000919104 0.235582 0.203352
0.0506526 0.238045 0.203384
-0.117384 0.298124 -0.0745655
-0.117333 0.279548 0.00528395
0.0210518 0.24019 0.203366
0.0881548 0.243443 0.203408
0.110928 0.244547 0.203422
-0.117443 0.324075 -0.165781
-0.117309 0.275118 0.0415899
-0.117267 0.259441 0.107995
-0.0974242 0.23792 0.203292
-0.0763064 0.238959 0.203305
-0.0550033 0.240007 0.203318
-0.0442815 0.240534 0.203325
-0.117228 0.249038 0.16724
-0.117358 0.301361 -0.0333568
-0.117247 0.259619 0.138439
-0.0154584 0.249016 0.203343
0.110928 0.255415 0.203422
-0.117413 0.326643 -0.118606
0.039511 0.255371 0.203377
-0.119454 0.350206 -0.195042
-0.117443 0.342998 -0.165781
-0.117384 0.320207 -0.0745652
-0.117333 0.300255 0.00528407
-0.117287 0.282644 0.0757666
-0.11721 0.25297 0.194527
0.0137065 0.257599 0.203361
-0.117309 0.2952 0.0415902
-0.117267 0.278379 0.107996
-0.0550033 0.257525 0.203318
-0.0442815 0.258091 0.203325
0.0581082 0.263496 0.203389
0.0806093 0.264684 0.203403
-0.11858 0.349356 -0.153928
-0.117358 0.318459 -0.0333565
-0.0974242 0.25876 0.203292
-0.0763064 0.259889 0.203305
-0.117247 0.278032 0.138439
-0.117229 0.270538 0.167241
-0.12104 0.351838 -0.128289
-0.117384 0.337873 -0.0745648
-0.0154584 0.270209 0.203343
0.0806093 0.275487 0.203403
-0.118971 0.349781 -0.102938
-0.117333 0.320962 0.00528443
-0.117309 0.315281 0.0415903
-0.117287 0.306035 0.0757668
-0.117211 0.273905 0.194528
0.00272918 0.278299 0.203354
0.0247327 0.279539 0.203368
0.0432193 0.280581 0.20338
0.0995158 0.283755 0.203415
-0.117358 0.339832 -0.0333562
-0.117267 0.301103 0.107996
-0.104423 0.275726 0.203287
-0.0727688 0.277534 0.203307
-0.0442815 0.27916 0.203325
-0.117229 0.288454 0.167241
-0.126795 0.357646 -0.0683081
-0.117333 0.337528 0.00528467
-0.117247 0.300127 0.138439
-0.0190799 0.287658 0.203341
0.114744 0.295491 0.203424
0.0543777 0.29554 0.203387
-0.125805 0.356674 -0.0342277
-0.11967 0.350542 -0.0116401
-0.11731 0.335363 0.0415907
-0.117287 0.325528 0.0757669
-0.117267 0.320041 0.107996
-0.117211 0.29484 0.19453
-0.000919104 0.299349 0.203352
0.0210518 0.300682 0.203366
0.0655861 0.303385 0.203394
-0.0868883 0.297613 0.203298
-0.0656781 0.298915 0.203312
-0.117247 0.31854 0.138439
-0.117229 0.309954 0.167242
-0.0442815 0.30374 0.203325
-0.126945 0.35785 0.0182858
-0.117211 0.305308 0.194531
0.0806093 0.3151 0.203403
-0.125004 0.355915 0.0384412
-0.119234 0.350152 0.0585396
-0.117288 0.345021 0.0757673
-0.0154584 0.312595 0.203343
0.0247327 0.315149 0.203368
-0.117267 0.338978 0.107996
0.0358082 0.319422 0.203375
0.095723 0.323273 0.203412
-0.00456198 0.320368 0.20335
-0.117229 0.32787 0.167242
-0.100926 0.317575 0.20329
-0.0798388 0.318961 0.203303
-0.0621251 0.320125 0.203314
-0.117247 0.340635 0.13844
-0.0406971 0.325047 0.203327
0.114744 0.335373 0.203424
0.0655861 0.335698 0.203394
-0.0190799 0.333542 0.203341
-0.117211 0.333221 0.194532
-0.000919104 0.338317 0.203352
0.028419 0.340329 0.20337
0.0881548 0.344426 0.203408
-0.127135 0.358108 0.128128
0.0506526 0.345434 0.203384
-0.117539 0.34853 0.169675
-0.104423 0.338155 0.203287
-0.0763064 0.340124 0.203305
-0.0550033 0.345119 0.203318
-0.0442815 0.345878 0.203325
0.119786 0.355141 0.210326
-0.0166281 0.353184 0.208285
0.0292539 0.358269 0.213384
0.0780243 0.362627 0.211118
0.0976377 0.364903 0.208713
-0.127243 0.358256 0.190708
-0.118959 0.352811 0.207851
0.00354259 0.359569 0.214322
0.0606385 0.366298 0.207209
0.103663 0.399426 0.122432
0.103693 0.382801 0.169495
0.103713 0.375002 0.191572
-0.0779349 0.357601 0.212646
0.10362 0.43144 0.0436101
0.103629 0.426486 0.0574974
0.103643 0.416908 0.0843472
0.103655 0.412286 0.0973064
0.124515 0.409514 0.109435
-0.102495 0.358787 0.213812
-0.0343379 0.36633 0.207114
0.118183 0.375125 0.21457
0.103728 0.378268 0.212779
-0.125763 0.366361 0.207023
