ply
format ascii 1.0
comment Created by Open3D
element vertex 801
property double x
property double y
property double z
end_header
0.133023 -0.423503 -0.196299
0.133013 -0.401093 -0.210249
0.133277 -0.427887 0.208923
0.13303 -0.396286 -0.182269
0.133019 -0.384246 -0.199794
0.13328 -0.409016 0.213027
0.133268 -0.407438 0.19257
0.133054 -0.381524 -0.143269
0.133041 -0.379877 -0.164619
0.133084 -0.381527 -0.0963715
0.133035 -0.375499 -0.175224
0.133115 -0.381529 -0.0485756
0.133101 -0.37985 -0.0707486
0.133146 -0.381531 0.000144437
0.133134 -0.380118 -0.0187051
0.135187 -0.371888 -0.118386
0.133177 -0.381534 0.0498158
0.133166 -0.380106 0.030597
0.133034 -0.364559 -0.178749
0.133016 -0.362479 -0.206769
0.13328 -0.389814 0.213027
0.133261 -0.387412 0.180371
0.13321 -0.381536 0.100466
0.133197 -0.380095 0.0808677
0.133045 -0.362303 -0.161073
0.133243 -0.381538 0.152126
0.13323 -0.380083 0.132135
0.133058 -0.36029 -0.139693
0.133106 -0.362206 -0.0633795
0.133092 -0.360617 -0.0854226
0.133139 -0.362291 -0.0111822
0.133127 -0.360952 -0.0299481
0.133254 -0.371573 0.17227
0.133173 -0.362378 0.0421109
0.133158 -0.360755 0.0191346
0.133076 -0.351569 -0.110896
0.13328 -0.370611 0.213027
0.133205 -0.362192 0.0926092
0.133187 -0.360282 0.0652949
0.13302 -0.341748 -0.199794
0.13324 -0.362279 0.148116
0.13323 -0.361173 0.132136
0.133217 -0.359801 0.112297
0.133058 -0.342365 -0.139693
0.133047 -0.341132 -0.157523
-0.00178885 -0.381594 -0.213791
0.133092 -0.342496 -0.0854226
0.133033 -0.336106 -0.178749
0.133265 -0.357427 0.188497
0.133125 -0.342376 -0.0336847
0.133111 -0.340865 -0.0559885
0.133253 -0.352246 0.168229
0.133158 -0.342254 0.0191346
0.133146 -0.340982 0.000144333
0.13328 -0.351408 0.213027
0.133195 -0.342388 0.0769657
0.13318 -0.340844 0.0536768
0.133074 -0.329694 -0.114514
0.133027 -0.324737 -0.189294
0.13323 -0.342264 0.132136
0.133217 -0.340963 0.112297
0.133013 -0.319814 -0.210249
-0.00902045 -0.363882 -0.213608
0.133067 -0.321786 -0.125337
0.133049 -0.31993 -0.153967
0.133108 -0.3224 -0.0596867
0.133097 -0.32122 -0.0780964
-0.0352478 -0.363881 -0.212946
0.133245 -0.33244 0.156142
0.133144 -0.322311 -0.00363678
0.13313 -0.32088 -0.0262061
0.13328 -0.332206 0.213027
0.133263 -0.330413 0.184431
0.133183 -0.322461 0.0575437
0.133173 -0.321494 0.0421109
0.133158 -0.320054 0.0191346
0.133081 -0.31236 -0.103645
-0.0626881 -0.363879 -0.212253
0.13322 -0.32237 0.116253
0.133212 -0.321636 0.104404
0.1332 -0.32042 0.0847756
0.133042 -0.304971 -0.164619
0.133016 -0.30236 -0.206769
-0.0768907 -0.363879 -0.211894
0.133237 -0.320305 0.144111
0.133027 -0.299894 -0.189294
0.148057 -0.30398 0.0077989
0.149839 -0.302535 -0.00755848
0.133072 -0.30065 -0.118127
0.13634 -0.30159 -0.026889
0.133111 -0.300764 -0.0559885
0.133263 -0.311314 0.184431
0.13325 -0.310119 0.164194
0.134585 -0.302036 0.0340433
0.133149 -0.300656 0.00393109
0.13306 -0.292387 -0.136112
0.13328 -0.309163 0.213027
0.133207 -0.302368 0.0965348
0.1332 -0.301682 0.0847756
0.13318 -0.299868 0.0536768
0.133092 -0.291756 -0.0854226
0.133235 -0.301122 0.140113
0.133222 -0.299976 0.120215
0.133024 -0.281947 -0.192799
0.132551 -0.280868 -0.21371
-0.0841823 -0.340352 -0.21171
0.133069 -0.282442 -0.121734
0.133108 -0.282328 -0.0596867
0.133047 -0.276834 -0.157523
0.133263 -0.292215 0.184431
0.13325 -0.291094 0.164194
0.133151 -0.282421 0.0077235
0.133139 -0.281373 -0.0111822
0.133127 -0.280333 -0.0299481
0.13328 -0.28996 0.213027
0.133192 -0.282304 0.0730696
0.13318 -0.281243 0.0536768
0.133168 -0.28019 0.0344292
0.133056 -0.27047 -0.143269
0.133237 -0.282399 0.144111
0.133225 -0.281324 0.124182
0.133212 -0.280256 0.104404
0.133097 -0.270405 -0.0780964
-0.0841739 -0.318944 -0.211711
0.133029 -0.261041 -0.185784
0.132551 -0.259671 -0.21371
0.133081 -0.261804 -0.103645
0.133274 -0.274173 0.204825
0.133255 -0.272486 0.17227
0.133132 -0.262399 -0.0224584
0.13312 -0.261431 -0.0411412
0.133108 -0.26047 -0.0596867
0.133042 -0.255035 -0.164619
0.133178 -0.262421 0.0498157
0.133166 -0.261439 0.030597
0.133154 -0.260465 0.0115215
-0.0841671 -0.301818 -0.211711
0.133225 -0.262443 0.124182
0.133212 -0.261447 0.104404
0.1332 -0.260459 0.0847756
0.133067 -0.249879 -0.125337
0.133237 -0.259656 0.144111
0.133049 -0.244862 -0.153967
0.133036 -0.243807 -0.175224
0.133018 -0.242415 -0.203284
0.133269 -0.254606 0.196649
0.133111 -0.242434 -0.0559885
0.133092 -0.241016 -0.0854226
0.133074 -0.239614 -0.114514
0.133263 -0.250197 0.184431
0.13325 -0.249237 0.164194
0.133158 -0.242353 0.0191347
0.133146 -0.241452 0.000144392
0.133134 -0.240557 -0.0187052
0.13312 -0.239493 -0.0411412
-0.0841587 -0.28041 -0.211711
0.133209 -0.242454 0.100467
0.133197 -0.241538 0.0808679
0.133184 -0.240629 0.0614166
0.133172 -0.239727 0.0421111
0.133234 -0.240519 0.140114
0.133221 -0.239604 0.120215
0.133067 -0.228306 -0.125337
0.133036 -0.222452 -0.175224
0.133018 -0.221181 -0.203284
0.133085 -0.222406 -0.0963717
0.13328 -0.232352 0.213027
0.127459 -0.232595 0.190956
0.13325 -0.230211 0.164194
0.133137 -0.222359 -0.0149465
0.13313 -0.221865 -0.0262061
0.133111 -0.22056 -0.0559885
0.133049 -0.216265 -0.153967
-0.0841503 -0.259003 -0.211711
0.133192 -0.222478 0.0730696
0.13318 -0.221642 0.0536768
0.133168 -0.220812 0.0344292
0.133235 -0.22158 0.140113
0.133222 -0.220737 0.120215
0.13321 -0.2199 0.100466
0.133067 -0.21033 -0.125337
0.133154 -0.212436 0.0115215
0.133036 -0.201097 -0.175224
0.133018 -0.199948 -0.203284
-0.0841435 -0.241877 -0.211711
0.133263 -0.211999 0.184431
0.13325 -0.211186 0.164194
0.133113 -0.202481 -0.0522849
0.133102 -0.201738 -0.0707487
0.13309 -0.201001 -0.0890776
0.133076 -0.200124 -0.110896
0.13328 -0.209309 0.213027
0.13317 -0.202408 0.0382672
0.133139 -0.200456 -0.0111822
0.133127 -0.199715 -0.0299481
0.133049 -0.194818 -0.153967
0.133232 -0.202487 0.136122
0.133225 -0.202024 0.124182
0.133212 -0.201258 0.104404
0.1332 -0.200497 0.0847756
0.133065 -0.192213 -0.128934
0.133185 -0.19213 0.0614164
0.133158 -0.190552 0.0191346
0.13302 -0.182384 -0.199794
-0.0841352 -0.220471 -0.211711
0.133255 -0.192455 0.17227
0.133083 -0.182493 -0.100011
0.13304 -0.18 -0.168159
0.13328 -0.190106 0.213027
0.133146 -0.182471 0.000144333
0.133134 -0.181795 -0.0187052
0.13312 -0.180991 -0.0411412
0.133108 -0.180326 -0.0596867
0.133097 -0.179665 -0.0780964
0.133212 -0.182449 0.104404
0.1332 -0.181759 0.0847756
0.133237 -0.180053 0.144111
0.133225 -0.179367 0.124182
0.144791 -0.173745 0.0161419
0.150669 -0.172087 -0.00403686
0.133072 -0.171029 -0.118127
0.133058 -0.170286 -0.139693
-0.0841267 -0.199065 -0.211712
0.133274 -0.174474 0.204825
0.13318 -0.169491 0.0536768
0.13304 -0.162178 -0.168159
0.133027 -0.161481 -0.189294
0.133013 -0.160791 -0.210249
0.133263 -0.169981 0.184431
0.13325 -0.169329 0.164194
0.133116 -0.162469 -0.0485758
0.133102 -0.161754 -0.0707487
0.13309 -0.161163 -0.0890776
0.133187 -0.162407 0.0652949
0.133149 -0.160473 0.00393109
0.13313 -0.159523 -0.0262061
0.133237 -0.1611 0.144111
0.133225 -0.160487 0.124182
0.133212 -0.159878 0.104404
0.13306 -0.152472 -0.136112
-0.0841203 -0.18194 -0.211712
0.133074 -0.149534 -0.114514
0.133178 -0.150752 0.0498157
0.133166 -0.150188 0.030597
0.13328 -0.151701 0.213027
0.133263 -0.150882 0.184431
0.13325 -0.150303 0.164194
0.133042 -0.140893 -0.164619
0.133036 -0.14059 -0.175224
0.133018 -0.139787 -0.203284
0.133154 -0.142239 0.0115215
0.133134 -0.141396 -0.0187052
0.13312 -0.140771 -0.0411412
0.133108 -0.140253 -0.0596867
0.133097 -0.13974 -0.0780964
0.133237 -0.142147 0.144111
0.133225 -0.141606 0.124182
0.133212 -0.141069 0.104404
0.1332 -0.140535 0.0847756
0.133058 -0.134437 -0.139693
-0.0841117 -0.160534 -0.211712
0.133083 -0.131901 -0.100011
0.133072 -0.131422 -0.118127
0.133185 -0.132439 0.0614164
0.133173 -0.131943 0.0421109
0.13328 -0.132498 0.213027
0.133263 -0.131783 0.184431
0.13325 -0.131277 0.164194
0.133027 -0.122442 -0.189294
0.133013 -0.121918 -0.210249
0.13312 -0.122489 -0.0411412
0.133108 -0.122039 -0.0596867
0.133097 -0.121592 -0.0780964
0.133047 -0.119664 -0.157523
0.133217 -0.122445 0.112297
0.133202 -0.121889 0.0886894
0.133158 -0.120252 0.0191346
0.133146 -0.119804 0.000144333
0.133134 -0.119361 -0.0187052
-0.0841033 -0.139129 -0.211712
0.133237 -0.119404 0.144111
0.133083 -0.110219 -0.100011
0.133072 -0.109818 -0.118127
0.133254 -0.112425 0.17227
0.133189 -0.110221 0.0691795
0.133177 -0.109807 0.0498159
0.133058 -0.105757 -0.139693
0.13328 -0.109455 0.213027
0.133139 -0.104825 -0.0111821
0.133047 -0.101804 -0.157523
0.133034 -0.101365 -0.178749
0.13302 -0.100931 -0.199794
-0.0840967 -0.122004 -0.211712
0.133168 -0.102056 0.0344294
0.12765 -0.101315 -0.0288031
0.12309 -0.101316 -0.0504091
0.119289 -0.101316 -0.0684143
0.126058 -0.101314 0.154912
0.119748 -0.101315 0.125018
0.133217 -0.0998399 0.112297
0.133202 -0.0993867 0.0886894
0.133056 -0.0949332 -0.143269
0.13309 -0.092352 -0.0890776
0.133076 -0.0919489 -0.110896
0.133274 -0.0939474 0.204825
0.133187 -0.0914705 0.0652949
0.13318 -0.0912643 0.0536768
0.133263 -0.0897655 0.184431
-0.0840883 -0.100599 -0.211713
0.133225 -0.0849635 0.124182
0.133127 -0.082451 -0.0299481
0.133102 -0.0817858 -0.0707487
0.133047 -0.0803713 -0.157523
0.133033 -0.0800253 -0.178749
0.13302 -0.0796822 -0.199794
0.13325 -0.0818106 0.164194
0.133212 -0.0808793 0.104404
0.133168 -0.0797893 0.0344292
0.133149 -0.0793142 0.00393109
0.133116 -0.0748453 -0.0485758
0.133274 -0.0747745 0.204825
0.133237 -0.0739166 0.144111
0.13309 -0.0706221 -0.0890776
0.133076 -0.0703139 -0.110896
0.133263 -0.0706664 0.184431
0.133197 -0.0692783 0.0808677
0.133185 -0.0690176 0.0614164
0.133065 -0.0664663 -0.128934
-0.0840799 -0.0791948 -0.211713
0.133146 -0.0645101 0.000144333
0.133125 -0.0640811 -0.0336847
0.133045 -0.062466 -0.161073
0.133033 -0.0622419 -0.178749
0.13302 -0.061975 -0.199794
0.133225 -0.0623066 0.124182
0.133212 -0.0620701 0.104404
0.133168 -0.0612336 0.0344292
0.133102 -0.0599763 -0.0707487
0.13325 -0.0589797 0.164194
0.133237 -0.0549636 0.144111
0.133088 -0.0524755 -0.0927273
0.133074 -0.0522467 -0.114514
-0.0840731 -0.0620712 -0.211713
0.13328 -0.0518471 0.213027
0.133263 -0.0515674 0.184431
0.1332 -0.0505927 0.0847756
0.13318 -0.0502885 0.0536768
0.133067 -0.0449422 -0.125337
0.141305 -0.0422419 0.0208239
0.150582 -0.0416978 -0.000293538
0.145153 -0.041768 -0.0176357
0.133106 -0.0418631 -0.0633795
0.133049 -0.0411083 -0.153967
0.133036 -0.0409312 -0.175224
0.13462 -0.0406334 -0.203346
0.13325 -0.039954 0.164194
0.133225 -0.0396497 0.124182
0.133212 -0.0394992 0.104404
0.133146 -0.0350198 0.000144333
0.133134 -0.03489 -0.0187052
0.13312 -0.0347356 -0.0411412
-0.0840647 -0.0406671 -0.211713
0.133263 -0.0324683 0.184431
0.1332 -0.0318546 0.0847756
0.13318 -0.0316631 0.0536768
0.133097 -0.0308516 -0.0780964
0.133083 -0.0307167 -0.100011
0.13328 -0.028804 0.213027
0.133245 -0.0246955 0.156142
0.133237 -0.0246389 0.144111
0.133156 -0.0240324 0.0153252
0.133149 -0.0239787 0.00393109
0.133225 -0.0207689 0.124182
0.133212 -0.02069 0.104404
0.133108 -0.0200362 -0.0596867
0.133058 -0.0197174 -0.139693
0.133047 -0.0196463 -0.157523
0.133033 -0.0195617 -0.178749
0.13302 -0.0194779 -0.199794
0.133072 -0.0162027 -0.118127
-0.0840565 -0.0192632 -0.211713
0.13328 -0.00960133 0.213027
0.133263 -0.00954952 0.184431
0.1332 -0.00936902 0.0847756
0.13318 -0.00931269 0.0536768
0.133092 -0.00906074 -0.0854226
0.13313 -0.00550081 -0.0262061
0.13325 -0.00190258 0.164194
0.133225 -0.00188809 0.124182
0.133212 -0.00188093 0.104404
0.133168 -0.00185558 0.0344292
0.133111 -0.00182282 -0.0559885
0.133063 -0.0017951 -0.132525
0.133049 -0.00178733 -0.153967
0.133036 -0.00177963 -0.175224
0.133018 -0.00176946 -0.203284
-0.0840495 -0.00214036 -0.211714
0.133274 0.00575186 0.204825
0.133237 0.00568587 0.144111
0.133149 0.00553353 0.00393109
0.13313 0.00550078 -0.0262061
0.133074 0.00540481 -0.114514
0.133263 0.00954952 0.184431
0.1332 0.00936902 0.0847756
0.13318 0.00931269 0.0536768
0.133092 0.00906074 -0.0854226
0.116421 0.0164078 -0.134367
0.114147 0.0164081 -0.145057
0.108081 0.0164089 -0.173566
-0.0840412 0.019263 -0.211714
0.133249 0.0209283 0.164194
0.133224 0.0207689 0.124182
0.133211 0.0206901 0.104404
0.133168 0.0204112 0.0344294
0.133111 0.0200509 -0.0559885
0.133049 0.0196605 -0.153967
0.133036 0.0195758 -0.175224
0.133018 0.019464 -0.203284
0.13328 0.028804 0.213027
0.133262 0.0286486 0.184431
0.133199 0.0281071 0.0847758
0.13318 0.0279381 0.053677
0.127357 0.0313944 -0.0174336
0.123564 0.031394 -0.0354874
0.115221 0.031393 -0.0752041
0.109153 0.0313923 -0.104087
0.104603 0.0313918 -0.125749
0.0947435 0.0313906 -0.17268
0.133245 0.0360935 0.156142
0.133237 0.0360107 0.144111
0.133156 0.0351243 0.0153252
0.133149 0.0350458 0.00393109
0.133081 0.0343054 -0.103645
-0.0840329 0.040666 -0.211714
0.133225 0.0396496 0.124182
0.133212 0.0394992 0.104404
0.133024 0.0407848 -0.192799
0.132551 0.0406287 -0.21371
0.13328 0.0480066 0.213027
0.133263 0.0477476 0.184431
0.13313 0.0458399 -0.0262061
0.133111 0.0455702 -0.0559885
0.133092 0.0453037 -0.0854226
0.133074 0.0450402 -0.114514
0.133067 0.0449422 -0.125337
0.133049 0.0446829 -0.153967
0.1332 0.0505927 0.0847756
0.13318 0.0502885 0.0536768
-0.0840261 0.0577882 -0.211714
0.133245 0.05509 0.156142
0.133225 0.0585304 0.124182
0.133212 0.0583083 0.104404
0.133168 0.0575225 0.0344292
0.133067 0.0557283 -0.125337
0.133049 0.0554068 -0.153967
0.133036 0.0551681 -0.175224
0.133237 0.0625448 0.144111
0.133018 0.0583919 -0.203284
0.133149 0.0645581 0.00393109
0.13328 0.0710498 0.213027
0.133263 0.0706664 0.184431
0.1332 0.0693307 0.0847756
0.13318 0.0689139 0.0536768
-0.0840176 0.0791908 -0.211714
0.13325 0.0780055 0.164194
0.133156 0.0757944 0.0153252
0.133149 0.0756252 0.00393109
0.13313 0.0751776 -0.0262061
0.133111 0.0747352 -0.0559885
0.133092 0.0742981 -0.0854226
0.133074 0.073866 -0.114514
0.133225 0.0811873 0.124182
0.133212 0.0808793 0.104404
0.133274 0.0862782 0.204825
0.133237 0.0852884 0.144111
0.133024 0.0797962 -0.192799
0.132551 0.079491 -0.21371
0.133263 0.0897655 0.184431
0.1332 0.0880688 0.0847756
0.13318 0.0875393 0.0536768
0.133111 0.0856721 -0.0559885
0.133092 0.085171 -0.0854226
0.133067 0.0844914 -0.125337
0.133049 0.0840039 -0.153967
-0.0840093 0.100593 -0.211715
0.145883 0.0894518 0.0120987
0.147047 0.0889489 -0.0106272
0.13325 0.100836 0.164194
0.133225 0.100068 0.124182
0.133212 0.0996884 0.104404
0.134585 0.0982081 0.0340433
0.133139 0.0974692 -0.0111822
0.133074 0.0954853 -0.114514
0.133067 0.0952775 -0.125337
0.133274 0.105451 0.204825
0.133024 0.0975288 -0.192799
-0.0840026 0.117715 -0.211715
0.133263 0.108864 0.184431
0.13313 0.104515 -0.0262061
0.132551 0.100689 -0.21371
0.1332 0.110554 0.0847756
0.13318 0.10989 0.0536768
0.133049 0.105452 -0.153967
0.133245 0.115879 0.156142
0.133237 0.115613 0.144111
0.133225 0.118949 0.124182
0.133212 0.118498 0.104404
0.133144 0.116032 -0.00363678
0.13313 0.115517 -0.0262061
0.133111 0.114837 -0.0559885
0.133092 0.114165 -0.0854226
0.133168 0.120612 0.0344292
0.133036 0.115675 -0.175224
-0.0839943 0.139116 -0.211715
0.13328 0.128658 0.213027
0.133263 0.127964 0.184431
0.133018 0.118553 -0.203284
0.1332 0.129292 0.0847756
0.13318 0.128515 0.0536768
0.133111 0.125774 -0.0559885
0.133092 0.125038 -0.0854226
0.133074 0.124311 -0.114514
0.133067 0.124041 -0.125337
0.13325 0.138888 0.164194
0.133225 0.13783 0.124182
0.133212 0.141069 0.104404
0.133168 0.139167 0.0344292
0.133149 0.138339 0.00393109
0.133074 0.135121 -0.114514
0.133049 0.134049 -0.153967
-0.0839856 0.160518 -0.211715
0.13328 0.14786 0.213027
0.128939 0.147687 0.186245
0.133235 0.145826 0.140113
0.133197 0.147919 0.0808679
0.13092 0.14769 0.0620931
0.13313 0.144854 -0.0262061
0.133024 0.140087 -0.192799
0.132551 0.139551 -0.21371
0.12678 0.147693 -0.0844467
0.133067 0.145613 -0.125337
0.133249 0.157914 0.164194
-0.0839792 0.177639 -0.211715
0.133224 0.160487 0.124182
0.133211 0.159878 0.104404
0.133168 0.157723 0.0344294
0.133134 0.156087 -0.0187052
0.13312 0.155396 -0.0411412
0.133108 0.154825 -0.0596867
0.133052 0.155609 -0.150407
0.133041 0.155049 -0.168159
0.13328 0.170903 0.213027
0.133263 0.169981 0.184431
0.133232 0.168424 0.136122
0.133149 0.164162 0.00393109
0.133027 0.157932 -0.189294
0.1332 0.170516 0.0847756
0.13318 0.169491 0.0536768
0.133099 0.165268 -0.0744252
0.133081 0.164305 -0.103645
0.133013 0.160791 -0.210249
-0.0839707 0.199039 -0.211716
0.13325 0.180744 0.164194
0.133225 0.179367 0.124182
0.133212 0.178687 0.104404
0.133149 0.175229 0.00393109
0.133274 0.185977 0.204825
0.133168 0.17999 0.0344292
0.133092 0.175778 -0.0854226
0.133067 0.174376 -0.125337
0.133263 0.18908 0.184431
0.133232 0.191133 0.136122
0.1332 0.189254 0.0847756
0.13318 0.188116 0.0536768
0.13313 0.185194 -0.0262061
0.133029 0.179355 -0.185784
0.132551 0.178413 -0.21371
0.133245 0.195665 0.156142
0.133074 0.185566 -0.114514
0.133067 0.185162 -0.125337
0.133049 0.184094 -0.153967
-0.0839622 0.22044 -0.211716
0.133225 0.198248 0.124182
0.133274 0.20515 0.204825
0.133212 0.201258 0.104404
0.133168 0.198545 0.0344292
0.133111 0.195041 -0.0559885
0.133263 0.208179 0.184431
0.133232 0.210057 0.136122
0.1332 0.207992 0.0847756
0.133149 0.204741 0.00393109
-0.0839556 0.23756 -0.211716
0.13318 0.210467 0.0536768
0.133092 0.204773 -0.0854226
0.133029 0.200664 -0.185784
0.132551 0.199611 -0.21371
0.13325 0.218796 0.164194
0.133056 0.205987 -0.143269
0.133042 0.205098 -0.164619
0.133225 0.220905 0.124182
0.133212 0.220067 0.104404
0.133149 0.215808 0.00393109
0.134547 0.214233 -0.0265075
0.13328 0.228511 0.213027
0.133237 0.22554 0.144111
0.134585 0.220505 0.0340433
0.133099 0.21612 -0.0744252
0.133092 0.215646 -0.0854226
0.133074 0.214391 -0.114514
0.133263 0.231098 0.184431
0.147726 0.220486 0.0116314
0.147357 0.219582 -0.0106988
0.133036 0.215334 -0.175224
-0.0839576 0.258963 -0.211716
0.1332 0.230478 0.0847756
0.13318 0.229092 0.0536768
0.134547 0.225219 -0.0265075
0.133018 0.217643 -0.203284
0.13325 0.237822 0.164194
0.133074 0.225201 -0.114514
0.133225 0.239786 0.124182
0.133212 0.238876 0.104404
0.13328 0.247714 0.213027
0.133168 0.239368 0.0344292
0.133149 0.237943 0.00393109
0.133111 0.235142 -0.0559885
0.133263 0.250197 0.184431
0.133232 0.247905 0.136122
0.133067 0.235497 -0.125337
0.133049 0.234139 -0.153967
-0.0839621 0.280365 -0.211716
0.1332 0.249216 0.0847756
0.13318 0.247717 0.0536768
0.133092 0.24464 -0.0854226
0.133029 0.239732 -0.185784
0.132551 0.238473 -0.21371
0.13325 0.260652 0.164194
0.133225 0.258667 0.124182
0.133212 0.257685 0.104404
0.133269 0.266092 0.196649
0.133168 0.257923 0.0344292
0.13313 0.25487 -0.0262061
0.133263 0.269296 0.184431
0.133149 0.260077 0.00393109
0.133099 0.256075 -0.0744252
0.133092 0.255513 -0.0854226
0.133074 0.254027 -0.114514
-0.0839663 0.301768 -0.211716
0.133232 0.270614 0.136122
0.1332 0.267954 0.0847756
0.133049 0.255586 -0.153967
0.133245 0.27545 0.156142
0.13318 0.270068 0.0536768
0.13313 0.265872 -0.0262061
0.133067 0.26426 -0.125337
0.133029 0.261041 -0.185784
0.132551 0.259671 -0.21371
0.133269 0.285235 0.196649
0.133219 0.280896 0.116253
0.133211 0.280256 0.104404
-0.0839698 0.318891 -0.211716
0.133262 0.288396 0.184431
0.133236 0.28619 0.144112
0.133168 0.28019 0.0344294
0.131511 0.27897 0.00432792
0.133111 0.275244 -0.0559885
0.133074 0.275646 -0.114514
0.133067 0.275046 -0.125337
0.133199 0.29044 0.0847758
0.13318 0.288693 0.053677
0.133036 0.275841 -0.175224
0.13325 0.298704 0.164194
0.133092 0.284507 -0.0854226
0.133018 0.277804 -0.203284
0.133225 0.300204 0.124182
0.133212 0.299065 0.104404
0.133049 0.284183 -0.153967
-0.0839741 0.340294 -0.211716
0.13328 0.309163 0.213027
0.133237 0.305143 0.144111
0.133168 0.298746 0.0344292
0.13313 0.295209 -0.0262061
0.133263 0.311314 0.184431
0.133149 0.300656 0.00393109
0.133099 0.296029 -0.0744252
0.133092 0.29538 -0.0854226
0.1332 0.309177 0.0847756
0.133063 0.296189 -0.132525
0.13325 0.31773 0.164194
0.13318 0.311044 0.0536768
0.133225 0.319085 0.124182
0.133212 0.317874 0.104404
0.133074 0.304472 -0.114514
0.133029 0.300109 -0.185784
0.132551 0.298533 -0.21371
-0.0839787 0.361698 -0.211715
0.13328 0.328365 0.213027
0.133049 0.305631 -0.153967
0.133263 0.330413 0.184431
0.133168 0.321013 0.0344292
0.133149 0.319101 0.00393109
0.133118 0.316044 -0.0448612
0.133111 0.315346 -0.0559885
0.133232 0.331171 0.136122
0.1332 0.327915 0.0847756
0.133081 0.315971 -0.103645
0.133245 0.336239 0.156142
0.13318 0.329669 0.0536768
-0.0839822 0.378821 -0.211715
0.133225 0.337966 0.124182
0.133029 0.317867 -0.185784
0.13328 0.347568 0.213027
0.133212 0.340445 0.104404
0.133067 0.325382 -0.125337
0.132551 0.319731 -0.21371
0.133263 0.349512 0.184431
0.133168 0.339568 0.0344292
0.133149 0.337546 0.00393109
0.13313 0.335549 -0.0262061
0.133232 0.350095 0.136122
0.133099 0.335984 -0.0744252
0.133092 0.335247 -0.0854226
0.133245 0.355236 0.156142
0.1332 0.350401 0.0847756
0.13318 0.348294 0.0536768
0.133049 0.334228 -0.153967
-0.0839868 0.400224 -0.211715
0.133274 0.366203 0.204825
0.133225 0.360623 0.124182
0.133212 0.359255 0.104404
0.145985 0.348644 0.0120728
0.133074 0.344107 -0.114514
0.133029 0.339176 -0.185784
0.133263 0.368611 0.184431
0.133237 0.365792 0.144111
0.134586 0.357625 0.0340431
0.148587 0.349813 -0.0109832
0.133056 0.3457 -0.143269
0.132551 0.340928 -0.21371
0.133137 0.358347 -0.0149465
0.133111 0.355448 -0.0559885
-0.0629845 0.410253 -0.212246
0.1332 0.369139 0.0847756
0.133081 0.355693 -0.103645
0.13325 0.378612 0.164194
0.13318 0.370645 0.0536768
0.13313 0.364886 -0.0262061
0.133042 0.354908 -0.164619
-0.0385672 0.410253 -0.212862
0.133274 0.385376 0.204825
0.133225 0.379504 0.124182
0.133212 0.378064 0.104404
0.133263 0.38771 0.184431
0.133029 0.360486 -0.185784
0.132551 0.358593 -0.21371
-0.0151081 0.410251 -0.213454
0.133232 0.387943 0.136122
0.133168 0.380391 0.0344292
0.13313 0.375888 -0.0262061
0.133042 0.365609 -0.164619
-0.00372124 0.41025 -0.213742
0.1332 0.387877 0.0847756
0.133137 0.380399 -0.0149465
0.133099 0.375939 -0.0744252
0.133092 0.375115 -0.0854226
0.13325 0.397638 0.164194
0.13318 0.38927 0.0536768
0.133067 0.375717 -0.125337
0.133225 0.398385 0.124182
0.133036 0.375499 -0.175224
0.13328 0.409016 0.213027
0.133212 0.400635 0.104404
0.133074 0.383743 -0.114514
0.133262 0.41063 0.184431
0.133168 0.398946 0.0344292
0.133144 0.395982 -0.00363678
0.133018 0.380432 -0.203284
0.133231 0.410652 0.136122
0.133111 0.39555 -0.0559885
0.133244 0.416025 0.156143
0.133199 0.410363 0.0847758
0.13318 0.407896 0.0536768
0.133081 0.395415 -0.103645
0.13313 0.405225 -0.0262061
0.133056 0.395853 -0.143269
0.133042 0.394144 -0.164619
0.133224 0.421042 0.124182
0.133211 0.419444 0.104404
0.133167 0.417502 0.0344295
0.133148 0.415016 0.00393122
0.133029 0.399553 -0.185784
0.132551 0.400988 -0.21371
0.133189 0.427807 0.0691795
0.133099 0.415894 -0.0744251
0.133067 0.415266 -0.125337
0.133117 0.425654 -0.0448611
0.133043 0.415546 -0.164619
0.133092 0.425855 -0.0854225
0.133073 0.423378 -0.114514
0.133029 0.420862 -0.185784
0.132551 0.418653 -0.21371
