ply
format ascii 1.0
comment Created by Open3D
element vertex 1596
property double x
property double y
property double z
end_header
-0.0780727 0.0257289 -0.41294
-0.161765 0.0793706 0.336814
0.0351527 0.0266081 -0.129853
-0.192959 -0.055059 -3.9205e-09
0.145402 -0.0629933 0.0799876
-0.134856 0.113674 0.422731
-0.0972114 -0.148462 -0.415937
0.00625135 -0.0980125 -0.420115
-0.11426 -0.0629933 0.226567
-0.165636 0.0266081 -0.147188
-0.208457 -0.137092 -0.23892
-0.211657 0.0347017 -0.0216855
0.181326 -0.00561467 0.347152
-0.0284578 -0.148462 -0.00638115
-0.070265 -0.148462 0.0614965
0.0238068 -0.148462 0.16867
0.0659875 -0.0629933 0.319439
0.0158672 -0.0970773 0.00319982
-0.211657 0.154995 -0.0305213
-0.125055 -0.0629933 0.0354871
-0.206426 0.161263 -0.383781
0.165878 0.0417799 0.352282
0.195886 -0.148462 -0.383965
-0.202932 0.0405238 -3.9205e-09
0.0214712 -0.0629933 -0.189712
-0.0718231 0.0266081 0.201205
-0.0510273 -0.083253 0.00319982
-0.039535 -0.0629933 0.376334
0.057609 -0.148462 -0.386136
0.0556448 0.0266081 0.321007
-0.209878 0.00292835 0.172863
-0.0690965 -0.148462 0.119324
-0.208457 -0.1116 0.25224
-0.181708 0.131818 0.12292
-0.105573 -0.0629933 -0.193426
0.0178844 -0.148462 0.193585
0.0606686 -0.148462 0.407431
0.0100553 -0.0629933 0.0746689
0.0962548 -0.0629933 0.0747789
-0.211657 0.0333285 -0.0388312
0.0205287 0.0266081 0.275009
-0.0620721 -0.148462 -0.306759
0.112542 -0.134012 -0.00319983
0.208458 -0.0643698 -0.158365
-0.111243 0.0266081 0.209508
0.131294 -0.0629933 -0.164458
0.0914451 -0.0629933 -0.0903603
-0.181662 0.149705 0.00700582
0.208872 -0.0241277 -0.3728
-0.0691042 -0.148462 0.242652
-0.211657 -0.112486 -0.0489789
-0.208272 0.090804 0.346513
-0.0910945 0.0266081 -0.201109
0.169556 -0.0629933 -0.154318
-0.0581706 -0.148462 -0.218263
0.150828 -0.0629933 0.264801
-0.0295303 -0.0629933 -0.145637
0.107499 0.0266081 -0.369282
-0.0403564 -0.148462 -0.277215
-0.134229 -0.148462 -0.0185047
0.188363 0.0881507 0.423315
-0.158721 0.0713641 -0.141941
0.185957 -0.0629933 0.0412895
-0.0261027 0.119691 0.402332
0.0779742 -0.148462 0.289035
0.168318 -0.0608487 0.0099884
0.0466786 -0.0629933 0.128909
0.204355 0.0212617 0.0864574
-0.110698 -0.148462 -0.332404
0.19028 0.011031 0.0038381
-0.181463 -0.0461145 0.347152
-0.173725 0.0755031 -0.328039
-0.209878 0.0104061 0.176444
0.211657 -0.10748 -0.0422034
-0.0465422 -0.148462 -0.10712
-0.103178 0.0266081 0.21706
-0.194488 0.129632 0.1039
-0.190429 0.154755 -0.304725
0.197505 -0.0629933 0.205986
-0.0226549 -0.148462 0.0762898
-0.0371404 -0.148462 0.0515845
-0.144008 -0.161263 0.0132459
0.113815 -0.104432 0.00319982
-0.209581 0.0216992 -3.9205e-09
0.200486 -0.148462 -0.258796
-0.134441 -0.0496713 -0.0497726
-0.146667 -0.0629933 0.229899
0.0756773 -0.148462 -0.377439
0.170471 -0.152747 -3.9205e-09
-0.134856 -0.00151309 0.000135293
-0.116083 -0.0629933 0.0423264
-0.203211 -0.0463263 -0.346513
-0.111231 -0.0629933 -0.182776
-0.0576846 0.0266081 0.385638
0.178086 0.0266081 -0.14819
0.171114 -0.0748397 -0.423315
-0.100148 -0.0629933 0.364959
0.102467 -0.100919 -0.420115
0.207037 0.00687354 0.192868
0.211657 -0.0249669 0.391925
0.204331 -0.00848073 0.346513
0.0624204 -0.148462 0.2305
-0.0971407 -0.0629933 -0.161106
-0.0155195 -0.148462 -0.301488
0.144046 -0.0629933 0.239684
-0.0660283 0.134202 0.394272
-0.159655 -0.148462 0.272714
-0.169225 0.0637729 -0.338561
0.0302326 -0.0449965 -0.00440377
-0.177249 -0.106665 0.423315
-0.208457 -0.0832105 -0.117012
-0.173986 0.11151 0.164653
-0.165766 0.0963775 -0.346513
-0.200242 0.0259788 0.187809
-0.162383 0.00113714 -3.9205e-09
-0.0181828 -0.0629933 -0.39292
0.211657 0.0690716 0.413571
-0.0970269 0.0144384 0.420628
0.0285244 -0.0629933 0.288042
-0.201285 0.0976231 -0.0768015
-0.136277 0.0135139 0.385347
0.124905 -0.0629933 -0.10296
-0.195416 0.157704 -0.112199
-0.208457 -0.0989761 -0.175156
0.0117252 -0.148462 0.0725998
-0.211657 0.0840379 0.00238689
0.134856 0.0823095 0.406362
-0.173001 0.126928 0.0226957
0.0139887 -0.0629933 -0.0576292
-0.205802 -0.0567253 -0.346513
0.00825601 0.0266081 -0.242091
0.134856 -0.00250838 0.421811
0.113349 0.113716 0.40004
0.083243 -0.0629933 0.116004
0.125089 -0.0891444 0.00319982
0.032543 0.0266081 -0.308161
0.129597 -0.0288367 -0.00440377
0.101743 0.0266081 0.344295
0.0404725 -0.0629933 -0.241106
0.206367 -0.0535594 0.0474244
-0.0329719 -0.0629933 -0.29259
0.188419 0.0266081 0.250169
-0.144078 0.0508607 -0.0314738
-0.00890135 0.0266081 0.200271
0.0995585 0.0266081 -0.36334
-0.211657 -0.0454712 -0.0217071
0.0932633 0.0266081 -0.27762
0.0781002 -0.0629933 0.0960825
0.0791666 0.0266081 0.24994
-0.200736 0.145921 0.147808
0.0108036 -0.148462 0.219354
-0.0894034 -0.148462 -0.377406
0.191296 -0.148462 -0.38341
0.190818 -0.0629933 0.290177
0.203963 -0.161263 -0.386552
0.0133376 -0.0629933 0.308028
0.0620607 -0.148462 -0.11358
-0.211657 -0.106508 0.0765424
-0.169332 0.0992709 -0.312667
0.0397422 0.141778 0.397153
-0.0839588 -0.0629933 0.0400032
-0.0180844 -0.0618966 0.0115564
0.0390591 -0.0629933 0.245791
0.196527 -0.148462 0.250064
0.00396378 0.0759489 0.372121
-0.174926 -0.013259 0.0774393
-0.102178 0.0163156 0.00433691
-0.134894 -0.0522642 -3.9205e-09
-0.123581 -0.148462 0.130164
0.207987 -0.054646 -0.203775
0.122207 -0.0629933 -0.0282389
-0.166572 0.11002 -0.0380314
0.172972 -0.150574 -3.9205e-09
0.18192 -0.0629933 -0.120434
-0.134856 -0.0481789 0.346982
0.0583721 -0.112805 0.00319982
-0.211657 -0.043348 0.0257698
0.208458 -0.126953 0.109386
-0.150146 0.0042935 -0.346513
0.13203 -0.148462 -0.31787
-0.208457 -0.0891716 0.143671
-0.193942 -0.0629933 0.25939
-0.0920042 0.0266081 -0.153045
0.139639 -0.0629933 -0.289919
0.114326 0.0266081 0.380064
0.19661 0.0260457 0.0155404
0.197704 -0.148462 -0.262858
-0.208457 -0.0633412 0.307379
0.13292 -0.0629933 -0.166945
0.0858902 0.114749 0.400436
-0.211657 0.160757 -0.363122
-0.120549 0.0266081 -0.11656
0.0359898 0.0266081 -0.385135
-0.18674 0.109434 0.126765
0.0963635 -0.0629933 0.0484435
-0.0143161 0.0266081 0.120563
-0.0029629 0.0266081 -0.200985
0.11955 0.0266081 -0.231709
0.0130283 0.0266081 -0.112728
-0.155927 0.0640155 -0.217758
-0.192135 0.123498 0.166185
-0.0924178 -0.148462 0.0740273
-0.18726 0.0266081 -0.163967
-0.0591036 -0.0806065 0.00319982
-0.150577 -0.148462 -0.166024
-0.0918515 0.0266081 -0.139574
0.162131 0.017635 -0.00516549
-0.099091 -0.0629933 0.254362
-0.102139 -0.0809516 0.00319982
-0.0185178 -0.148462 -0.180727
0.208458 -0.12854 -0.103292
-0.028881 -0.0629933 -0.288555
0.168291 -0.148462 -0.158904
0.191895 -0.0629933 -0.131961
0.0204568 -0.0629933 -0.282254
0.0596094 -0.0629933 -0.167995
-0.0572219 -0.148462 -0.170946
0.122254 -0.0786082 0.00319982
-0.11251 -0.0629933 -0.186488
0.0609259 -0.0629933 -0.39238
-0.211657 0.135647 0.0159948
0.198799 -0.148462 0.291168
0.0843986 -0.148462 -0.318081
-0.208457 -0.0870245 -0.145786
-0.134856 0.143258 0.399458
0.123771 0.0266081 -0.342041
-0.18568 -0.161263 0.033712
0.0460221 -0.0629933 0.266955
-0.210773 0.061848 0.346513
-0.128531 0.0266081 -0.298132
-0.0945259 0.0266081 0.0495944
0.12059 -0.0629933 0.363267
-0.0793287 -0.148462 -0.0979313
-0.023365 -0.0174782 0.0038381
0.211657 -0.131932 0.0405474
0.198815 0.0260626 -0.22428
-0.134856 -0.159604 0.395413
0.109555 -0.148462 -0.18689
-0.124477 -0.0629933 -0.24728
0.115497 -0.148462 -0.203819
-0.0548577 -0.0629933 -0.164263
0.00321344 -0.0629933 0.00906302
-0.0466922 -0.115113 0.00319982
-0.0682741 -0.148462 0.324402
0.0321431 -0.148462 -0.255759
0.0020666 -0.0629933 0.126166
-0.157276 0.0675653 -0.109981
-0.115778 -0.0629933 0.137575
0.12328 -0.0629933 -0.298539
-0.132088 -0.0629933 0.17303
-0.206789 -0.0607802 -3.9205e-09
0.0701051 -0.148462 -0.0639932
0.204321 -0.0576974 0.219589
0.0472332 -0.0629933 -0.176842
-0.151731 -0.158604 0.0768015
-0.0796964 -0.148462 -0.225903
0.211657 -0.0747857 0.383038
0.0722109 -0.0629933 0.133107
-0.134856 0.0883062 0.422961
-0.172597 0.0725627 -0.242957
-0.0358452 0.0266081 0.288832
-0.183667 0.136971 -0.221697
-0.150929 0.00065776 -3.9205e-09
-0.193959 -0.148462 0.292186
0.0202585 -0.0629933 0.385631
0.15612 -0.0629933 -0.192206
0.00759631 -0.148462 0.210282
0.133436 -0.0125851 0.349033
0.102976 -0.0629933 -0.303507
0.173242 -0.0629933 -0.0152106
-0.0804383 -0.148462 0.298732
-0.103477 -0.0372593 -0.00440377
-0.0540997 -0.0629933 0.286561
0.0609997 -0.0629933 -0.159282
0.143161 0.0102556 -0.421318
0.0910796 -0.0747147 0.00319982
0.186513 -0.148462 -0.281457
0.070215 0.0266081 -0.0674436
0.144033 -0.0629933 0.172018
-0.208042 -0.00715689 -0.200354
0.0760918 -0.0629933 -0.395204
0.0710934 0.0266081 0.248343
-0.13858 0.009452 0.423315
-0.0180792 -0.0629933 -0.256488
-0.0576013 -0.148462 0.104502
0.191619 0.0266081 -0.214344
0.00613739 0.0266081 0.172025
0.11053 -0.0629933 0.276065
-0.160653 0.0764448 0.311659
0.211657 -0.0868693 -0.353558
-0.208457 -0.12179 0.260528
0.134856 -0.153792 0.408748
0.0373859 -0.148462 0.00333769
-0.0606594 -0.148462 0.158922
0.12956 -0.0629933 0.094774
-0.0470653 -0.0629933 -0.0568416
-0.0154523 -0.0629933 -0.287893
-0.211657 -0.151124 -0.0554121
0.208458 -0.131301 -0.194031
-0.123856 -0.10274 -0.00319983
-0.208457 -0.0844461 0.0791648
-0.185723 0.142376 0.172232
-0.0251851 0.0266081 -0.173463
-0.205892 -0.0568518 -0.30883
-0.193447 -0.0563182 0.0792337
-0.147657 -0.0629933 -0.33211
-0.161844 -0.0629933 0.342047
-0.0839185 -0.0629933 0.106568
0.131769 -0.0971259 -0.420115
-0.201831 0.148777 0.331537
-0.138645 -0.103479 -0.423315
-0.0227493 -0.148462 -0.247227
0.170364 -0.0629933 0.118882
-0.179271 0.125408 -0.127582
0.168354 0.0109453 0.0038381
-0.00229404 -0.148462 0.109996
0.0731726 -0.0571505 -0.418968
0.0144108 -0.0629933 -0.0900984
0.128918 -0.0629933 -0.345025
-0.190019 -0.0120698 -3.9205e-09
-0.0278047 -0.148462 0.100063
-0.204388 0.0643252 -3.9205e-09
-0.114423 -0.0629933 0.36486
0.0411003 -0.0629933 -0.087622
0.155368 -0.148462 0.33583
0.068629 -0.0629933 0.30558
-0.211657 0.00833448 0.0354022
0.0501974 -0.104624 -0.00319983
0.211619 -0.0939627 -0.423315
-0.0447169 -0.0815648 0.00319982
-0.182997 0.135209 0.333473
-0.0249477 -0.0629933 0.213892
-0.209878 -0.0184957 0.194469
0.0609811 -0.0911257 0.420115
-0.209878 -0.0359056 0.137977
0.0701688 0.0266081 0.190761
-0.20818 0.161263 -0.368727
0.0496977 -0.148462 -0.176478
0.208458 -0.141636 0.245297
0.208458 -0.112329 0.300405
-0.102786 0.0266081 0.0970593
-0.155424 -0.036841 0.347152
0.0278171 -0.0629933 0.256539
-0.039299 -0.148462 0.379564
0.198857 -0.150064 -0.40903
-0.202664 0.150949 -0.325811
-0.208457 -0.137678 0.105417
0.00634594 -0.0629933 -0.20389
-0.0688201 -0.0629933 0.0592272
0.0521973 -0.0629933 0.118847
0.100602 -0.148462 -0.355463
0.0864394 -0.148462 0.310443
0.103207 -0.0629933 -0.287522
-0.211657 -0.0497445 -0.0586546
-0.194986 -0.0643132 -0.423315
0.141514 -0.0629933 -0.234271
-0.0760198 -0.0629933 -0.174055
0.132631 -0.0542354 0.401682
-0.0479647 -0.0629933 -0.11016
0.017405 -0.14159 -0.00319983
-0.0333852 0.0266081 -0.393668
-0.211657 0.152437 0.0470858
-0.0668099 -0.148462 0.241307
-0.185552 0.159934 -0.0278014
-0.147936 -0.148462 0.206947
-0.118204 -0.148462 -0.289898
-0.0665338 -0.106905 0.420115
0.0711934 0.0266081 -0.305061
-0.0480035 -0.148462 -0.129717
0.199193 -0.040603 0.423315
-0.0742602 -0.148462 0.125935
-0.122315 -0.148462 0.303632
0.211657 0.102706 0.380218
0.015266 0.0266081 -0.0559232
-0.125419 0.0266081 -0.141909
0.125284 -0.00987905 0.419829
-0.208042 0.0101433 -0.198964
0.115068 0.0266081 0.373524
0.0787623 -0.0629933 -0.258232
0.195567 0.120935 0.38238
-0.110689 -0.148462 -0.203137
0.0395186 0.0266081 -0.2204
-0.084494 -0.0629933 0.339537
0.142511 -0.0148725 -0.421318
-0.0646645 -0.0611456 -0.0109984
-0.176906 0.137196 -0.407792
-0.184379 -0.161263 -0.0763319
-0.0840777 -0.0629933 -0.0869821
-0.124241 -0.00990885 -0.00492136
-0.139469 0.0387397 -0.0131773
0.0239148 -0.0501598 -0.00440377
-0.133722 -0.0629933 0.293681
-0.172192 0.106792 0.231741
-0.196171 0.134022 -0.177722
-0.211657 -0.150158 0.357115
0.0212426 0.0266081 -0.163262
-0.157 0.084846 -0.351834
0.0942648 0.139005 0.409741
-0.184094 -0.0629933 0.165121
0.118918 0.0266081 0.228559
0.0592882 -0.0629933 -0.400213
0.13535 -0.148462 -0.39478
0.0506998 -0.148462 0.188804
0.0757753 -0.0629933 0.413492
-0.0992546 -0.0939918 -0.420115
0.0445707 -0.0629933 -0.137949
0.157934 0.0266081 -0.326772
0.0999408 -0.0629933 -0.330405
-0.20335 0.0298864 -3.9205e-09
-0.179448 0.0655381 -0.423315
-0.069207 -0.148462 0.0842939
0.185512 -0.0629933 -0.0845597
0.149694 0.0266081 -0.198797
0.133436 -0.0389568 0.374815
0.149117 -0.0569765 0.00607221
-0.123357 -0.148462 -0.123423
0.0461954 -0.0629933 0.117395
-0.170318 0.119871 -0.379139
-0.0624631 -0.0629933 0.0553387
0.154125 -0.0629933 0.0618346
0.208458 -0.0998691 0.0991838
0.134856 -0.10961 0.00125869
0.0897112 -0.148462 0.0365743
0.208872 -0.0077555 -0.175557
0.177181 0.0266081 0.100523
-0.16126 -0.0629933 -0.273611
0.208872 0.00913563 -0.187296
-0.0796885 -0.0629933 0.144
-0.208923 -0.110837 0.346513
-0.0841623 -0.0629933 -0.0922016
-0.0895466 -0.148462 0.323485
0.0451962 -0.0629933 -0.388738
-0.130858 -0.148462 -0.207011
-0.0991426 -0.0629933 -0.267329
0.0531319 -0.0629933 0.209559
0.207037 -0.040744 0.287213
0.134856 0.0456322 0.381942
0.0635102 -0.0355459 0.420753
0.211657 -0.120374 0.0611443
-0.170734 -0.148462 0.210882
-0.193204 -0.0629933 -0.332771
-0.177378 -0.148462 0.125944
-0.147106 -0.0629933 -0.28874
0.208872 -0.0492937 -0.134032
-0.134856 -0.151549 -0.0515937
0.0884445 0.0266081 -0.333254
-0.000992383 0.0266081 -0.260928
-0.171091 -0.0629933 0.10468
0.208872 -0.0133687 -0.171823
0.141724 -0.0629933 0.308401
0.0579268 -0.148462 0.0561715
-0.125491 -0.142245 0.00319982
-0.141315 0.0176688 -0.0787735
0.184028 -0.136674 0.423315
-0.0101885 -0.148462 0.396051
0.0454915 0.0266081 -0.194546
-0.180073 0.0920523 0.307755
-0.0101198 -0.0629933 -0.118668
-0.202441 0.150367 -0.0802734
-0.193128 0.0266081 -0.161269
0.0252183 -0.148462 0.0145128
0.0841742 -0.0629933 0.397865
-0.161556 -0.0236586 -0.0780055
0.211657 0.0574179 0.360289
0.177765 -0.0629933 0.10806
0.0456694 0.0266081 0.322778
0.171071 -0.0629933 -0.0428098
-0.16621 0.0910602 -0.272795
0.0964854 -0.0676048 0.00319982
-0.195075 -0.161263 -0.38989
0.158673 -0.0629933 0.0315914
0.105141 -0.148462 -0.0161524
0.144298 -0.0629933 -0.201017
-0.124034 -0.0625175 -0.0476067
-0.173236 0.0742284 -0.208784
0.0606982 -0.0629933 -0.287531
0.0449626 -0.148462 -0.0259854
-0.170315 0.0666141 -0.152429
-0.0188282 0.0729164 0.38439
0.124104 -0.148462 0.143353
0.0566767 -0.0629933 -0.277514
-0.208042 -0.0370026 -0.188463
-0.141183 0.0266081 -0.307018
-0.0504845 0.0832839 0.37491
0.208458 -0.0655902 -0.192737
0.00984732 -0.148462 0.0056802
-0.115614 0.0266081 0.173538
0.139976 -0.0629933 -0.0790152
0.0456878 0.0266081 -0.311068
-0.129291 -0.0629933 0.138134
0.000633955 -0.0849649 -0.420115
-0.200337 0.0259599 0.311788
0.20482 0.0230618 -0.03631
-0.191383 0.0820462 -0.0768015
-0.170984 0.103615 0.188042
-0.0246986 -0.0629933 0.35324
-0.208457 -0.10062 -0.114132
-0.186577 -0.0468092 -0.423315
0.104693 -0.0635611 -0.420115
-0.199105 -0.148462 0.242903
0.141675 -0.0629933 0.141234
-0.178221 0.122648 -0.102555
0.137358 -0.148462 -0.0946392
-0.028459 -0.0629933 -0.085017
-0.006929 -0.0234249 -0.421318
0.0136262 0.0266081 0.153349
-0.211657 -0.0472948 -0.0439231
-0.0885834 0.121095 0.402871
0.210351 -0.15333 -0.346513
-0.0583914 -0.0655714 -0.420115
-0.208042 0.00126074 -0.304111
-0.193027 -0.148462 0.177158
0.176329 -0.0633707 -3.9205e-09
0.208872 -0.0126426 -0.392003
0.170472 -0.0405972 0.347152
-0.144546 0.0266081 -0.11708
0.203921 0.0221266 -0.0122215
-0.127459 -0.148462 0.397702
-0.0643834 -0.148462 0.0988911
-0.167624 -0.0629933 -0.297258
0.0444705 -0.126637 -0.00319983
-0.166856 0.0927597 0.154521
-0.168824 0.161263 0.363787
-0.0439559 0.0611408 0.372907
-0.0476427 -0.0629933 0.363794
0.116321 -0.148462 -0.39381
-0.0645859 -0.0629933 -0.146285
0.187462 -0.0537402 -0.00510987
0.0456706 0.0266081 -0.186745
-0.0259628 -0.0841372 -0.420115
0.144196 -0.106335 0.423315
-0.0112484 -0.0286337 -0.00440377
-0.148201 0.0208144 -3.9205e-09
-0.134856 0.0248531 -0.0703892
0.0882446 0.0147446 -0.00459015
-0.0485347 -0.0629933 0.0760755
0.0492505 -0.124364 -0.420115
-0.172626 0.0726378 0.229449
-0.185205 -0.148462 0.141627
-0.0871128 -0.148462 -0.374033
-0.136005 -0.0515583 0.386779
-0.0513448 -0.0723935 -0.00319983
-0.176949 0.119303 -0.342654
0.198224 -0.148462 0.0400243
-0.164129 0.0855881 0.285015
-0.187776 -0.0629933 -0.144748
0.0137544 -0.148462 -0.31123
0.142071 0.0266081 -0.380473
0.142665 -0.148462 0.261286
-0.0197687 0.0266081 -0.394377
-0.132791 0.0266081 0.141407
-0.211657 0.0517006 -0.395477
0.198676 0.0257254 0.319695
0.00591917 0.0266081 0.284603
0.0421624 -0.0409885 0.420753
0.0910247 -0.0629933 0.122324
0.208458 -0.126518 -0.289156
-0.211657 0.0271452 -0.00632991
-0.208042 -0.0429352 -0.200357
-0.179581 -0.0629933 -0.130366
-0.0987642 0.15061 0.400511
-0.0761881 -0.0629933 0.300973
0.208872 0.00722106 -0.107001
-0.209878 -0.0499482 0.292344
0.208458 -0.145012 0.108517
0.133436 -0.0392753 0.38624
-0.083954 -0.124084 -0.420115
-0.205081 -0.161263 -0.0636469
0.170068 0.0266081 0.328357
-0.0327721 0.0266081 -0.0984947
-0.173228 -0.135336 0.423315
-0.177103 -0.0596812 -0.346513
0.067516 -0.0629933 -0.168473
0.00581358 -0.101053 0.420115
-0.177681 -0.148462 0.100391
-0.211657 -0.0523794 0.0385229
-0.116609 0.0266081 -0.396797
-0.134856 -0.0606782 -0.0691955
0.119747 0.0266081 0.0362572
-0.180099 0.145594 0.0300116
-0.0463098 -0.0544877 -0.420464
-0.00272349 -0.0629933 -0.40935
0.211657 -0.0822431 -0.371358
0.102137 -0.0629933 -0.264943
0.0743266 -0.148462 0.259369
0.202551 -0.0629933 0.135727
-0.116011 -0.0629933 0.0223822
-0.132303 -0.0629933 -0.0760289
-0.211657 0.108494 0.354619
0.0695322 -0.0629933 0.0539835
-0.210019 0.146841 0.346513
0.0595899 -0.148462 -0.287063
-0.00165581 0.0266081 0.0278662
0.0228235 -0.105191 -0.00319983
0.108672 -0.148462 0.175084
-0.104593 0.0129028 0.0038381
-0.113391 0.0266081 0.0989092
-0.123203 -0.0484467 0.420753
-0.0999798 -0.0341131 0.420753
-0.0522149 -0.0629933 0.40731
-0.119793 0.0266081 0.0393212
-0.208457 -0.109957 -0.151597
-0.117968 -0.148462 0.0538168
0.208458 -0.0972985 0.309062
-0.0686151 -0.058289 0.00694914
0.186338 -0.0629933 -0.301099
-0.193952 -0.0629933 -0.182174
-0.124161 -0.148462 0.0373315
0.0795557 -0.0730901 0.00319982
0.12245 0.0266081 -0.0632997
0.190416 0.117536 0.423315
0.0886823 -0.0629933 0.40372
-0.0195314 0.0266081 -0.176748
-0.211657 0.138305 -0.39581
-0.127408 -0.0629933 0.0914023
0.113766 0.0266081 0.105528
-0.168614 -0.0629933 0.140663
0.0624322 0.0266081 0.176579
0.0758322 -0.041114 0.0038381
-0.0757628 -0.0629933 -0.241319
0.153728 0.0266081 -0.100531
-0.211657 0.133818 -0.368722
-0.167483 -0.148462 -0.224102
-0.00677654 0.0266081 -0.0831661
0.211657 -0.05356 0.413476
0.185918 0.0268352 0.346599
-0.0539352 -0.0629933 -0.298161
0.199157 -0.0629933 -0.0787028
-0.0728305 -0.148462 -0.371034
0.0446227 -0.0629933 0.197487
-0.211657 -0.0163133 0.059224
0.00522396 -0.0629933 0.0413878
0.189327 -0.0629933 -0.0968002
0.0485962 -0.0629933 -0.375051
-0.0943525 -0.148462 -0.0105618
-0.146204 -0.0134517 0.423315
-0.0099286 0.0625981 0.380432
-0.134856 0.00973793 0.0696997
-0.157425 0.0115583 -3.9205e-09
-0.208042 -0.019712 -0.236524
-0.164427 -0.148462 -0.271818
0.113923 0.0266081 0.330939
0.0357358 -0.0629933 -0.221972
-0.175586 -0.148462 -0.285295
0.0194004 -0.00436798 -0.00440377
-0.208457 -0.142755 0.213439
-0.0625514 -0.0629933 -0.0806501
-0.151795 -0.0629933 0.329708
0.0928587 -0.148462 -0.0639486
0.121158 -0.0629933 -0.334071
0.0716611 -0.0629933 0.382702
0.145869 -0.148462 -0.131985
-0.117407 -0.0629933 -0.0803369
-0.195104 0.13124 -0.139594
-0.131439 -0.0581255 -0.0625077
-0.147222 -0.0724544 0.423315
-0.145024 -0.0624517 0.0875157
0.185517 -0.0629933 0.0788391
-0.182409 0.133662 -0.114797
0.0998402 -0.0629933 -0.393271
-0.211657 -0.0165551 0.0666591
0.0860803 -0.0629933 -0.324779
0.208458 -0.0753864 -0.229599
0.116069 -0.0435581 -0.00440377
-0.18519 0.161263 0.405533
0.190486 -0.0470487 0.347152
0.0895553 -0.148462 -0.282212
-0.158881 -0.00136074 0.346513
-0.0531695 -0.0629933 0.140767
-0.184482 0.0266081 -0.195402
-0.0321699 -0.0580908 -0.41834
0.208458 -0.0820853 -0.230666
-0.208457 -0.0681116 0.141878
-0.211657 -0.117261 -0.355852
-0.061511 0.0266081 0.0427908
-0.0893824 -0.148462 -0.132038
-0.142195 -0.0462977 0.0768015
0.175193 0.0266081 -0.313013
-0.211657 -0.0655108 -0.0674277
-0.200353 -0.0942348 0.423315
-0.200028 0.0418365 -0.0768015
-0.211657 0.0818976 0.398803
-0.208457 -0.137828 -0.244086
0.159359 -0.0629933 -0.254281
-0.160635 0.0614574 -0.346513
-0.18961 -0.148462 -0.263987
0.0989742 -0.0751469 -0.420115
0.00141668 -0.0277875 -0.00440377
-0.0315434 -0.148462 -0.263841
-0.159149 0.0619395 -0.138856
0.0551502 -0.0629933 -0.236094
0.116317 0.0266081 -0.162948
-0.0700843 0.0266081 0.356085
-0.158373 -0.148462 -0.344338
-0.12414 0.0261112 -0.390193
-0.14356 0.0266081 -0.12735
-0.134564 -0.0629933 -0.0105508
0.0413203 -0.0629933 0.0305071
0.0138446 -0.0629933 0.152949
0.0805863 -0.0629933 -0.0910511
0.163458 -0.0629933 0.175144
0.150811 -0.00680673 -0.00440377
-0.211657 -0.115718 0.00226487
0.162041 -0.0629933 -0.197813
0.0767486 -0.148462 -0.316781
0.0106535 -0.0629933 0.0796489
0.0624491 0.0266081 -0.151492
0.163832 -0.0713409 -0.423315
0.0502924 -0.148462 0.32027
0.0640774 0.0255785 -0.4135
-0.0860177 -0.0629933 -0.256289
-0.152671 0.0266081 0.32668
-0.080696 -0.0629933 -0.0672775
0.124671 -0.138599 -0.420115
-0.143254 0.0307323 -3.9205e-09
0.0424659 -0.0629933 -0.326237
-0.205937 -0.148559 -3.9205e-09
0.0130958 -0.0629933 0.222961
-0.137087 -0.0629431 -0.335169
-0.0978083 0.0266081 0.135564
-0.209878 0.00567606 0.290434
0.184436 -0.148462 0.276556
0.169633 0.0266081 -0.321546
-0.211657 0.0331707 -0.36611
0.0477646 -0.148462 -0.253655
0.207037 -0.0248636 0.15663
0.005861 -0.0629933 -0.100749
-0.164981 0.0280182 -0.0768015
-0.211657 0.0598514 -0.37329
0.155562 0.0266081 -0.233621
-0.174209 0.0767654 0.121381
0.0434187 -0.136072 0.420115
-0.180203 -0.0497134 0.347152
0.121123 -0.0629933 0.238551
-0.154647 0.0786579 -0.366703
0.126758 0.104099 0.396351
-0.197213 0.157021 -0.123648
-0.00173397 0.0266081 -0.312535
0.108842 0.0266081 0.0295122
-0.154684 0.0266081 -0.213757
-0.139111 -0.148462 -0.0814506
0.211657 0.0699186 0.367289
0.0820288 -0.0129435 0.420753
-0.208457 -0.122262 -0.341845
-0.160261 -0.161263 0.4112
0.177553 0.0266081 -0.379885
-0.0817977 -0.148462 -0.365314
-0.15452 0.0783235 0.00095519
-0.0197593 0.0266081 0.320919
0.123593 -0.0629933 0.298795
-0.204633 0.0880709 -3.9205e-09
-0.166363 0.148428 0.361327
-0.162042 -0.161263 0.0576175
-0.0277056 0.0266081 -0.0429934
0.156508 -0.0253306 -0.00440377
-0.211657 0.0323335 0.013475
-0.197365 -0.148462 -0.1346
-0.206186 -0.01963 -0.341137
-0.0546189 0.0266081 -0.23726
0.208872 0.000853923 -0.314374
-0.142965 -0.0629933 -0.0975591
-0.211657 -0.0189216 0.0196962
-0.0945961 -0.0705831 0.00319982
0.101159 0.0266081 0.0798639
0.112513 -0.0629933 -0.216784
-0.211657 0.125875 -0.369712
0.0626044 -0.0629933 0.0443545
-0.211657 -0.00826688 0.397334
-0.211657 -0.0450244 -0.00157577
0.0149963 -0.0629933 0.17145
-0.154772 0.0861798 0.349249
-0.0809988 0.108671 0.398105
0.183856 0.0266081 -0.056383
0.149571 -0.148462 -0.349363
-0.17115 0.0961409 0.0768015
-0.208042 -0.0245774 -0.168148
-0.206469 -0.161263 0.0473109
-0.1756 0.109442 0.346513
0.158292 0.0266081 -0.245769
0.155106 -0.0629933 -0.409289
-0.0872743 -0.148462 -0.135178
0.0718329 -0.0629933 0.171857
0.211657 -0.148982 -0.371778
-0.169302 0.0266081 0.318304
-0.202748 0.154916 0.297711
0.211232 -0.101268 -3.9205e-09
0.211657 0.0742404 0.367468
0.0158861 -0.148462 0.224881
-0.103016 -0.148462 -0.216888
-0.134856 0.00578519 -0.0210995
0.13366 -0.0629933 -0.145398
-0.134441 -0.000134988 -0.0432542
-0.0953744 0.0266081 0.0332935
0.170168 -0.148462 0.302639
-0.184611 0.103884 -0.129558
-0.108679 -0.0629933 0.193487
0.0678296 0.0266081 -0.34238
0.208458 -0.144352 -0.181057
-0.134441 0.00837395 -0.0608838
0.119842 -0.148462 0.39258
-0.0164829 -0.0629933 0.302828
-0.134856 -0.009504 0.412395
-0.183711 0.101538 -0.128864
-0.148589 -0.0629933 -0.121068
-0.179927 -0.148462 -0.340068
0.162226 0.0266081 0.0934581
-0.211657 -0.0547527 0.0499178
-0.135352 -0.0548404 0.0292745
0.141357 -0.148462 0.0149709
0.134856 0.00353971 0.413918
-0.0455945 0.0266081 0.125431
-0.00607653 -0.0629933 -0.183332
-0.133526 -0.0629933 0.212392
0.134856 -0.0399681 0.354751
-0.140048 -0.148462 -0.121156
0.106077 -0.121603 -0.420115
-0.0306172 0.0250561 0.0108749
-0.134856 0.0186997 -0.0524592
0.0753214 -0.0629933 0.303148
-0.169523 -0.115979 -3.9205e-09
-0.0967414 -0.148462 -0.250476
0.0119818 0.141798 0.39716
0.196657 -0.062512 0.202555
-0.155973 0.0572498 0.346513
-0.0556636 -0.0629933 0.151174
-0.158991 -0.0536037 0.0768015
-0.0055156 -0.148462 0.404225
-0.208042 -0.00543991 -0.245238
0.0893395 -0.148462 0.227641
-0.208457 -0.0917009 0.267621
-0.137194 -0.0629933 -0.252702
-0.198237 0.00430317 0.423315
0.0813662 -0.148462 0.144791
-0.190371 0.118901 0.113982
-0.0362354 0.0223865 -0.00783747
-0.0444133 -0.0629933 0.17513
0.129537 0.0266081 0.281527
0.13771 -0.0629933 -0.237535
0.195442 0.124971 0.383915
-0.172204 -0.00190377 0.0774393
0.126342 0.0266081 -0.0761634
-0.149777 -0.0524541 -0.423315
0.0603255 -0.148462 0.0660112
-0.193683 -0.0629933 -0.138044
0.134856 0.064485 0.408281
-0.0508564 -0.148462 0.21648
0.113641 -0.0629933 0.375883
0.0161004 -0.0388265 0.0038381
-0.134856 0.00935564 -0.419572
-0.0268593 -0.0629933 0.0381973
-0.211657 0.00187509 -0.355173
-0.175986 0.116771 -0.275311
0.176291 0.0266081 -0.0343376
0.211657 -0.0651754 -0.0527682
0.0355693 -0.0629933 0.0415299
0.208458 -0.121095 0.315802
0.19314 -0.0629933 -0.276886
0.00495508 0.0266081 -0.134204
-0.208457 -0.120998 0.177682
-0.0100871 -0.0629933 0.196428
-0.157738 0.0260044 -3.9205e-09
-0.0398327 0.0266081 -0.331289
-0.132895 0.0223087 0.400091
0.054042 -0.0629933 0.33911
-0.0601653 -0.125976 -0.00319983
-0.17841 0.0246086 0.0768015
0.126617 -0.0629933 -0.107567
0.0362266 -0.0629933 -0.0293347
0.207037 -0.032906 0.307987
0.138731 -0.0783504 -0.423315
-0.0417996 -0.148462 0.262514
0.176725 -0.0629933 -0.260254
0.178102 -0.0629933 -0.379011
0.0514139 0.0266081 -0.361943
0.208458 -0.141213 0.238228
0.133827 -0.0629933 0.314459
0.0888577 -0.0629933 -0.0958078
0.037418 -0.131953 -0.00319983
0.208872 -0.025804 -0.0582771
0.116091 0.0214359 0.00663613
-0.208457 -0.0647677 -0.127022
-0.169171 -0.149409 0.423315
0.126579 -0.148462 -0.155419
0.0484181 -0.148462 0.200307
-0.155988 0.0119516 -3.9205e-09
-0.0589434 -0.148462 0.136897
-0.105926 -0.0884191 0.420115
0.115664 -0.0629933 0.360581
0.159804 -0.00921434 0.346513
-0.013746 0.0266081 -0.0407854
0.0954677 0.0211709 0.00645908
-0.183446 0.100845 -0.316368
-0.159236 0.0519102 -3.9205e-09
0.0923634 -0.148462 0.408958
-0.211657 -0.1604 -0.388431
-0.155163 0.080015 0.0496602
0.128303 0.0266081 -0.23517
0.130831 0.0211462 0.399515
0.10352 -0.0629933 0.323753
-0.211657 0.055026 -0.0154369
0.041752 -0.0629933 0.0956277
-0.0731127 -0.0629933 -0.148411
-0.107568 -0.0629933 0.0732143
-0.0482808 -0.148462 -0.338919
0.0356971 0.0266081 -0.0679213
0.0383911 -0.0629933 0.210049
-0.0858186 -0.0629933 -0.326858
0.0326761 -0.0629933 -0.0420126
-0.164371 -0.0629933 0.091458
-0.175821 0.116335 -0.164641
-0.049667 -0.0629933 0.310507
0.0870219 0.0738023 0.371305
-0.211657 -0.0930789 -0.37131
0.177917 -0.148462 -0.317275
0.0328192 -0.129561 -0.00319983
0.052217 -0.0629933 0.111826
0.154226 -0.0629933 -0.142764
0.175909 -0.0629933 -0.342237
-0.0194598 -0.148462 -0.358963
-0.151159 -0.0255209 -0.423315
0.208458 -0.099326 0.210586
-0.211657 0.0506676 -0.0506517
-0.0939047 0.0266081 0.368663
0.151519 -0.148462 -0.232125
0.0953704 -0.114714 0.00319982
-0.208898 0.0422806 -0.346513
0.190313 -0.161263 0.365448
-0.0638229 -0.0629933 -0.222956
-0.182648 -0.0629933 -0.184376
-0.211657 0.0930249 0.0405796
-0.211657 -0.0755567 -0.0693415
0.138881 -0.161263 -0.00536263
-0.0255365 -0.0629933 -0.328954
-0.0872783 -0.0629933 0.380165
-0.134856 0.0938443 0.41669
0.133246 -0.0620767 0.0120288
-0.0817156 -0.148462 0.0455096
-0.130916 -0.0629933 0.413308
-0.209878 0.00293387 0.218534
0.208458 -0.09539 0.332806
-0.196667 -0.0629933 0.228023
0.211657 -0.0358781 0.384497
0.135279 -0.148462 0.223784
-0.0426679 -0.148462 0.390617
0.0106672 -0.0629933 -0.0481978
-0.17547 0.0407253 0.346513
-0.0513909 -0.0629933 0.0275533
0.134862 -0.148462 -0.362046
-0.00737092 -0.0629933 -0.115757
-0.111113 0.0266081 -0.368207
-0.144019 -0.148462 -0.236329
-0.0531116 -0.148462 -0.334016
0.150413 0.0232522 -0.416982
0.146178 0.0399774 0.351596
-0.0301684 -0.0629933 -0.361359
0.177791 -0.148462 0.0602298
-0.208457 -0.088611 0.264471
0.152303 -0.0629933 -0.360622
0.0274759 -0.148462 -0.20986
0.0465225 0.0249384 -0.414458
0.0456776 0.117049 0.38775
0.170059 0.0266081 -0.120244
0.0647676 -0.0634244 -0.420115
-0.0492433 0.141855 0.397182
0.169309 -0.0629933 0.316526
-0.0761112 -0.148462 -0.16733
0.133161 -0.0629933 0.214216
0.120434 -0.148462 0.227655
-0.188525 0.149747 0.28061
0.168341 -0.0629933 -0.171044
-0.165142 0.0882519 0.132218
-0.164747 -0.0776644 -3.9205e-09
-0.135663 0.0152495 0.0150251
0.0728419 0.0266081 0.0618772
-0.192436 0.124283 0.143017
0.134856 -0.0973435 0.422069
-0.204297 -0.161263 0.38069
-0.184919 0.0191172 -0.423315
0.0817933 -0.0629933 0.0549003
0.19475 -0.0307742 0.346513
0.170453 -0.0629933 0.142908
-0.208021 0.11033 0.346513
0.0509434 -0.0629933 -0.222659
-0.202089 0.149449 0.243744
0.149863 0.0141242 0.347089
-0.0183885 -0.148462 -0.251227
0.16361 0.0266081 0.177054
-0.19182 -0.0051183 0.346513
-0.0768976 -0.0629933 -0.245612
-0.089848 -0.0629933 -0.401497
0.0915487 -0.0629933 -0.0318354
-0.0611789 -0.148462 0.152512
-0.0937816 -0.0629933 0.10022
-0.180125 -0.161263 0.419682
0.0376185 0.0266081 0.325377
-0.0640905 -0.0629933 -0.135126
-0.208457 -0.124034 0.0922499
0.00588664 -0.129826 0.00319982
0.132663 -0.148462 -0.191363
-0.208042 -0.00302787 -0.236508
-0.128979 -0.148462 -0.126494
-0.0770394 0.0266081 -0.254222
-0.0481941 0.0243793 0.0098619
-0.20952 0.0156081 0.304186
-0.0775804 -0.0629933 0.178049
-0.0523424 0.0266081 0.305158
0.0966204 -0.0629933 -0.037024
-0.0230284 0.0266081 -0.259099
0.154822 0.0266081 0.10108
0.0584928 -0.0629933 0.253067
-0.211657 0.114044 -0.0696256
-0.0168909 -0.148462 -0.332354
0.0751919 0.0266081 0.0938356
-0.211657 -0.0610601 -0.409439
-0.0988117 -0.0629933 0.364886
-0.173067 0.1271 -0.346585
0.168534 0.0266081 0.217215
-0.0754799 -0.148462 -0.145109
-0.165891 0.0902209 0.1214
0.0402334 -0.0629933 0.0181022
-0.0588745 0.0266081 0.284653
-0.211657 -0.137057 -0.367211
0.0462502 -0.148462 -0.147715
0.208458 -0.094572 0.278253
-0.211657 0.121162 -0.353793
-0.180781 -0.0629933 0.113907
-0.0102611 -0.0629933 0.307027
-0.209878 -0.0074096 0.248894
-0.208457 -0.0805601 -0.265599
0.135937 0.0266081 0.219198
-0.182619 0.152221 0.0763402
-0.190596 -0.0916214 -0.423315
-0.00318363 0.0266081 -0.0591715
-0.0899275 -0.0629933 0.117632
0.208458 -0.0919085 0.314605
0.156249 -0.0629933 -0.106954
-0.170249 0.026273 -0.336603
0.0277523 0.00725617 0.420753
0.190306 -0.0629933 -0.10613
-0.134441 0.00299628 -0.402142
0.0175574 0.0959606 0.393229
0.134856 -0.014145 0.39487
0.102087 -0.148462 -0.391999
0.0412351 0.0266081 -0.125957
-0.181121 -0.114997 -0.423315
0.141408 0.0266081 0.0518137
-0.119487 -0.0629933 -0.168236
-0.113421 0.0704615 0.383448
-0.108285 -0.0629933 -0.142108
0.0745451 -0.104542 -0.00319983
-0.208457 -0.113355 -0.295229
0.181789 -0.0629933 -0.14347
0.143408 -0.148462 0.184861
-0.136531 -0.148462 -0.148342
-0.00772211 0.0266081 0.212027
-0.187237 -0.0629933 0.273729
-0.0546281 -0.0629933 -0.169635
0.13644 -0.148462 -0.359178
0.0887995 -0.0255759 0.420753
0.0153942 0.0266081 -0.227607
-0.211657 0.0227775 0.0580808
0.11844 0.0266081 -0.186663
-0.208457 -0.0993605 0.187726
0.0423431 -0.0629933 0.130564
-0.208457 -0.102269 -0.11845
-0.033474 -0.148462 0.191619
-0.0495085 0.0266081 0.323365
-0.0372158 0.0266081 -0.329966
0.00814884 -0.0314805 0.420753
-0.183793 -0.148462 0.178236
-0.00720282 0.0266081 0.0465304
0.177749 -0.148462 0.130982
-0.0441499 -0.148462 -0.339745
-0.0529768 -0.111448 -0.420115
-0.134856 -0.0405669 -0.0201339
-0.181932 0.0968989 0.303928
-0.208042 -0.0394647 -0.0911579
0.124211 -0.148462 -0.371246
0.0641392 0.0266081 -0.382252
-0.1705 0.0670973 0.0778884
0.0197666 0.0266081 -0.0480639
0.18755 -0.0629933 0.0374289
0.0377952 -0.143048 -0.420115
-0.211657 -0.11998 -0.382794
0.0840814 -0.148462 0.313463
0.211657 -0.132047 -0.393485
-0.141279 0.0266081 0.149826
0.0938535 0.0266081 0.303992
0.208458 -0.0942016 0.117816
-0.147487 -0.0629933 0.157304
-0.0947639 -0.0629933 0.287935
0.042544 -0.148462 -0.229696
0.0181788 -0.0629933 0.0867102
-0.114063 -0.0629933 -0.16661
0.133436 -0.0450547 0.400229
-0.209878 -0.0463096 0.210117
0.0219019 -0.0629933 0.150388
-0.206557 -0.0629933 -0.154559
-0.130081 -0.0629933 0.265864
-0.127603 -0.0188774 -0.419634
-0.0907254 0.0183573 0.419849
0.18692 0.00295347 -0.421318
-0.0362683 0.0266081 0.0914847
-0.0879335 -0.0617312 0.011309
0.0186215 -0.0181385 0.0038381
-0.0818467 -0.0629933 -0.347735
0.190921 -0.0629933 0.124598
-0.139528 -0.0629933 -0.118097
-0.0933179 -0.0629933 -0.161904
0.189241 -0.0436584 0.0038381
0.155964 -0.0365169 -0.421318
0.208458 -0.093364 -0.335986
-0.153748 -0.0629933 -0.277305
0.161474 -0.148462 -0.281237
-0.189772 -0.0629933 0.236024
0.00264512 -0.148462 -0.101475
-0.152979 0.043103 -0.0768015
0.164902 -0.0855831 -3.9205e-09
-0.168264 -0.148462 -0.114291
-0.0937469 0.0258086 0.0126174
0.193561 -0.0629933 0.244838
-0.209878 -0.0187362 0.104989
-0.177763 -0.0557321 0.346513
0.202652 -0.161263 -0.00908542
-0.124479 -0.0629933 0.373638
-0.211657 0.0164247 -0.378756
0.0396895 0.0266081 -0.377347
0.0771044 -0.148462 -0.16377
-0.0629107 0.114119 0.386635
0.207037 0.0134023 0.0881288
0.0674452 -0.148462 0.419901
-0.000788145 -0.0629933 -0.149069
0.20004 0.025819 -0.355736
0.122194 -0.106732 -0.420115
0.0891017 -0.148462 -0.39888
0.113218 -0.148462 -0.144454
0.19786 -0.0428696 -0.420962
0.208458 -0.135843 0.174948
-0.211657 0.044637 -0.0707706
-0.0152855 0.0266081 -0.207087
0.188672 0.0263421 -0.0158665
0.11077 0.0260247 -0.411452
-0.184738 -0.0629933 0.206565
0.0711246 -0.148462 -0.333421
-0.134441 -0.0470648 -0.372475
0.125629 -0.148462 0.250769
-0.16618 0.0909803 -0.27012
0.0651001 0.0266081 0.119169
0.19435 -0.148462 -0.141551
-0.211657 -0.0630073 -0.0249628
0.0682256 -0.0629933 0.14011
0.068278 -0.148462 0.30945
-0.171389 -0.0362043 -0.0768015
-0.211657 0.0755671 0.00363126
-0.124142 -0.0952166 0.00319982
0.0922539 -0.0629933 -0.163333
-0.168401 0.104046 -3.9205e-09
0.156927 -0.12662 -0.423315
0.0624813 -0.148462 0.401835
-0.208457 -0.128876 0.343609
-0.131432 0.00526272 0.417736
0.208016 0.0181139 -0.333509
0.0345326 -0.0229792 -0.421318
-0.208457 -0.121319 -0.176201
-0.206974 -0.0623136 -0.0768015
0.0739744 -0.0629933 -0.299525
0.182986 0.0266081 -0.397658
-0.00317997 -0.0893957 -0.420115
-0.206934 -0.0484996 0.346513
-0.0354276 -0.0629933 0.387861
-0.0700137 -0.148462 0.378648
-0.201208 -0.0406816 -0.0768015
0.0358102 -0.148462 -0.183712
-0.0207497 -0.148462 0.265945
-0.17659 0.0829717 0.129194
-0.208457 -0.0639845 0.111709
-0.156776 0.0842569 -0.387341
-0.208457 -0.0824457 -0.220799
-0.0247178 -0.0629933 -0.167883
0.122976 0.0265906 -0.0171159
-0.0483459 -0.0629933 0.306494
-0.183432 -0.0629933 0.19376
-0.207575 -0.0629933 -0.323467
0.128301 -0.0629933 -0.264413
0.203571 -0.0629933 -0.22579
0.190871 -0.0629933 0.33244
0.169769 -0.0629933 -0.0588702
-0.208457 -0.111987 -0.337363
-0.203471 -0.0597931 -0.183347
0.0884626 -0.0629933 0.401974
-0.207464 -0.0629933 0.321219
0.114738 -0.148462 -0.336587
-0.172465 -0.0629933 0.0983921
-0.134856 0.0638036 0.361801
0.0269318 -0.0688936 -0.420115
0.208872 -0.0213306 -0.381261
0.208872 -0.0118843 -0.407217
-0.211657 -0.114426 0.0428012
0.196861 -0.0629933 0.305375
-0.134856 0.0403066 0.389192
0.211657 -0.106039 -0.0739828
0.109708 -0.0629933 -0.238786
-0.177805 -0.0256578 -0.346513
-0.124913 -0.0629933 -0.24725
-0.208457 -0.107292 0.314854
-0.191547 -0.161263 0.0693052
0.0435071 -0.0629933 -0.0530437
-0.0477234 -0.0629933 -0.325213
-0.0780501 -0.0629933 0.18986
0.0204174 -0.148462 0.194899
-0.125261 -0.0629933 -0.141422
0.0346981 0.0259535 -0.0139122
0.0782478 -0.0629933 0.155747
0.0671192 -0.0629933 -0.41089
0.185564 -0.161263 0.415594
-0.0708802 -0.148462 0.0940485
-0.0214552 -0.0629933 0.233235
-0.0560794 -0.0629933 -0.194847
-0.18155 0.0959048 -0.305971
0.136836 -0.0580892 0.344174
0.0437212 -0.0629933 0.183247
-0.145822 0.0187651 -0.346704
-0.176769 -0.161263 0.371819
-0.100681 -0.0629933 -0.0235768
-0.109869 -0.0919334 -0.420115
0.054468 -0.14558 0.00319982
0.149046 -0.0629933 -0.376063
0.120052 0.0266081 -0.37522
-0.112264 0.0266081 0.0310314
0.0689494 -0.148462 0.336273
0.00110943 -0.0303434 -0.00440377
-0.0599209 -0.13029 -0.00319983
-0.0039348 -0.148462 -0.030399
-0.117188 -0.131709 0.00319982
0.0620693 -0.0629933 -0.223123
0.177664 -0.0629933 0.299709
0.0954325 -0.0629933 -0.212782
0.126088 -0.148462 0.185719
0.0523817 -0.0982119 -0.420115
0.208872 -0.04378 -0.329605
-0.130782 -0.0629933 -0.314084
0.0278467 -0.0629933 -0.404386
-0.204643 -0.000691421 -3.9205e-09
-0.207985 -0.0440242 -0.0905199
-0.208457 -0.107704 0.129059
0.134915 -0.116068 -3.9205e-09
0.0185779 0.0266081 -0.170242
-0.129926 -0.0629933 -0.0477871
0.00473068 -0.14289 0.00319982
0.18405 0.0266081 0.237374
-0.19593 -0.154435 -0.346513
-0.162622 0.0393765 -0.0768015
-0.202831 0.151384 0.170344
-0.170672 0.102795 -0.179854
-0.207119 -0.0495233 -0.0861623
-0.149944 -0.0629933 -0.225774
-0.208457 -0.130068 0.269578
0.118716 -0.0629933 -0.108788
-0.175689 -0.00303579 0.347152
-0.00173734 -0.148462 0.381226
-0.0544808 -0.0629933 0.26981
-0.0403277 -0.0599558 0.415939
-0.17136 -0.0733079 0.423315
-0.13687 -0.00987006 -0.346513
-0.196716 -0.0627003 -0.298483
0.0592102 -0.116992 -0.420115
-0.196994 0.0630618 -0.0768015
-0.139634 0.010343 -0.0780055
-0.101701 -0.106039 0.00319982
-0.0613537 -0.0629933 0.102543
-0.166968 0.0266081 0.269187
-0.134856 -0.151851 0.00790642
-0.190421 0.154734 -0.102581
-0.0706524 -0.148462 0.109431
-0.0302561 0.0266081 -0.0662253
0.208458 -0.138389 -0.0993039
0.01501 -0.148462 0.0353461
-0.211657 0.120077 0.0572835
-0.190565 0.0929782 0.346513
0.0734897 -0.148462 -0.144103
-0.00281628 0.0266081 0.20124
-0.208457 -0.0650554 -0.129188
0.171426 0.0266081 0.329064
-0.0788037 0.0266081 0.353793
0.193011 -0.131893 -0.423315
0.109155 0.0266081 -0.0375548
-0.160708 -0.132545 -0.423315
-0.208457 -0.147337 0.202529
0.0833502 -0.0564347 0.00571018
0.211657 -0.121061 -0.0578713
-0.191481 0.157521 0.162962
0.166704 0.0266081 -0.115047
0.0600553 -0.148462 -0.0861255
-0.11097 0.0266081 0.108448
-0.201153 -0.148462 0.177491
-0.0813642 0.0266081 0.185371
0.110691 0.0266081 0.0586533
-0.169081 0.161263 0.364683
-0.177914 0.161263 0.421301
0.130975 -0.148462 0.00597857
0.129225 -0.0629933 0.389793
-0.129533 0.0236338 -0.0634485
-0.0860413 -0.0629933 -0.00663041
-0.00765898 -0.0629933 0.274235
-0.162829 0.161263 0.422703
0.135307 0.0266081 0.312514
-0.134856 0.00997134 -0.0169936
-0.174432 0.112682 0.257018
0.211657 0.121052 0.401746
-0.134856 -0.0621444 0.00296227
-0.0252609 -0.0855727 0.00319982
0.172076 -0.0629933 -0.157104
-0.107372 -0.0629933 -0.345127
-0.197597 0.0261397 -0.243293
0.133999 -0.0629933 -0.226312
-0.208457 -0.122622 -0.269697
0.0827829 -0.0629933 0.15732
0.0443784 -0.110686 0.420115
0.102686 0.0266081 -0.126164
-0.0214697 0.0266081 -0.201361
0.0596477 0.0266081 0.0473011
-0.194218 0.0100644 0.0768015
-0.0909123 0.123662 0.403855
-0.174271 0.0769277 0.110406
-0.0328962 -0.0629933 -0.201587
0.211657 -0.0147771 0.408584
0.132186 -0.131103 -0.420115
-0.211657 0.115398 0.38316
-0.15814 0.0698375 -0.143609
-0.134856 0.129873 0.390531
-0.0783445 -0.148462 0.283973
-0.0105635 -0.0629933 -0.248334
-0.143418 0.0278941 0.423315
-0.102961 -0.148462 0.264596
-0.0623236 -0.0629933 -0.363644
0.0424042 -0.0629933 -0.378252
-0.208457 -0.125584 -0.173645
0.170712 -0.0177285 -0.421318
0.134856 0.0373684 0.361231
-0.107187 -0.0629933 0.191014
0.211657 -0.0895946 0.0651646
-0.0790282 0.0110219 0.420753
0.0930071 -0.0919419 0.00319982
0.0385665 -0.0629933 0.216566
-0.00411117 -0.127835 -0.420115
0.135344 -0.0594222 0.343136
-0.0933706 -0.0629933 -0.306252
-0.172768 -0.120012 -0.423315
-0.140801 0.0322576 -0.346513
0.140248 -0.0771013 -3.9205e-09
0.179838 -0.148462 0.252198
0.00348675 0.0266081 -0.258724
0.104614 -0.148462 -0.261085
-0.211657 -0.107919 0.407292
0.207037 -0.022545 0.203145
0.204055 -0.148462 0.0829034
-0.0839463 -0.0629933 -0.0319068
0.00734407 0.0266081 0.145317
0.204855 0.0330927 0.423315
-0.0989023 0.0266081 0.183574
0.137499 -0.0629933 -0.156332
0.00262245 -0.0466744 -0.00440377
0.184236 -0.0335515 -0.421318
0.0284418 -0.13028 -0.00319983
-0.134485 -0.0629933 -0.223508
-0.172948 0.073479 0.17587
-0.056872 -0.148462 -0.309683
-0.0384879 -0.0629933 0.15541
0.207037 -0.0140861 0.191121
-0.0668003 0.0266081 0.392988
-0.14953 -0.0467661 -0.346513
0.140933 -0.0246034 0.0038381
0.0148094 0.0266081 0.343621
-0.0389107 0.0266081 0.253535
-0.00276586 -0.148462 0.129007
-0.0514521 -0.0629933 -0.265138
-0.172801 0.108394 0.273858
0.0168053 0.0266081 -0.20987
-0.0654986 0.0266081 -0.130959
-0.209814 -0.0269243 0.334674
0.0562826 -0.0629933 0.227233
0.185554 -0.0629933 -0.0505471
0.0288545 -0.0629933 0.292194
-0.136277 -0.0373152 0.0660258
0.0574717 0.0266081 -0.0762989
-0.14169 0.0445821 -0.397567
-0.0649452 -0.148462 0.234266
0.17246 -0.0629933 -0.364078
0.166528 -0.0629933 0.244001
0.0332242 -0.0629933 -0.0615142
0.0537894 -0.148462 0.32817
-0.208881 -0.157889 -3.9205e-09
-0.134856 0.0269097 0.386998
0.0665366 -0.0629933 -0.0453363
0.211657 0.0560881 0.376369
0.108638 -0.0629933 -0.0922041
0.163223 -0.0330263 0.346513
-0.0155782 0.0266081 -0.358743
0.0625548 -0.0629933 -0.0292427
-0.0511681 -0.13882 0.420115
0.208458 -0.0726212 -0.13955
0.0857172 -0.0629933 -0.0310271
-0.171663 0.105401 -0.303069
0.128853 -0.0629933 -0.138
0.0417654 -0.0629933 -0.235439
-0.0673539 -0.0967842 0.420115
-0.0141363 -0.0629933 0.300215
0.211657 -0.0789507 0.0762471
-0.187191 -0.0386203 0.346513
0.0947894 -0.0715592 -0.00319983
-0.0826553 -0.0254903 -0.00440377
0.0117705 -0.0629933 -0.0575064
0.0129647 -0.148462 0.0531763
-0.14353 -0.0629933 -0.332098
-0.0551128 -0.148462 -0.114284
0.107863 0.0266081 0.376922
0.211657 -0.0131541 0.39322
0.191204 0.0266081 0.292186
-0.206411 -0.0588219 0.187627
-0.195855 -0.148462 0.27381
0.123921 -0.148462 0.0298487
0.208458 -0.108246 -0.160897
0.0954691 -0.148462 -0.392082
0.183519 -0.0629933 0.0871261
-0.139877 -0.0629933 -0.303038
-0.207041 -0.0629933 0.144082
0.117307 -0.0629933 0.114751
0.109605 -0.0459446 0.0038381
-0.136277 -0.0304442 0.0422688
0.0389039 0.0266081 0.40367
-0.206621 0.148371 -3.9205e-09
-0.116339 -0.148462 -0.157365
0.211657 0.0683565 0.370884
-0.106447 -0.0350782 -0.00440377
0.0810115 0.0266081 -0.132163
-0.187779 0.147785 -0.131381
-0.172128 -0.0420387 -0.0768015
-0.0742406 0.0266081 -0.130121
-0.100834 -0.0629933 -0.0861887
-0.0949332 -0.134741 -0.00319983
0.123216 -0.148462 -0.0773279
-0.135916 -0.0629933 -0.22107
0.117073 0.0266081 -0.145978
0.119849 0.0266081 -0.171055
0.16397 -0.126574 -0.423315
0.024891 -0.00111174 -0.421318
0.13584 -0.0629933 -0.206032
0.187515 -0.148462 -0.398637
-0.178144 0.118021 0.346513
0.155583 0.113306 0.423315
0.0590084 0.0266081 0.291681
-0.208457 -0.0729226 0.110225
-0.106451 -0.0044429 -0.00440377
-0.0474308 -0.120154 -0.00319983
0.152362 -0.0629933 -0.224048
-0.110625 -0.0629933 0.324796
-0.163018 0.0734162 -0.423315
0.0801665 0.0266081 0.296966
0.075902 -0.148462 0.369966
-0.11219 -0.0629933 0.0486686
-0.208042 0.00372652 -0.301611
0.0410147 -0.0629933 -0.110214
-0.143287 -0.0629933 -0.108334
0.111228 0.0266081 0.385308
0.0541468 -0.0629933 0.367677
0.0403839 -0.148462 0.134109
-0.211657 0.112822 0.0230846
-0.116721 -0.0629933 -0.140437
0.201492 -0.161263 -0.368268
-0.175188 -0.148462 0.205821
-0.130315 -0.0629933 -0.237476
0.123015 -0.06252 0.388167
-0.0286606 -0.00539718 -0.00440377
0.168009 0.0912268 0.423315
-0.20507 -0.0107768 -3.9205e-09
0.00370788 -0.0629933 -0.395666
-0.0200449 -0.0629933 0.272137
-0.191978 -0.0629933 -0.329149
-0.160145 0.0751097 -0.173057
-0.207133 -0.0547655 -0.297127
-0.0192856 -0.0629933 0.39885
-0.129194 -0.0629933 0.218763
0.152934 -0.0787742 -3.9205e-09
-0.182784 0.152657 0.0385443
0.0692832 -0.0629933 -0.338334
0.0579958 0.0266081 -0.17952
0.0544665 0.0182603 0.419868
0.0371956 0.0266081 -0.0293467
-0.208042 -0.0178052 -0.325858
-0.143489 0.0493117 0.0615973
-0.194789 -0.0629933 0.298887
0.207037 -0.0382505 0.139548
0.179678 -0.155592 -0.423315
0.0727863 -0.148462 -0.0275289
0.0211944 -0.0629933 -0.325623
-0.115458 -0.148462 0.280162
0.0269892 -0.0265705 0.420753
0.0357107 -0.148462 0.335875
0.0299535 0.0131074 -0.00440377
-0.211657 0.0460398 -0.403508
-0.0228886 -0.0601432 0.415659
-0.211657 -0.0328341 -0.0649394
-0.13859 0.0266081 -0.245753
0.197696 -0.132802 -0.423315
0.208458 -0.089808 0.242227
-0.208457 -0.0900218 0.329347
-0.188525 -0.161263 -0.0559986
0.193479 -0.148462 0.234301
0.106296 -0.148462 -0.398994
0.208872 -0.0304412 -0.258243
-0.134856 -0.0569521 -0.025649
-0.207775 0.0151524 -0.231117
0.153354 -0.142667 -3.9205e-09
0.123316 -0.148462 -0.359358
-0.18302 0.0266081 -0.22696
-0.189905 0.117686 0.312801
0.211657 0.0880375 0.390193
0.174708 -0.0629933 -0.0829656
0.121568 -0.0629933 0.0277521
-0.163834 0.102819 -0.358656
0.0821605 -0.148462 0.273875
0.211657 -0.137791 0.0158132
-0.173339 0.0744988 0.0969857
-0.11515 -0.148462 0.0395439
0.0446411 -0.0629933 0.0701287
0.208872 -0.0253134 -0.0315745
-0.170342 0.0666843 -0.30797
-0.0420953 -0.0629933 -0.355779
0.0151669 -0.0942544 -0.420115
-0.140544 0.0415668 0.0134791
0.00267068 0.0266081 -0.0357991
-0.0366945 -0.148462 0.325977
0.207076 -0.00296723 -0.414647
-0.173647 0.0752992 -0.34187
0.00222209 -0.0629933 0.018329
0.199389 -0.148462 0.217932
0.0549651 -0.0629933 -0.0610909
-0.161214 0.00249106 0.347152
0.164393 -0.148462 -0.0965077
-0.168103 0.0960391 0.289067
0.104486 0.0780155 0.372907
0.0552671 0.0266081 -0.0648486
0.0348865 -0.0629933 0.203879
0.0353997 -0.0629933 0.0433413
0.0558612 -0.0629933 -0.377522
-0.172722 0.108185 -0.115477
0.112497 -0.0811909 -0.00319983
-0.205982 0.161263 -0.360362
0.0480082 0.0266081 -0.192921
0.114157 -0.0629933 -0.368103
-0.0982242 0.0266081 0.366
0.205078 0.0201797 0.0742982
-0.106201 0.0266081 0.150846
-0.208042 -0.00714578 -0.097815
-0.155531 -0.105915 0.423315
0.0395685 -0.148462 -0.401892
-0.155814 0.0632074 -0.285806
-0.134856 -0.000394779 -0.412333
0.13664 0.0266081 0.224058
0.029145 -0.0629933 0.00332183
0.150033 -0.148462 0.18079
0.189531 0.0266081 -0.214317
0.208458 -0.130906 0.301119
0.0560377 -0.0629933 0.164207
-0.165189 -0.0629933 -0.21122
-0.183953 0.10419 -0.423315
-0.0647618 0.0266081 -0.18382
-0.0800516 0.0266081 -0.347786
-0.182071 0.0348723 -3.9205e-09
0.0653311 -0.0761978 0.00319982
0.089664 -0.0686811 0.00319982
0.100381 0.0738647 0.384753
0.153779 -0.00240739 0.423315
0.156503 -0.153619 -0.423315
0.0950399 -0.0629933 0.325887
-0.161565 0.0968506 -0.376889
-0.102497 0.0266081 0.0771076
-0.0493178 -0.0697637 -0.420115
0.202365 -0.0610868 -0.187466
-0.166234 0.0911238 0.0976554
0.208872 -0.00179373 -0.186694
-0.0226762 -0.0629933 -0.376636
-0.119576 0.0199015 -0.00617709
-0.189731 0.117232 0.20641
0.0486186 -0.148462 0.0678773
0.0958209 -0.0629933 0.184352
-0.162951 -0.0629933 -0.205344
-0.134856 -0.158501 -0.382988
0.207766 -0.148462 -0.305306
-0.0723116 -0.0629933 0.359075
0.0846627 -0.0592755 -0.417523
0.0249207 0.0266081 0.332532
-0.0271125 0.0266081 -0.383221
0.0998152 0.0266081 -0.234209
0.199788 -0.151111 0.0768015
0.0428622 -0.148462 -0.372043
