ply
format ascii 1.0
comment Created by Open3D
element vertex 1603
property double x
property double y
property double z
end_header
0.0218073 -0.0345552 -0.421082
-0.0629429 0.0449743 0.142788
-0.0178508 -0.0945947 -0.439164
0.106499 -0.143556 0.404847
-0.171764 -0.0929916 -0.351588
0.0574159 -0.0540863 0.0714827
-0.0359582 -0.0106313 -0.353142
-0.112321 -0.0540863 0.233235
0.0995966 -0.0540863 0.210173
-0.165508 -0.16186 -0.336457
-0.0762714 -0.0842117 -0.430374
-0.0166297 -0.138723 -0.323013
-0.140279 -0.12656 0.247592
-0.0268478 0.149033 -0.354637
-0.0756255 0.0978527 -0.385914
0.166171 -0.0594054 -0.354637
0.0605593 0.0999648 -0.279137
0.0397238 -0.0540863 -0.0949835
0.0296952 -0.0120297 -0.349955
0.11188 0.0306201 -0.356605
0.11357 0.0093019 0.0377884
-0.0232906 0.0999648 -0.26616
0.105344 0.0932167 -0.259348
0.0486297 -0.128163 -0.314524
-0.139798 -0.128163 -0.297197
-0.15834 0.16186 0.150272
0.0276568 -0.0999648 -0.288385
-0.00432071 0.00222376 -0.399735
0.113941 0.0266472 -0.186796
-0.175888 0.0353246 0.100958
-0.0247311 0.00222376 -0.405399
-0.103691 -0.0540863 -0.26169
0.00563589 -0.0717425 -0.406885
-0.0290684 0.0406435 -0.323013
0.0359561 0.138581 0.439164
0.0385964 -0.0540863 0.0756951
-0.020854 0.0978527 -0.438439
0.0519324 0.0449743 0.293664
-0.140279 -0.0468648 0.124728
-0.175888 -0.0667728 0.140102
0.0260145 -0.0262825 -0.381409
0.00193663 -0.0540863 -0.0990602
-0.175888 0.0311495 0.16362
-0.175888 0.040127 0.0700459
-0.140279 0.0770232 -0.230197
0.11188 0.034768 -0.367621
-0.126088 0.0880301 -0.354637
0.0469642 -0.0365983 0.439164
-0.0966602 0.140027 -0.323013
-0.175888 0.156636 0.0595516
-0.0280013 0.117326 0.367799
-0.175888 0.0265861 0.338017
-0.175888 -0.150593 -0.0643898
0.0618673 -0.0561378 -0.415459
-0.0495705 0.0751609 0.335068
0.0144481 -0.0106313 -0.368417
-0.140279 0.159658 0.162461
0.11397 0.0320879 -0.228677
-0.0942443 0.0146167 -0.353558
0.0990501 -0.0540863 -0.0671487
-0.140279 0.0259921 -0.120592
-0.175888 -0.0015004 0.0875283
0.145875 0.146461 -0.354637
-0.140279 -0.148172 0.0233073
-0.0762714 0.0485201 -0.367028
0.0144674 -0.0262825 -0.382933
-0.0783424 -0.0540863 0.150492
0.029483 -0.12926 0.377126
0.0859829 0.0269597 -0.402637
-0.0474459 -0.0540863 -0.243
-0.0451363 0.0719546 -0.350654
-0.0214507 0.0449743 0.228147
0.0493777 -0.0978527 -0.395517
-0.0762714 0.0249359 -0.429136
-0.00478557 -0.0302227 -0.359887
-0.0258439 -0.0540863 -0.0295143
0.0695873 0.0978527 -0.432776
-0.0155947 0.00362219 -0.40785
-0.175888 0.152414 0.293935
-0.17562 0.16186 -0.309534
-0.1477 0.0140075 -0.351588
0.0245489 -0.161392 -0.354637
0.142191 0.0784868 -0.300654
0.153518 0.134047 -0.354637
0.0859829 -0.0591542 -0.398071
-0.140279 0.0948677 -0.209428
-0.162219 0.16186 -0.287849
-0.0550147 0.0659371 -0.259348
0.0335514 -0.0561378 -0.415307
-0.0159365 -0.0978527 -0.420665
0.0238023 -0.053596 -0.373363
-0.175888 0.00932338 -0.208964
0.0736834 -0.0540863 0.0740603
-0.143606 -0.16186 -0.314602
-0.00811392 -0.005117 -0.423386
-0.0137735 0.0449743 -0.252476
0.0242402 -0.0540863 0.249637
0.11357 0.0439299 0.340174
0.0483717 -0.0540863 -0.294236
-0.175888 0.0312649 -0.0287963
-0.140279 0.134898 0.278408
0.106148 0.0449743 -0.274764
-0.140279 -0.0787968 0.11946
-0.126642 -0.0499269 0.439164
-0.175888 -0.132063 0.202077
0.0536104 -0.0576687 -0.410865
-0.0313862 0.0548393 0.439164
0.0365113 -0.0978527 -0.414935
0.151407 0.044111 0.439164
-0.0374054 0.00262007 -0.323013
-0.0578902 -0.0164316 -0.439164
-0.0912165 -0.0540863 -0.2205
0.0564312 0.0449743 -0.100152
0.0794554 0.112112 -0.289562
-0.140279 0.0525628 0.357989
0.022131 0.0719546 -0.355
-0.175888 0.149425 0.136097
-0.140279 -0.132768 0.200751
0.113716 0.040501 0.129703
-0.175888 0.00125671 0.0277394
0.112338 -0.0540863 0.199622
-0.0937201 0.0401021 0.439164
0.021002 -0.0540863 0.0584595
-0.162995 0.161703 -0.351588
-0.130515 0.0197691 -0.354637
0.167953 0.0433287 0.439164
-0.0382328 -0.129776 -0.354219
-0.118851 -0.149602 0.439164
0.0819654 0.0449743 -0.162768
-0.0897872 0.0386145 0.439164
0.175888 -0.00383203 0.435074
-0.175888 0.0774836 0.383775
0.0715598 0.0449743 -0.229852
0.0432568 -0.16186 -0.351198
-0.0335189 -0.0587121 -0.259348
-0.0682012 -0.0338297 0.439164
-0.175888 -0.0162358 0.031984
-0.0927761 0.115032 -0.353558
-0.0762714 0.0395153 -0.421353
0.11357 -0.0265954 0.147868
-0.0766154 -0.00683921 -0.323013
-0.175888 0.0662866 -0.163005
-0.140279 0.117024 -0.0517631
-0.0853799 0.16186 0.424719
-0.110056 0.12926 0.381217
-0.134038 -0.137422 0.439164
-0.0311647 0.0449743 -0.272982
0.0147368 0.100326 -0.353558
-0.0877391 0.0449743 -0.0579745
-0.175888 0.019936 -0.250083
-0.175888 0.113349 -0.149535
-0.175888 -0.0904121 -0.275627
0.12934 0.0368585 0.367799
0.175888 -0.138549 0.438869
-0.175888 -0.100137 0.0470303
-0.140279 -0.00136914 -0.198931
-0.140279 0.0160268 0.230634
0.118319 0.0556904 0.439164
-3.58224e-05 0.00222376 -0.401027
-0.175888 0.135827 0.23578
0.00947567 0.0449743 -0.316548
-0.140279 -0.0107937 -0.136456
-0.124675 -0.0540863 0.149193
0.160755 -0.0292417 0.439164
-0.175888 0.0680076 0.29979
-0.13169 0.0605202 0.335068
0.097573 -0.0540863 -0.12173
-0.03096 -0.0276809 -0.35932
-0.0217705 -0.159897 0.404847
-0.0344103 -0.142082 -0.354637
-0.175888 -0.0337481 -0.188764
0.00483498 -0.0732734 -0.374985
-0.175888 -0.0400085 -0.335728
-0.0125759 -0.0262825 -0.388811
0.11357 -0.0243068 0.055427
0.143178 0.0449224 0.367799
-0.0947971 0.14708 0.404847
-0.140279 0.0812157 -0.296467
-0.041492 -0.0999648 -0.264247
-0.126036 0.12926 0.387468
-0.0297313 -0.0978527 -0.414177
-0.157423 0.16186 0.0311148
-0.0315816 -0.0540863 0.257924
-0.0759944 0.0449743 -0.0550451
-0.140279 -0.0234408 -0.273603
-0.175888 -0.1512 0.0676945
-0.175888 -0.0351156 -0.106935
0.0872636 0.0449743 0.0184846
-0.0775249 -0.128163 -0.297214
-0.175888 -0.0472051 0.242368
0.168492 0.0443767 -0.323013
-0.175888 -0.113764 -0.285308
-0.166871 -0.0662919 0.439164
0.0405506 0.0978527 -0.406983
0.11357 -0.00503054 0.0216377
-0.140279 0.111443 -0.230038
-0.140279 0.101864 0.32485
-0.175888 0.0381839 -0.26844
0.0103151 -0.12926 0.403164
-0.140279 -0.0910721 0.227227
-0.140279 0.0707907 -0.260215
-0.139807 0.0299378 -0.289562
-0.0802654 0.135603 -0.354637
-0.0867212 -0.0540863 -0.208006
-0.0825884 -0.136017 0.404847
0.127505 0.128162 -0.307169
-0.175888 0.0333168 -0.297213
0.0677545 -0.0978527 -0.355711
-0.175888 0.0340875 -0.148246
-0.114287 -0.0540863 -0.157516
-0.138278 -0.0540863 -0.224157
0.0599663 -0.15282 0.439164
0.00961062 0.101156 -0.353558
-0.175888 -0.0219191 -0.200076
-0.0404361 0.0449743 0.241884
0.0859829 -0.00944494 -0.341959
-0.169469 -0.16186 0.110741
-0.150495 0.16186 0.170067
-0.162155 -0.16186 0.356718
-0.140279 -0.0950186 0.341732
0.00243398 0.16186 0.433804
0.14963 -0.0465546 0.439164
-0.140279 0.0881671 -0.170113
-0.134636 -0.0739738 -0.287008
-0.175888 -0.0355502 0.298313
-0.0180888 -0.0540863 -0.136073
-0.02394 -0.0978527 -0.400979
0.0139106 -0.0540863 -0.186475
-0.0380345 0.0978527 -0.367439
0.171374 0.0921783 0.404847
-0.175888 -0.0395917 0.226447
0.0647225 -0.0540863 -0.144039
-0.140279 0.0455698 0.321904
0.0613157 0.0905206 -0.439164
-0.0884856 0.0449743 0.147202
-0.0094661 0.12926 0.371619
-0.0604968 -0.0540863 -0.157139
0.167336 0.0384973 0.439164
-0.0276505 -0.0561378 -0.371941
-0.00416235 0.0515234 0.335068
-0.175888 -0.146202 -0.0708502
0.120178 -0.0700498 -0.353558
0.112358 0.0449743 0.0305208
0.175888 -0.109495 -0.338715
-0.0113927 -0.0927573 0.335068
-0.175888 -0.100929 -0.112831
-0.0756622 0.0449743 -0.168811
-0.0320537 0.109134 0.439164
-0.175888 -0.0606417 -0.215657
0.0982839 -0.0540863 0.266326
0.0404221 -0.0732734 -0.418354
-0.0503732 -0.000436509 -0.373561
-0.175888 -0.0281771 0.221803
-0.140279 0.0534557 0.344795
0.0143455 0.00362219 -0.363116
0.0134941 0.0449743 -0.243845
0.0254656 -0.0576687 -0.384038
0.164598 -0.0639472 0.404847
-0.140279 -0.084743 0.217988
0.11357 0.0364176 -0.108742
-0.0120781 -0.0732734 -0.407444
-0.140279 -0.0513032 0.249079
0.11357 -0.0414703 -0.133515
-0.118263 0.0782332 -0.354637
-0.0503732 0.000955205 -0.384367
0.11188 0.0529627 -0.38939
-0.14489 0.16186 0.184414
-0.0762714 -0.0440152 -0.385036
-0.0503732 -0.0644605 -0.373734
-0.175888 0.0827194 -0.0293672
0.0590169 -0.0719553 -0.418077
0.11357 -0.0172307 0.214368
-0.175888 0.0758857 0.211895
-0.125996 -0.0649573 0.335068
-0.175888 -0.0328291 0.250523
0.175888 -0.119683 0.438609
0.113964 0.0391638 -0.219967
0.101426 -0.0540863 -0.10567
-0.0408779 0.0449743 0.272073
-0.134459 -0.0540863 -0.207233
-0.0504911 -0.0120297 -0.381348
-0.156336 -0.16186 0.28145
-0.175888 0.109777 -0.239472
-0.175888 0.13603 -0.0155929
-0.0855382 -0.0540863 -0.245796
-0.0737672 0.0449743 0.187537
-0.175888 -0.0198136 0.429926
-0.140279 -0.131196 -0.300784
-0.140279 -0.0595198 -0.154883
-0.0051985 -0.12454 0.367799
0.0620291 -0.0576687 -0.389363
-0.0298076 0.00362219 -0.347555
-0.175888 -0.152841 -0.279114
-0.140279 0.136647 0.143696
-0.140279 -0.0363638 -0.288414
0.00494324 -0.0134274 -0.367725
0.0481084 -0.0978527 -0.382475
0.150135 -0.0537905 0.404847
-0.175888 -0.153463 0.150916
0.113882 0.0164939 -0.104396
-0.153478 0.16186 -0.214047
-0.0104824 0.0449743 0.103376
0.0467753 0.0449743 -0.102283
-0.0845602 0.0449743 0.282222
-0.035295 -0.0276809 -0.38271
0.0391584 0.0719546 -0.424263
0.0143328 0.0290311 -0.259348
-0.040371 -0.0276809 -0.396012
-0.175888 -0.116094 0.241139
-0.0212888 -0.0276809 -0.414086
-0.140279 -0.00327515 0.215726
-0.0276241 -0.0134274 -0.360774
0.0859829 -0.0329931 -0.398467
-0.140279 0.0934755 -0.181905
-0.140279 0.0231415 0.127181
0.11357 0.0358135 0.0152593
0.0733324 -0.0576687 -0.382613
-0.175888 -0.0341869 0.409881
-0.0520097 0.0449743 0.304799
-0.175888 -0.0640356 -0.0397393
0.092248 -0.116846 -0.353558
-0.140279 -0.101134 -0.14662
-0.0503732 0.0480683 -0.347398
-0.140279 -0.137123 -0.0165295
-0.175888 0.0628986 0.127135
0.0656443 -0.0660039 -0.430918
0.0859829 -0.0713293 -0.340498
0.0205074 0.0449743 0.188961
0.110024 -0.0540863 0.100043
-0.140279 -0.0166138 -0.112296
-0.140279 0.104416 0.338717
-0.168845 -0.16186 -0.148648
0.11357 0.027195 0.165353
-0.175888 0.014714 -0.172825
-0.0534775 0.0999648 -0.264439
0.0158029 0.0719546 -0.357169
0.0886206 -0.0298458 -0.439164
-0.0506337 0.0527127 -0.439164
0.11357 -0.0238313 0.100996
-0.0759488 0.101231 0.439164
-0.0941809 0.0113011 -0.259348
0.175888 -0.151794 0.426816
-0.140279 -0.128724 0.0555597
-0.175888 -0.105361 0.0265854
0.0360452 -0.0297996 -0.423597
0.00148493 -0.0540863 -0.177033
0.0802249 -0.0732734 -0.37419
-0.154926 0.16186 0.358343
-0.175888 -0.0279753 -0.232342
0.113673 0.085299 0.367799
-0.0611563 0.0449743 -0.170844
-0.175888 0.0986788 -0.0103296
-0.145975 -0.16186 -0.338544
-0.175888 0.0160598 0.318561
0.0151573 0.160904 -0.354637
-0.175888 0.0260464 0.385457
-0.119813 0.0449743 -0.0938624
-0.175888 0.130404 -0.329457
-0.140279 -0.137471 -0.0485527
-0.0126637 0.138089 0.404847
0.0765774 0.134436 0.439164
-0.168267 -0.16186 0.315213
0.145601 0.0255687 -0.354637
-0.140279 0.159647 -0.262825
-0.0150413 -0.0673758 -0.433651
0.013296 -0.053596 -0.359603
0.0352439 -0.12926 0.368769
-0.175888 0.126641 -0.168981
0.175888 0.137883 -0.341225
0.0157881 -0.0540863 0.33285
-0.0252403 0.0719546 -0.365336
-0.140279 -0.145047 -0.142525
-0.175874 -0.16186 0.162857
0.0475675 -0.0540863 0.0756702
0.0367829 0.12926 0.400205
-0.0563089 0.16186 0.413807
0.120131 -0.0154953 -0.353558
-0.140279 0.16013 -0.133043
-0.175888 0.0704289 -0.253598
-0.159835 -0.16186 0.00719096
0.11357 -0.0466396 -0.0153805
-0.175888 0.0636119 0.187832
-0.140279 0.137013 -0.0466771
-0.140279 0.131506 0.305437
-0.135249 -0.0515696 -0.354637
-0.0349647 0.0449743 0.113082
0.113992 0.070898 -0.289179
0.0115755 -0.0636992 -0.433651
0.00898755 0.0719546 -0.38954
-0.158746 0.16186 0.121364
-0.140279 0.0264615 0.146608
-0.0866868 -0.16186 0.40911
-0.175888 -0.0224877 -0.295992
-0.140279 -0.0343853 -0.258061
-0.175888 0.154769 -0.0168546
-0.0762714 -0.0730168 -0.354194
-0.140279 -0.0679099 -0.32015
-0.175888 -0.105351 0.214637
0.121308 -0.0805005 0.367799
-0.140279 0.0614374 0.0153776
-0.101832 0.0449743 -0.0195908
-0.175888 0.050215 0.363418
-0.140279 -0.0595586 -0.229708
-0.140279 0.119579 0.0573914
-0.140279 -0.0428903 -0.223944
-0.0511664 -0.107632 0.367799
-0.0705747 -0.0540863 -0.294884
0.113641 0.00184092 0.23471
-0.140279 -0.0896618 -0.166562
0.0479345 0.0449743 0.140026
-0.140279 -0.011708 0.100967
-0.140279 0.060085 0.296762
0.0229826 -0.0732734 -0.395889
-0.175888 0.12798 -0.156963
-0.140279 -0.105048 0.272592
-0.140279 -0.0877421 0.0709503
0.141705 0.0367262 -0.353558
-0.112807 -0.09471 -0.259348
-0.140279 0.128783 -0.175128
0.113992 -0.0223253 -0.287864
-0.140279 0.119401 -0.240615
-0.0649233 -0.0540863 0.100965
0.0252499 -0.0372667 -0.356304
0.0859829 0.029716 -0.382158
-0.0697471 -0.0540863 -0.159607
-0.0806912 -0.0912484 0.335068
-0.175888 -0.138609 0.361054
-0.041412 -0.0325162 -0.410789
-0.0348341 0.00362219 -0.406693
-0.175888 -0.0304035 0.406254
0.16813 0.108812 -0.323013
-0.140279 -0.00792813 -0.120926
-0.12589 -0.123834 0.439164
-0.175888 -0.0650312 0.00817403
0.0859829 0.0249926 -0.413801
0.155471 -0.112479 0.404847
-0.175888 0.0605509 -0.294015
0.0698422 -0.0540863 0.267813
0.0583022 -0.0540863 0.0461677
0.0470468 0.120564 -0.353558
-0.0418417 -0.0299975 0.439164
0.110567 0.139485 -0.354637
0.0785487 -0.0540863 0.321662
-0.140279 0.0989517 -0.16075
-0.175888 0.149481 0.0951931
-0.0642464 0.0449743 -0.02945
0.113963 -0.16186 -0.326792
-0.0519935 -0.0999648 -0.275539
0.0605278 -0.0719553 -0.345092
-0.175888 0.094871 0.17975
-0.175888 0.0918199 0.422996
-0.025253 0.0230743 -0.259348
-0.175888 0.0738325 -0.155631
-0.175888 0.118628 0.230648
-0.0345664 0.0449743 -0.317723
0.123684 0.0292647 -0.353558
-0.175888 0.0449269 0.055591
0.104069 0.06906 0.439164
-0.0522195 -0.16186 0.409819
-0.0446606 0.0449743 -0.10116
-0.0503732 0.0334534 -0.379159
-0.164361 0.16186 -0.132575
0.134715 -0.129776 -0.354274
-0.106517 0.0999648 -0.269354
0.0833421 -0.16186 -0.346879
-0.175888 0.0636399 -0.066614
0.010549 -0.0540863 0.32334
-0.0804542 -0.16186 0.418109
0.092787 -0.0540863 0.252621
-0.140279 -0.0435997 0.204712
-0.175888 -0.107049 0.297668
-0.0184285 0.0719546 -0.329315
-0.175888 0.112794 -0.28439
0.0591161 -0.00195721 0.439164
0.0380959 -0.0134274 -0.385824
-0.175888 -0.107643 0.0188362
0.0835675 -0.152634 0.439164
-0.0919872 0.134431 0.439164
-0.0352514 -0.0540863 -0.0508264
-0.110358 -0.0540863 -0.262865
0.107832 0.156237 -0.323013
0.0734181 -0.0561378 -0.396685
-0.0109147 -0.0276809 -0.377164
-0.0351025 -0.0610257 -0.363865
0.00193156 -0.0540863 0.199134
0.0969904 0.0131452 0.439164
0.11357 0.0240662 -0.173422
-0.0887327 -0.0540863 0.112308
-0.0491819 -0.0719553 -0.431131
-0.175888 -0.151912 0.209723
-0.140279 0.0512236 0.107736
0.11357 0.0102139 0.211668
0.0235171 -0.0540863 0.244688
-0.0285013 -0.0302227 -0.378313
-0.00413402 0.035953 -0.259348
-0.140279 0.160426 -0.29032
0.11357 0.00180319 0.284849
0.060584 -0.16186 -0.326968
0.123693 -0.143541 0.404847
-0.140279 -0.0686071 -0.0313328
0.144369 -0.0565809 0.404847
-0.175888 -0.0799587 0.22913
-0.0640264 -0.0540863 0.225919
-0.133501 0.0200668 -0.259348
-0.0966877 0.0449743 0.327513
0.157071 -0.0174232 -0.323013
0.0655293 0.0449743 0.00690976
0.142191 -0.0292374 -0.319792
0.0174638 -0.0732734 -0.385651
-0.140279 0.0504834 -0.228459
-0.143003 0.16186 -0.245119
-0.140279 -0.114174 0.237274
0.11188 0.0478297 -0.403629
-0.0782792 -0.0540863 -0.0661875
-0.124581 -0.0540863 0.210775
0.164041 0.114267 0.439164
-0.148821 -0.16186 -0.347798
-0.00142562 0.157663 -0.323013
0.0471728 0.000186534 -0.259348
-0.11013 -0.0540863 -0.286202
-0.140279 -0.13795 0.363016
-0.140279 -0.137598 0.317237
0.0668459 0.0449743 0.151174
0.113732 0.0139151 0.107531
-0.0545908 0.114578 0.439164
0.0135079 0.0572039 -0.323013
-0.000639185 0.0449743 0.0694538
-0.090635 0.0449743 0.0536213
-0.0808401 0.0449743 -0.201959
-0.15892 -0.16186 0.351243
-0.140279 -0.11115 0.103508
-0.100874 -0.0540863 -0.230532
-0.133319 0.0559303 -0.354637
-0.140279 -0.109724 -0.284494
0.130024 -0.120906 0.367799
0.11357 0.0197445 0.314038
0.0669097 -0.0660349 -0.430918
-0.132265 -0.0151859 -0.354637
-0.140279 -0.0872965 -0.247867
0.00547614 0.0719546 -0.419491
0.080807 0.100693 0.367799
-0.175888 -0.13106 -0.0562441
0.0288301 0.0449743 0.278907
-0.175888 -0.0592426 -0.0126159
0.0132313 0.0978527 -0.390523
-0.0443668 0.0449743 -0.115055
0.0218943 -0.0540863 0.218396
-0.175888 0.117417 0.0603268
-0.175888 0.0741578 0.257402
0.174694 -0.0893708 0.439164
0.11357 0.0351126 0.1362
0.113981 0.0110853 -0.244102
0.175888 0.0208113 0.433111
-0.140279 0.126972 0.112764
-0.175888 -0.0204778 -0.206178
0.171384 -0.15241 -0.323013
-0.175888 -0.115248 -0.121879
-0.118239 0.0449743 -0.318544
-0.175888 -0.127986 0.0792666
-0.114515 -0.0540863 0.0424377
-0.140279 0.0481704 -0.180581
-0.175888 -0.161601 -0.246662
-0.140279 -0.0262861 0.157833
-0.140279 0.0404607 -0.279414
-0.140279 0.113588 -0.0528973
-0.175888 0.0555337 0.30044
0.126679 0.0186965 -0.353558
-0.175888 -0.126947 0.176858
-0.115051 0.0535764 0.335068
0.0567071 -0.0540863 0.321592
0.11357 0.0173185 -0.0253801
-0.0453558 -0.16186 -0.347361
-0.16485 -0.16186 0.134847
-0.0810307 -0.161739 0.404847
-0.166281 0.16186 0.266557
-0.140279 0.138066 0.216712
0.00247737 0.0449743 0.148689
0.095021 0.0515582 -0.439164
0.115877 -0.130198 0.439164
0.016936 -0.0576687 -0.377115
-0.140279 0.129712 0.0153422
-0.140279 0.0134646 -0.229172
0.0558977 -0.048389 -0.356304
-0.169138 -0.143625 -0.351588
-0.175888 0.0928089 0.291201
-0.175888 0.0301457 -0.307753
0.11357 -0.0107449 -0.0103478
0.11357 -0.00463898 -0.052281
0.0200247 -0.0576687 -0.422605
-0.0762714 -0.0574864 -0.360889
-0.175888 -0.127567 0.429489
0.0741038 -0.0292936 0.439164
-0.00240915 -0.022873 -0.323013
-0.175888 -0.0569361 -0.0422507
-0.0839867 -0.0540863 0.000476472
0.112423 -0.147708 0.404847
-0.170318 0.16186 0.412957
-0.0267482 0.140185 -0.354637
-0.0321898 -0.0540863 -0.0667702
-0.175888 0.105441 -0.323958
0.00123761 -0.142492 -0.354637
0.0329386 0.12926 0.379534
-0.0336693 0.0449743 0.157609
-0.140279 0.0168871 0.234384
0.0469883 0.0449743 -0.0712248
-0.140279 -0.0124874 0.0945784
0.0333189 -0.0899184 0.439164
-0.030178 -0.0262825 -0.395208
0.0875419 0.018592 -0.439164
0.157346 0.00753332 0.439164
-0.140279 0.137889 0.0846124
-0.092264 -0.0887338 0.335068
-0.0911589 -0.0540863 -0.26948
0.0213957 0.0449743 0.158362
-0.0395984 -0.0672938 -0.259348
0.0118627 0.00222376 -0.391398
-0.131321 -0.0540863 0.157673
-0.175888 -0.126763 0.26022
-0.0136775 0.0449743 0.0848122
-0.132355 -0.16186 -0.339729
0.03484 0.0449743 -0.0782985
-0.175888 -0.129521 -0.225085
0.11188 -0.0770623 -0.356529
0.014386 -0.0719553 -0.430999
0.11188 0.0366614 -0.393814
0.0250008 0.00362219 -0.391414
0.113848 0.0178503 -0.0566357
-0.112067 0.0449743 -0.0170085
-0.0798223 0.0449743 -0.300928
0.0586935 -0.0540863 0.287857
0.0163413 -0.128163 -0.309522
-0.112913 0.0449743 0.279457
-0.175888 0.139678 -0.0500862
0.0859829 0.0187255 -0.411701
-0.0895777 0.050487 -0.353558
0.088664 -0.0336579 0.439164
0.10255 0.00779001 -0.259348
0.113702 0.0162934 0.149372
-0.0151266 -0.0540863 0.0166625
0.11357 -0.00559427 0.359536
0.105057 -0.0956268 -0.259348
-0.140279 0.00368464 -0.0372738
0.11357 0.0311592 0.345801
0.0608294 -0.147646 -0.354637
-0.0313209 -0.0540863 -0.177264
-0.140106 -0.146409 0.404847
0.0448625 0.0449743 -0.0136719
-0.0136372 -0.0540863 -0.309852
-0.173861 -0.16186 0.384474
-0.0324598 -0.0134274 -0.406462
-0.0339175 0.0449743 -0.0869652
0.11357 0.0224158 -0.0951091
-0.140279 -0.0708668 0.352051
0.0667254 0.0853129 0.439164
-0.140279 0.0875075 0.214807
-0.0267776 0.0449743 -0.0826213
-0.0707784 0.0449743 -0.191148
-0.11062 0.0164177 -0.354637
-0.140279 -0.106592 0.191203
-0.140279 0.137071 -0.214294
0.00200402 0.146021 -0.354637
0.0034793 0.0449743 0.226346
-0.175888 -0.110669 0.306314
0.11357 -0.024211 -0.0204556
-0.0615571 -0.0540863 0.134338
0.0887312 0.0449743 -0.0693715
0.11357 -0.0320271 0.322745
-0.156934 0.16186 0.19867
0.00824798 -0.0540863 0.108312
0.0111735 0.0449743 0.278342
-0.140279 0.104467 -0.0848985
0.0734176 -0.0940212 0.439164
-0.0176582 -0.0540863 -0.118202
0.0652721 0.0449743 -0.137629
-0.175888 -0.133228 -0.0925104
0.114897 -0.0848914 -0.289562
0.061388 0.16186 -0.346682
0.0356294 0.0449743 0.00591432
-0.140279 -0.143283 -0.056583
-0.0825511 -0.0940286 -0.353558
-0.0278002 -0.0616762 -0.430918
-0.140279 0.131343 -0.317072
0.00679595 0.0449743 -0.198933
0.0314348 -0.0120297 -0.387724
0.0177248 0.0449743 0.300684
-0.175888 0.147046 0.226266
-0.175888 0.0546484 -0.277048
-0.0116236 0.107862 0.367799
-0.175888 0.159761 -0.248467
-0.118718 0.0995414 0.337805
-0.127785 -0.150056 0.439164
-0.140279 -0.0282337 -0.250944
-0.165582 0.16186 0.438207
0.142289 0.16186 -0.351445
0.000521272 0.0449743 -0.120414
-0.175888 -0.0126695 0.149183
-0.140279 -0.0536397 0.245563
-0.0125804 0.0449743 0.271136
-0.13406 -0.00838152 -0.354637
0.0834092 -0.145292 -0.323013
-0.175888 -0.0142184 0.210718
0.145476 0.132537 0.439164
0.0238015 -0.0276809 -0.417922
0.0113606 -0.0383275 -0.423597
0.0859829 -0.0578109 -0.425391
-0.108194 -0.11833 -0.353725
-0.175888 0.156979 0.0332457
-0.175888 -0.125347 0.325405
-0.140279 0.118866 -0.235536
-0.140279 -0.000493055 -0.135897
0.0292821 0.0719546 -0.337659
-0.102646 -0.0540863 0.0197946
0.0888847 -0.0540863 0.020757
-0.140279 -0.0042391 0.146792
-0.140279 0.129965 0.273859
-0.078668 0.015874 -0.353558
-0.140279 0.0318005 0.0338254
0.142191 0.0368743 -0.292203
0.0859829 0.0218466 -0.395403
0.0368303 -0.0276809 -0.386356
-0.175888 -0.147772 -0.0290933
0.0328003 0.0449743 0.16543
0.0514285 -0.0540863 -0.259807
-0.0500532 -0.0719553 -0.390959
-0.121897 -0.0540863 -0.100854
0.0524922 0.0388401 0.439164
-0.140279 -0.0479296 -0.139459
-0.175888 0.00267598 -0.283528
0.159413 -0.116923 -0.323013
0.0541196 -0.0576687 -0.39941
0.12904 0.0830557 0.367799
-0.147716 -0.16186 -0.207925
-0.0470428 0.128438 -0.353558
-0.140279 -0.0814308 0.154042
-0.140279 -0.116016 0.0166898
-0.108509 -0.0540863 0.0765716
-0.0499272 -0.102675 -0.289562
-0.140279 -0.115575 0.00127831
-0.175888 0.0965159 -0.0388707
-0.0418581 0.0449743 0.0603112
-0.123141 -0.0540863 -0.147814
0.018441 -0.0305726 -0.421082
-0.175888 0.0332249 -0.0198707
-0.175888 -0.091008 0.00236841
-0.0697158 0.0449743 -0.192617
-0.0823298 -0.0213241 0.439164
-0.0503732 0.0130612 -0.40815
0.11357 -0.0402908 0.206555
-0.175888 0.158997 0.0264726
0.0418982 -0.0540863 0.148621
-0.116099 -0.0540863 0.0221581
0.0109595 0.129376 0.404847
-0.00451588 0.16186 0.405602
0.0869108 0.150242 0.404847
0.11357 -0.00109408 0.151061
-0.154846 0.16186 -0.132783
-0.137789 -0.0540863 -0.218415
-0.175888 0.0670754 0.285563
0.100104 -0.128163 -0.291888
-0.139236 -0.16186 0.420723
-0.175888 -0.00955238 -0.143607
-0.0609141 -0.039711 -0.259348
-0.0503732 -0.0609416 -0.439052
0.105922 0.0449743 -0.154284
0.113992 -0.0936518 -0.289383
-0.0530549 -0.128163 -0.305796
-0.0769728 -0.152967 0.439164
-0.168053 0.16186 0.332388
0.0779211 0.0901342 0.335068
-0.140279 -0.0421015 0.144525
-0.0743497 -0.0540863 0.234368
-0.175888 0.0682182 -0.185435
-0.137087 -0.0540863 0.169268
-0.0583074 -0.0540863 0.0979488
-0.175888 -0.075946 -0.00597765
-0.175888 -0.0167216 0.19826
-0.175888 -0.0448576 -0.300175
-0.140279 0.140055 -0.152875
-0.175888 -0.14175 -0.0530759
0.0440113 -0.0540863 -0.0992593
-0.00990488 0.0999648 -0.269179
0.126491 0.0307937 -0.353558
0.0859829 0.0361825 -0.382859
0.110888 0.0449743 -0.260996
0.11357 0.00374035 0.283566
-0.0432141 -0.054048 -0.413678
-0.117441 -0.153334 0.404847
-0.0475465 0.0449743 0.274399
-0.175888 0.13274 0.0480645
0.080512 -0.0719553 -0.35908
-0.0295637 0.0449743 0.0289996
0.0201825 -0.0276809 -0.383375
0.174585 0.0936432 0.404847
-0.126267 -0.12926 0.38087
0.104217 0.0995414 0.351833
0.11357 -0.0141034 0.286552
-0.170201 -0.16186 -0.00283159
-0.0905244 0.0449743 0.229344
-0.0185037 -0.0719553 -0.431493
0.0249826 0.0449743 0.296919
-0.115648 -0.0540863 -0.273929
0.0195294 -0.0540863 0.29413
0.119726 0.12554 -0.353558
-0.175888 0.00778185 -0.13322
-0.140279 0.0880647 -0.171205
-0.0480938 0.0449743 -0.00465885
0.0757473 0.0719546 -0.366736
0.173979 0.16186 -0.348749
-0.0566446 0.0449743 -0.0779328
0.0915222 -0.0995421 0.343102
-0.175888 -0.00120796 0.424528
-0.140279 -0.0459769 0.244688
-0.0159701 -0.0540863 -0.170745
-0.0290524 -0.0276809 -0.373276
0.0666085 -0.0995421 0.35237
-0.103466 0.0449743 -0.114718
-0.175888 -0.118492 0.0985075
-0.140279 0.048979 -0.193535
0.0455591 -0.0540863 0.0367892
-0.101066 -0.00915293 0.439164
-0.140279 -0.125746 -0.08649
-0.115476 0.122073 0.367799
0.0923367 -0.16186 0.429317
-0.0895041 0.0527878 0.439164
-0.0533149 -0.0540863 -0.0943858
0.11357 -0.0458857 0.0154468
0.107748 0.0449743 0.306414
-0.175888 -0.143961 0.235294
0.0485094 0.0108904 0.439164
-0.0264955 0.0449743 -0.0527938
-0.175888 0.0546161 -0.11697
-0.145667 0.16186 -0.205102
-0.0271972 -0.0540863 -0.273268
-0.175888 -0.0476986 0.183506
-0.112755 0.0596188 -0.354637
0.11357 0.00102236 0.0684864
-0.122472 0.10624 0.439164
0.0610419 -0.110312 0.439164
-0.175888 0.117667 0.151554
0.00903806 -0.0789751 0.335068
-0.0203386 0.0449743 0.139857
0.0600492 0.0999648 -0.274608
0.150447 0.124518 -0.323013
-0.0541659 -0.0540863 0.311138
0.0377401 -0.0540863 -0.281335
-0.0532331 -0.0359422 -0.323013
0.0859829 -0.0398703 -0.391407
0.0758777 0.0449743 -0.24954
-0.0374949 -0.0236196 -0.362084
-0.109006 0.0580456 -0.354637
0.11357 0.0247713 -0.0240732
0.113601 0.0156674 0.291468
-0.0138953 -0.149979 0.404847
-0.0367367 0.0225131 -0.259348
0.0253747 0.00362219 -0.387478
-0.00401231 -0.0540863 -0.18498
-0.106627 -0.0540863 -0.119451
0.143288 -0.063258 0.389292
-0.0380711 -0.0540863 0.108176
0.0493293 -0.0978527 -0.35719
0.0489307 -0.0871764 0.335068
-0.175888 0.157691 -0.0348826
-0.0304323 0.0449743 -0.25544
0.175888 0.143665 -0.323606
0.0669851 0.12926 0.393709
-0.175888 -0.139031 -0.131878
-0.0685312 -0.128369 -0.323013
-0.140279 -0.0252917 -0.0604891
0.0894141 0.0919277 -0.259348
-0.097283 0.0500104 -0.353558
0.164704 0.0306324 0.439164
0.104511 0.0449743 -0.164833
0.0865335 0.0999648 -0.273653
0.0468187 -0.0995421 0.353201
0.00937861 -0.0540863 0.170567
-0.115038 -0.0540863 0.0763804
0.0535624 -0.0719553 -0.436025
0.0950969 0.0978527 -0.39912
0.11357 -0.0529442 -0.0499383
0.0412483 0.0433481 0.439164
-0.175888 0.0432736 0.217699
-0.175888 -0.150399 -0.0454706
0.0472814 -0.053596 -0.386124
0.0742104 0.0449743 0.179386
0.166342 -0.106734 0.439164
-0.175888 -0.055751 -0.236855
0.11357 -0.00390138 0.212078
0.173092 -0.098064 0.404847
-0.0503732 0.0514455 -0.338695
0.00833444 -0.00183584 -0.259348
-0.00182489 -0.00916287 -0.349248
-0.0305904 0.0719546 -0.34738
0.11357 0.00199769 0.119029
0.0837328 -0.16186 0.436634
0.113693 0.0238393 0.161824
-0.052696 0.0449743 0.106245
-0.175888 -0.00768634 0.307147
-0.175888 -0.0436521 -0.118673
0.0599746 -0.0259528 0.439164
0.0373294 -0.0540863 0.0337528
0.11357 0.0132991 0.0927146
-0.175888 0.0662886 -0.192009
-0.0623985 -0.129257 -0.353558
-0.133641 0.16186 0.425602
0.0513346 -0.053596 -0.378644
-0.018418 0.0978527 -0.418198
0.0465282 -0.0608305 0.439164
-0.140279 -0.0766301 0.271282
0.00879216 -0.0276809 -0.390377
-0.0455892 0.0449743 -0.141657
-0.0203579 0.0449743 0.233718
-0.140279 -0.0166608 0.146622
-0.175888 0.153006 -0.322029
-0.140279 -0.0184879 -0.226879
-0.175888 -0.160773 0.25372
0.143288 -0.105302 0.393127
0.0833318 -0.112941 -0.353558
-0.175888 0.154663 -0.122711
-0.107463 -0.0540863 -0.192592
0.175442 0.0208239 0.404847
0.0976909 0.151926 0.404847
-0.029813 0.131548 -0.354637
-0.0214304 -0.0732734 -0.36716
-0.137701 -0.0540863 -0.0226063
-0.174963 0.16186 -0.302114
-0.0357623 0.0543152 0.439164
0.0494443 -0.0540863 0.226231
-0.0321381 -0.0549018 -0.354376
0.11357 0.0202948 0.296807
-0.175888 -0.042627 -0.0161008
-0.00707245 -0.0561378 -0.36841
-0.175888 0.00600836 -0.137927
-0.0503732 -0.0236869 -0.433318
-0.0496645 0.0449743 -0.137659
-0.0794433 0.0449743 0.201291
0.0427518 0.0449743 0.0438988
0.0717812 0.0449743 -0.178943
0.048476 -0.0276809 -0.398569
-0.157148 0.16186 -0.208927
-0.0808452 0.0449743 -0.111627
0.11357 0.00209127 0.109129
-0.0209558 -0.0709045 -0.360507
-0.108418 0.0449743 0.156643
0.101496 -0.0540863 0.226413
0.0411624 0.0995414 0.36205
0.0757941 -0.0575359 0.439164
0.0185672 -0.0276809 -0.359904
0.0547012 0.0978527 -0.430247
-0.0307732 -0.0540863 0.278845
0.0257707 0.00362219 -0.365932
0.106091 0.0449743 0.216766
-0.152897 -0.16186 -0.0317523
0.111898 -0.149546 -0.323013
0.118184 0.0877738 -0.289562
-0.0110679 -0.0540863 0.0885734
-0.175888 0.113196 0.414542
-0.13775 -0.136782 -0.354637
-0.106595 0.0449743 -0.10076
-0.175888 0.0495182 0.138185
0.0949953 -0.0995421 0.346952
0.0858651 0.0449743 -0.173712
0.0258957 -0.0978527 -0.356194
0.031365 -0.0120297 -0.398833
0.13825 0.0293128 -0.289562
-0.0140804 0.0505624 -0.259348
0.123282 0.0243537 -0.353558
-0.140279 0.142387 0.291492
-0.140279 -0.0436906 -0.160067
-0.140279 -0.116063 0.140201
-0.175888 -0.0925407 -0.0635938
0.105977 -0.100618 0.439164
-0.175888 0.144641 -0.17925
0.0977047 -0.0999648 -0.287946
-0.140279 0.10059 -0.272225
0.00126992 -0.052326 -0.421082
-0.0380925 -0.029875 -0.259348
0.11188 -0.028953 -0.433337
0.142191 -0.0747715 -0.293693
0.0124319 0.0873442 0.335068
0.0454749 -0.0302227 -0.370125
-0.140279 0.0309998 -0.286801
-0.175888 0.0310598 -0.333378
0.109965 0.0995414 0.365995
-0.0158414 0.000555502 -0.426265
0.11188 -0.0953925 -0.4081
-0.07852 0.0449743 -0.0535861
-0.0762714 0.0371907 -0.385404
-0.175888 0.0702803 0.297911
-0.175888 0.00448887 -0.209939
-0.0389814 0.128162 -0.292195
0.11357 0.023977 0.354918
0.112636 -0.0540863 0.33203
0.11188 -0.0926921 -0.426521
0.0940472 -0.0540863 -0.225197
0.00249499 -0.0120297 -0.409312
0.0160924 -0.0299236 -0.423597
-0.175888 0.0229113 -0.247758
0.175514 -0.041896 -0.323013
-0.0495357 0.0449743 -0.0780158
-0.175888 0.13375 -0.248551
0.0614832 -0.0559907 -0.393658
-0.140279 0.035827 0.254707
-0.0553565 -0.0540863 0.303663
0.129278 -0.0623074 -0.289562
0.175702 -0.000481248 0.439164
-0.00638747 -0.0576687 -0.418706
0.0470071 0.00294807 -0.259348
-0.0245907 -0.0995421 0.35422
0.14327 -0.0900765 -0.353558
-0.111163 0.102498 -0.354637
-0.175888 -0.0756681 0.318147
-0.140279 -0.0379089 0.0619657
0.11357 -0.0170757 -0.0147315
-0.175888 0.139434 0.0332751
0.10922 0.0425871 -0.323013
0.0831993 -0.0944786 -0.259348
0.11357 0.032646 0.304313
-0.175888 -0.046015 -0.351174
0.0739969 -0.0540863 -0.0629226
-0.140279 -0.022618 -0.240248
-0.0244416 0.0719546 -0.36098
-0.134636 -0.0468212 -0.275081
0.11357 0.0133106 0.359508
-0.00961787 -0.0692689 -0.323013
-0.105016 0.149141 0.404847
-0.0802698 0.0306137 -0.259348
-0.140279 -0.106418 -0.0443633
-0.0982526 -0.0540863 0.024236
-0.107443 -0.0540863 0.324454
0.0117415 -0.0561378 -0.370882
-0.140279 -0.0912138 0.330079
0.0967181 -0.141337 -0.323013
-0.140279 0.150743 -0.24776
-0.02276 -0.118955 -0.289562
-0.140279 0.156718 0.193558
0.11357 -0.0144835 0.0890871
-0.140279 0.0289763 0.259825
-0.140279 0.133599 0.221187
0.0346179 -0.053596 -0.415772
-0.175888 -0.144787 -0.145357
-0.115359 -0.0540863 -0.0836998
0.135161 -0.00502373 0.367799
0.0461318 0.0719546 -0.371665
0.0721826 -0.0540863 -0.307527
-0.0371983 -0.0721902 -0.422494
-0.140279 0.117432 -0.252864
0.175888 -0.0800068 -0.338901
0.0168981 -0.0561378 -0.414168
0.158875 -0.0865321 -0.323013
0.106905 -0.0540863 0.0741891
0.0338289 0.108481 0.367799
-0.0855875 0.0748869 0.439164
-0.175888 0.0693776 -0.198373
-0.175888 -0.132205 -0.340688
0.143288 -0.126583 0.404677
-0.0762714 0.0182923 -0.428657
-0.024942 -0.0561378 -0.429811
-0.175888 0.0564173 0.363916
-0.0382145 -0.139253 0.404847
-0.140279 0.0784078 -0.107725
0.0762645 -0.122238 0.367799
-0.0959192 0.0449743 0.127624
0.11357 -0.045935 0.0394951
-0.140279 -0.0879443 0.000826448
-0.175888 0.129379 0.201288
0.0252198 -0.0120297 -0.383809
-0.140279 0.0168486 0.236422
0.174419 0.14069 -0.354637
0.0440921 0.0665985 0.335068
0.0746469 0.0458269 0.439164
0.0679435 -0.145123 -0.354637
0.00379796 -0.130746 -0.354637
-0.0762714 -0.0202782 -0.367607
-0.140279 -0.12153 -0.194923
-0.175888 -0.161132 0.326329
0.0795437 0.0978527 -0.395009
-0.140279 -0.0285999 -0.195404
-0.175888 0.132824 0.235402
-0.100949 -0.0999648 -0.262288
0.164518 0.0957721 0.439164
0.11377 0.0301053 0.0537648
-0.175888 -0.0552628 -0.0137364
-0.140279 -0.0347216 0.277705
-0.140279 0.0895858 0.310678
0.0781395 -0.0906176 0.335068
-0.140279 0.00438607 0.186149
-0.175888 0.070926 0.0875001
0.11188 0.0527896 -0.407704
0.00770284 0.16186 0.425474
-0.175888 -0.0704551 -0.0412917
0.11357 0.0239394 -0.291502
-0.161841 0.141427 -0.351588
-0.140279 -0.054107 0.185522
-0.140279 -0.0203445 -0.105085
-0.175888 0.129417 -0.192963
-0.140279 -0.108921 -0.0273339
-0.175888 -0.0332122 0.109549
-0.13229 0.11659 -0.289562
-0.0756694 -0.146041 0.404847
0.0481781 0.0675733 0.439164
-0.138019 -0.0540863 -0.0304451
-0.175888 -0.0406738 -0.126371
0.00152226 -0.0263397 0.439164
0.00109151 -0.0186013 -0.259348
-0.140279 -0.0850976 0.132999
0.042026 -0.0717425 -0.414267
-0.140279 0.00724079 0.210681
0.113863 0.0427248 -0.0771591
-0.0390757 0.0449743 -0.18954
-0.140279 -0.0384683 -0.218549
-0.029768 -0.0222422 0.439164
-0.175888 0.106507 0.00808531
-0.164464 0.16186 0.244026
-0.0303641 -0.0540863 -0.0114502
0.175888 -0.0728171 0.410761
-0.0164094 -0.0106313 -0.362601
0.143288 -0.0431629 0.368817
-0.175888 0.00181456 -0.037925
0.11188 -0.0508026 -0.370979
0.0499525 -0.0995421 0.362975
-0.175888 0.107128 -0.152472
-0.140279 0.0150172 -0.0616349
0.0594562 0.0340301 -0.259348
0.0859829 -0.0122586 -0.342946
-0.14268 -0.16186 -0.130133
-0.132078 -0.0455834 -0.323013
-0.140279 -0.0047009 -0.261055
-0.175888 -0.094199 -0.0470825
-0.175888 0.0445873 0.319576
-0.140279 0.12983 0.147065
-0.0762714 0.00364628 -0.420648
0.0406129 -0.0995421 0.340766
-0.140279 -0.0788774 -0.170992
-0.140279 -0.0240749 -0.24737
-0.164649 0.16186 0.0997983
0.0887749 0.0449743 0.109821
-0.095322 -0.0286968 -0.353558
-0.175888 0.161107 0.274973
-0.0686082 0.138383 -0.323013
-0.175888 -0.083676 0.181332
-0.00916145 -0.12926 0.392449
0.0213127 0.0995414 0.354601
0.0616992 -0.0540863 -0.18277
0.0730598 -0.0576687 -0.401219
-0.0550935 -0.0540863 0.0407244
-0.00352413 0.00222376 -0.394041
-0.140279 0.116828 -0.273224
0.11357 -0.0528526 0.306511
0.0801561 0.0449743 -0.0660451
-0.173449 -0.0832324 0.439164
-0.0458566 0.0449743 -0.181051
0.00215018 -0.00663832 0.439164
-0.140279 0.141921 0.181332
0.0592421 -0.0978527 -0.394673
-0.149518 0.16186 0.359715
-0.175888 0.111704 0.404195
-0.140279 -0.00247294 -0.136801
-0.140279 -0.103143 -0.083585
-0.140279 -0.0943858 0.0966479
0.074581 -0.0540863 0.225555
-0.140279 -0.138722 -0.257052
-0.175888 0.0217796 -0.330212
0.175888 0.15567 0.415352
-0.140279 0.0895341 -0.307753
-0.175888 0.0363693 0.296843
-0.0465786 -0.0540863 0.0332416
-0.140279 -0.118724 0.307932
-0.129546 -0.0540863 0.266183
0.143288 0.115254 0.385152
-0.0949752 0.16186 -0.35253
0.0859829 -0.0533291 -0.386512
0.0324351 -0.053596 -0.419688
-0.0660004 0.0449743 -0.294171
-0.00627192 0.0449743 0.297419
0.167718 0.120422 0.404847
-0.140279 0.00101743 0.297563
0.0103485 -0.0433527 -0.323013
-0.0110583 0.0250593 0.439164
-0.175888 -0.0350879 -0.289058
-0.140279 0.00236465 -0.108526
0.0165059 0.0719546 -0.341
-0.140279 0.0814641 -0.237425
0.0401278 -0.0120297 -0.41375
-0.139323 0.0449743 0.103629
-0.175888 0.0272653 -0.239182
-0.130958 0.145122 0.439164
-0.0395444 0.0449743 -0.140269
-0.069522 0.0449743 -0.0301163
-0.0931431 0.0852855 0.439164
-0.175888 0.0564169 0.298219
-0.0315461 0.156609 0.439164
0.0149529 0.0805028 -0.259348
-0.0956431 -0.010962 -0.323013
0.113992 0.00146361 -0.268073
-0.100168 0.110396 0.439164
-0.0199817 -0.0576687 -0.423293
-0.175888 0.131776 -0.106675
-0.175888 -0.0772707 0.274246
0.102686 0.0449743 -0.105798
0.0582995 0.0152224 -0.259348
-0.175888 -0.0704787 0.319725
-0.0249836 0.025572 0.439164
-0.140279 -0.0946926 -0.0483398
-0.175888 -0.151799 -0.186827
0.170003 -0.0364619 -0.354637
-0.0228775 -0.0999648 -0.280633
-0.0284982 -0.0509494 -0.259348
0.175888 0.150746 -0.353725
-0.0948479 -0.0135854 -0.323013
-0.140279 0.146422 0.346281
0.00544931 0.0995414 0.337678
0.0136515 -0.0134274 -0.379761
-0.140279 -0.135791 -0.277177
0.0132944 0.0449743 -0.137338
-0.0555737 0.0449743 -0.0425931
-0.0255642 0.00122891 -0.349248
-0.0503732 0.0468111 -0.332642
0.0016595 -0.0703809 -0.360507
0.0859829 -0.0317921 -0.365322
-0.0699323 0.0527047 -0.439164
-0.169474 -0.16186 -0.0275321
0.0770716 -0.054707 -0.259348
-0.0530101 0.0449743 -0.198467
-0.175888 -0.0703639 -0.291194
0.0289274 0.0449743 0.123815
-0.0131009 -0.0262825 -0.376171
0.0500645 -0.0914331 -0.259348
0.123547 -0.153413 -0.354637
0.0289472 -0.0540863 -0.0127519
0.11357 -0.065992 0.359577
-0.134528 -0.0540863 0.0846883
0.124037 0.12458 0.367799
-0.135098 0.0449743 0.147333
0.0017923 -0.0276809 -0.366689
0.121328 0.150413 0.404847
-0.175888 0.160768 0.307587
-0.175888 0.121236 -0.0541857
0.0679261 -0.0753389 0.335068
0.0478926 0.00362219 -0.416411
0.0038005 -0.0717425 -0.36362
0.101422 -0.0540863 -0.0772573
0.0227935 -0.0540863 0.319162
-0.00962385 0.0449743 0.293705
-0.0768758 0.109483 -0.353558
-0.0290559 -0.0732734 -0.390107
-0.0880433 -0.0540863 -0.308461
0.058025 -0.0540863 0.190127
0.11357 -0.00225244 0.0811511
-0.175888 -0.0428325 0.235843
-0.15383 -0.16186 0.0399852
0.141497 0.00119896 0.439164
0.0487839 0.0999648 -0.265926
-0.140279 0.0648303 -0.0364066
-0.140279 -0.126796 -0.131927
-0.175888 -0.0532397 -0.115261
-0.140279 -0.10952 -0.207828
-0.0330321 0.014514 0.439164
-0.105939 0.0861339 -0.353558
-0.175888 0.0816003 -0.109388
-0.0217158 -0.0121551 -0.421082
-0.0454207 0.0978527 -0.379679
-0.0807778 0.12926 0.382999
-0.0394048 0.0030713 -0.349015
0.00172908 0.00222376 -0.348138
0.0851524 0.161032 -0.354637
-0.0944039 -0.113571 0.439164
-0.140279 0.0769235 -0.0176592
-0.0941931 0.0676268 0.335068
-0.140279 0.154712 -0.17259
0.11357 0.0335812 0.249987
0.0271151 0.0449743 -0.146893
-0.150444 0.16186 -0.205103
0.00725398 -0.0134274 -0.401382
-0.0503732 -0.0225107 -0.401331
-0.0829569 0.00306307 -0.323013
0.11188 -0.0507163 -0.379892
-0.0762714 -0.0523348 -0.398266
-0.175888 0.00732273 -0.345446
0.175888 -0.054578 -0.344403
-0.140279 -0.0609115 0.250441
0.113992 0.0343861 -0.268357
-0.140279 -0.0796955 0.199452
-0.140279 0.0641343 -0.0805625
0.113658 0.0339239 0.211271
0.11357 -0.0324129 0.264879
-0.016098 -0.0302227 -0.393634
-0.0843022 -0.102181 0.367799
0.0340242 -0.12926 0.384677
-0.140279 -0.0819384 0.124836
-0.0793438 0.12926 0.401372
-0.0542926 -0.131409 -0.323013
-0.0579333 -0.0769425 -0.439164
-0.140279 -0.0569099 0.342866
-0.0247213 -0.0719553 -0.389275
-0.140279 0.141086 0.371273
-0.140279 -0.130858 -0.266489
0.103126 -0.0302089 0.439164
-0.0446236 -0.0540863 0.0968292
-0.175888 -0.0944418 0.337286
0.0614804 -0.0540863 0.320676
-0.101352 0.05363 -0.353558
-0.0594123 0.0119589 0.439164
0.073387 0.0449743 0.0624889
0.0709889 0.0449743 0.0938258
0.0519716 -0.0540863 -0.0341481
0.0218278 -0.0276809 -0.416328
-0.140279 0.11043 0.315791
-0.0763346 0.0334983 -0.323013
-0.059127 0.0978527 -0.427843
0.0824475 -0.0717425 -0.402774
0.165451 0.131342 -0.323013
0.0709845 0.0449743 -0.214063
-0.0556415 -0.12926 0.385287
0.00189971 0.0449743 0.16959
-0.140279 0.0938799 -0.06052
-0.140279 -0.124864 0.203921
0.0641606 0.0719546 -0.340521
-0.140279 -0.113437 0.203747
-0.0503732 0.0286311 -0.403529
-0.0241386 0.12926 0.401896
-0.0600502 0.12926 0.390391
-0.175888 0.00313905 -0.028705
-0.0323018 -0.0995421 0.356786
-0.0854985 -0.0540863 -0.0404432
-0.175888 -0.122036 0.306419
0.113626 0.0362081 0.256876
-0.00814784 -0.0770616 -0.259348
-0.0357594 -0.0276809 -0.370795
-0.175888 -0.0610053 0.142688
0.0539056 -0.0278213 0.439164
0.0810528 -0.0666676 -0.430918
-0.0024826 -0.0188367 -0.259348
-0.0186621 -0.0540863 -0.309401
-0.140279 -0.0736364 -0.109105
0.0255281 0.0750626 0.439164
-0.0401664 -0.0540863 0.0871783
-0.104664 0.073455 -0.353558
-0.0188865 0.00893154 0.439164
0.11188 -0.0619998 -0.388209
-0.175888 0.0120505 0.257275
-0.0315564 -0.0540863 -0.104288
-0.175888 0.0829845 -0.318196
0.0344839 -0.0561378 -0.424618
-0.140279 0.126876 -0.0890438
-0.0337145 -0.0540863 -0.0609843
0.11357 0.00412274 -0.312316
-0.140279 0.109988 0.0830763
-0.175888 -0.0977471 0.369577
-0.175888 -0.0162021 -0.2115
0.0622712 0.0449743 0.00489792
-0.175888 0.0556447 0.0836331
-0.140279 -0.14079 0.182261
0.0621944 -0.0540863 0.194514
-0.0556931 -0.128163 -0.29415
0.174199 -0.0991276 -0.354637
-0.0762714 -0.0802619 -0.385687
-0.00309469 -0.0217445 -0.362084
-0.0462289 -0.0540863 -0.0890027
0.106047 0.0978527 -0.38854
0.113959 0.0367652 -0.212354
-0.0331021 0.0449743 -0.142557
-0.0441981 0.128162 -0.3228
-0.140279 -0.0439123 -0.178882
0.11188 -0.0951098 -0.395488
0.00667544 -0.0916638 -0.439164
0.11357 -0.0308249 -0.207779
0.13503 -0.117309 0.439164
-0.101888 0.0449743 0.30642
-0.175888 -0.0586565 0.192397
0.121336 -0.0270794 0.439164
0.142191 0.0355298 -0.302131
-0.0101802 -0.0540863 -0.0416089
-0.140279 0.0383733 -0.0698328
-0.0762764 0.0295624 -0.259348
0.0541151 0.0978527 -0.436834
-0.150196 0.0615272 0.439164
0.0392129 -0.128163 -0.304101
-0.175888 -0.0113163 0.0391809
-0.175888 0.159024 0.247613
-0.175888 0.0473205 0.0654336
0.00101923 0.0978527 -0.39317
0.113886 0.00477063 -0.109832
0.11188 0.0400314 -0.43437
-0.12348 -0.00812532 -0.354637
-0.175888 -0.112547 0.331801
-0.0993356 0.12813 0.367799
-0.140279 0.00541363 0.151054
-0.12355 -0.130034 -0.323013
-0.140279 0.0197608 -0.0105094
-0.101339 -0.0146542 -0.353558
-0.140279 0.0295188 -0.0606288
-0.175888 -0.10091 -0.223051
0.11357 -0.0460162 -0.239963
-0.109037 -0.0540863 -0.0436498
0.017774 0.0435822 -0.259348
-0.0321169 0.0719546 -0.385823
0.109154 0.0449743 -0.105676
-0.175888 -0.0121145 -0.250731
-0.140279 -0.0455427 -0.117674
-0.175888 0.0645633 -0.276741
0.0780877 -0.0717425 -0.403835
-0.0133635 -0.148873 0.439164
0.0364981 -0.0540863 0.00401452
0.0272312 -0.0302227 -0.407665
-0.175888 -0.0126391 0.064222
-0.175888 -0.00417946 0.190959
-0.140152 0.0449743 0.236643
-0.140279 -0.0861651 0.119045
0.160603 -0.097089 0.439164
-0.134636 -0.0754957 -0.274705
-0.0257526 0.0449743 -0.158495
-0.140279 0.106317 -0.0289523
-0.0208019 0.0449743 -0.254471
0.0213136 -0.0820683 -0.439164
-0.0973408 -0.143116 0.404847
-0.0198833 0.149406 -0.323013
-0.0450159 -0.0540863 0.28518
-0.096883 -0.0540863 0.0709975
-0.0607985 -0.0946325 -0.439164
0.0662239 0.0449743 -0.214125
-0.134636 -0.0796261 -0.279483
0.175888 0.0471684 0.423754
0.0817986 -0.0551413 0.335068
-0.175888 -0.137012 0.410297
-0.175888 0.127514 -0.167914
-0.159391 -0.16186 0.111754
0.0491242 -0.0120297 -0.360671
-0.0245465 -0.104361 -0.289562
-0.0655384 -0.0540863 0.247718
-0.175888 -0.1595 0.327646
-0.140279 0.106712 0.0650082
-0.175888 0.0853703 0.165749
-0.0639732 -0.0540863 0.0337892
0.101296 0.0449743 -0.190465
-0.0503732 0.0374832 -0.398939
0.0501069 -0.0601279 -0.430918
-0.157776 0.16186 -0.0471864
-0.175888 0.135831 0.0563394
0.0648865 0.0449743 -0.0721262
-0.175888 0.0366078 -0.0239951
-0.175888 -0.0979767 -0.0431395
-0.14063 -0.16186 -0.0653436
-0.175888 -0.0627207 -0.212191
-0.140279 -0.061212 0.143868
-0.140279 0.0892405 0.0118104
-0.01687 0.0449743 -0.175598
-0.140279 -0.143483 -0.0571478
0.0182981 -0.149857 -0.354637
0.0629927 -0.0540863 0.203884
-0.175888 0.0291662 -0.225866
-0.0813801 0.0210858 0.439164
0.0167916 -0.0540863 -0.289266
0.113628 0.0349799 0.2533
-0.0291124 -0.0576687 -0.408446
-0.0371942 -0.0540863 -0.0504918
0.0104467 0.0019306 -0.349248
0.0356359 -0.0719553 -0.410421
-0.0740414 -0.0649086 0.439164
-0.00533555 0.107825 0.367799
0.0195282 -0.0540863 -0.305483
-0.175888 -0.0365983 0.41871
-0.00269226 -0.0540863 -0.0651391
0.113893 0.0141593 -0.120273
-0.140279 0.149026 -0.316252
-0.175888 -0.0468839 0.153476
0.0859829 -0.0542434 -0.339738
0.11357 -0.00150183 -0.267601
-0.17268 -0.16186 -0.215914
-0.140148 0.0449743 -0.146479
-0.175888 -0.0279781 0.284267
0.0413474 -0.0146704 0.439164
-0.175888 0.0407302 0.113161
0.0697875 0.0995414 0.363281
0.0330033 0.0449743 -0.303086
0.0391466 -0.16186 0.436787
-0.102075 0.0537832 0.335068
-0.175888 0.0788267 -0.0926479
0.103291 0.0551474 -0.439164
-0.0716381 -0.0540863 0.102441
-0.0919706 -0.0540863 0.300368
-0.140279 -0.0129496 -0.0794035
0.150429 -0.0946185 0.404847
0.021502 -0.0540863 0.252618
-0.140773 -0.16186 -0.0433773
-0.140279 0.0330831 -0.296487
-0.140279 0.115981 0.108404
-0.175888 -0.029997 -0.0949994
-0.140279 -0.0246854 0.0328395
-0.140279 -0.0513344 -0.175858
-0.141215 0.16186 0.395643
-0.0225375 0.0449743 0.0683431
0.11357 0.0275831 -0.134567
0.0182604 -0.0576687 -0.382497
0.16901 0.110674 -0.323013
-0.0446147 -0.0540863 0.0398452
0.147571 -0.0157507 -0.354637
0.0605976 0.12926 0.375539
0.0283798 -0.0120297 -0.358085
-0.140279 0.0830203 0.351906
-0.0287341 -0.12926 0.372699
-0.140279 -0.0663046 -0.160563
0.0657682 0.116858 -0.353558
-0.0146291 -0.0719553 -0.329248
0.140096 0.0743598 0.439164
-0.121746 0.0449743 0.199314
0.0613403 -0.0540863 -0.100434
-0.140279 0.126375 0.347829
0.0859829 -0.0535149 -0.342998
-0.175888 0.0220963 -0.0777021
0.02123 -0.0719553 -0.383704
-0.00898137 -0.0938122 0.335068
-0.145955 -0.16186 0.270274
0.0376703 -0.0403194 -0.423597
0.11357 0.030277 0.237911
0.161609 -0.158518 -0.323013
0.107257 0.0449743 -0.2421
-0.0227459 -0.128163 -0.316194
-0.175888 -0.0365007 -0.264701
-0.140279 -0.161701 0.13176
-0.175888 -0.132182 -0.280004
-0.173501 0.16186 0.3228
-0.140279 0.0435825 -0.0704893
-0.167301 -0.0270791 -0.351588
0.0652519 0.0449743 0.128552
0.0180289 0.0449743 0.216469
0.112866 -0.0540863 -0.271796
-0.0945256 0.0449743 0.211663
-0.038981 -0.0276809 -0.41914
-0.140279 -0.0807902 -0.0914472
0.143288 -0.110455 0.37178
0.11357 -0.0330965 0.253531
0.040488 -0.159414 -0.354637
0.175888 0.0122287 0.416067
0.0513021 -0.0540863 0.0231697
0.0970611 -0.134386 -0.354637
-0.162747 0.16186 0.062983
-0.175888 0.157693 0.405486
-0.0634442 -0.0904306 -0.439164
-0.140279 -0.13306 -0.0555036
-0.0175451 -0.0717425 -0.428993
0.0856429 -0.0978527 -0.391735
-0.114824 -0.0877911 0.439164
-0.140279 0.0334934 -0.041365
-0.124023 -0.0283261 -0.259348
-0.142743 -0.16186 -0.290755
-0.175888 0.0733802 -0.122018
-0.0848527 -0.128163 -0.291367
-0.0854696 -0.0540863 0.0632204
0.0513109 -0.00919233 -0.360767
-0.175888 -0.126194 0.391787
-0.140279 0.0817516 0.0436037
0.00646094 0.0457516 -0.259348
0.0211729 0.109721 0.439164
-0.140279 -0.101847 0.104132
-0.175888 -0.053966 0.263131
0.0872345 0.0974464 0.439164
0.0063265 0.0449743 0.157108
-0.0776417 -0.0540863 0.190714
-0.140279 0.113133 -0.0357724
-0.0217708 -0.0540863 -0.0504438
0.0052313 0.0449743 -0.230971
-0.0189126 0.0449743 0.269771
-0.140279 0.00239314 -0.0925167
0.0700256 -0.12926 0.387676
0.11395 0.0152718 -0.200621
-0.0883455 -0.159203 0.439164
0.0507663 0.0449743 0.170582
-0.134636 -0.0969855 -0.266219
-0.0779116 -0.113998 -0.289562
0.113992 -0.033439 -0.26675
0.105014 -0.0540863 0.287081
-0.175888 -0.0540794 0.287645
-0.175888 0.0283442 0.432012
-0.130107 -0.122101 -0.354637
-0.0965192 0.0193472 0.439164
-0.0501964 -0.0540863 0.136077
0.0838664 -0.103118 -0.289562
-0.175888 0.0286849 -0.04782
0.00354717 -0.0540863 0.213561
-0.175888 -0.13095 0.138944
0.119813 -0.154144 0.404847
-0.15943 0.16186 -0.0101903
0.00739947 0.0449743 0.135516
-0.0648513 0.0866769 -0.439164
-0.155523 -0.0911131 0.439164
0.0700189 0.0898729 0.335068
0.130341 0.0350663 0.367799
-0.140279 0.0419862 0.111296
-0.0295776 -0.0540863 -0.189774
-0.175888 -0.0559569 0.144935
-0.140279 -0.113452 0.365146
-0.140279 -0.0131458 -0.276381
0.11357 0.00625528 -0.271172
0.11188 0.0768865 -0.380199
0.03008 -0.0309552 -0.323013
0.175888 0.152981 0.415297
0.138612 0.0782149 -0.289562
-0.172873 0.16186 0.361717
-0.175888 0.0791953 0.174168
-0.175888 0.0685779 0.423414
-0.0546363 0.0449743 0.334569
-0.104054 0.0449743 0.172579
0.175888 0.0571828 0.431107
