ply
format ascii 1.0
comment Created by Open3D
element vertex 1663
property double x
property double y
property double z
end_header
0.153591 -0.245877 0.267767
0.163645 -0.245597 0.267765
0.173677 -0.245318 0.267762
-0.175275 -0.252383 0.267852
-0.16716 -0.25216 0.26785
-0.156364 -0.251863 0.267847
-0.156058 -0.257198 0.251904
-0.155967 -0.251578 0.26072
0.144915 -0.24658 0.250997
0.183685 -0.239961 0.26776
-0.183403 -0.247317 0.267854
0.146156 -0.236332 0.26639
0.153591 -0.235685 0.267767
0.163645 -0.235417 0.267765
0.173677 -0.23515 0.267762
-0.175275 -0.241812 0.267852
-0.16716 -0.241598 0.26785
-0.156364 -0.241314 0.267847
-0.156034 -0.2464 0.25198
0.183685 -0.232344 0.26776
-0.155774 -0.240735 0.261317
0.145762 -0.23934 0.24086
-0.186116 -0.236807 0.267854
0.176181 -0.227459 0.267762
0.0259535 -0.22875 0.2678
0.0337157 -0.228552 0.267798
0.147128 -0.22956 0.255208
0.148556 -0.225622 0.267769
0.158621 -0.225365 0.267766
-0.175275 -0.231241 0.267852
-0.16716 -0.231037 0.26785
-0.156364 -0.230764 0.267847
-0.00522997 -0.226952 0.267808
0.0025862 -0.226755 0.267806
0.0129867 -0.226492 0.267803
0.0440443 -0.225709 0.267795
0.0543491 -0.225449 0.267793
0.0646303 -0.22519 0.26779
0.183685 -0.222186 0.26776
-0.153042 -0.230012 0.261363
-0.154386 -0.233957 0.24848
-0.0182872 -0.224684 0.267811
0.0748878 -0.22236 0.267788
-0.188831 -0.22629 0.267855
-0.154369 -0.233895 0.239671
-0.0313825 -0.222409 0.267814
0.0233632 -0.22106 0.267801
0.0337157 -0.220804 0.267798
0.0825654 -0.2196 0.267785
0.168664 -0.217478 0.267764
-0.100096 -0.221482 0.267832
-0.0921139 -0.221287 0.26783
-0.0392579 -0.22 0.267816
0.0646303 -0.217469 0.26779
0.0927818 -0.216783 0.267783
0.143514 -0.215547 0.26777
0.153591 -0.215302 0.267767
-0.180692 -0.220801 0.267853
-0.169864 -0.22054 0.26785
-0.161759 -0.220345 0.267848
-0.150975 -0.220085 0.267845
-0.0814932 -0.218413 0.267828
-0.0708974 -0.218158 0.267825
-0.0603263 -0.217903 0.267822
-0.0524141 -0.217713 0.26782
-0.0209032 -0.216954 0.267812
-0.0104483 -0.216703 0.267809
-1.771e-05 -0.216452 0.267806
0.00778946 -0.216264 0.267805
0.0440443 -0.215391 0.267795
0.0543491 -0.215143 0.267793
0.102975 -0.213972 0.267781
0.178684 -0.21215 0.267761
0.188681 -0.211909 0.267758
-0.150089 -0.224187 0.244502
-0.108092 -0.21643 0.267834
0.0748878 -0.212078 0.267788
0.0825654 -0.211895 0.267785
0.151571 -0.356714 -0.238089
0.160136 -0.356511 -0.238092
0.168691 -0.356307 -0.238094
-0.188831 -0.215703 0.267855
-0.0524141 -0.212498 0.26782
-0.0418861 -0.212251 0.267817
-0.0313825 -0.212004 0.267814
0.0181779 -0.21084 0.267802
0.0285424 -0.210596 0.267799
0.113144 -0.208608 0.267778
0.133414 -0.208132 0.267773
0.161134 -0.207481 0.267766
0.168664 -0.207304 0.267764
-0.164459 -0.212491 0.267849
-0.156364 -0.212303 0.267847
-0.145592 -0.212053 0.267844
-0.121449 -0.211493 0.267838
-0.100096 -0.210997 0.267832
-0.0921139 -0.210812 0.26783
-0.0814932 -0.210566 0.267828
-0.0708974 -0.21032 0.267825
-0.0603263 -0.210074 0.267822
0.0517751 -0.207473 0.267793
0.0594927 -0.207294 0.267791
0.0927818 -0.206521 0.267783
0.102975 -0.206285 0.267781
0.123291 -0.205813 0.267775
0.143514 -0.205344 0.26777
-0.180692 -0.210224 0.267853
-0.134846 -0.209173 0.267842
-0.0209032 -0.206561 0.267812
-0.0104483 -0.206322 0.267809
-1.771e-05 -0.206083 0.267806
0.00778946 -0.205904 0.267805
0.0388829 -0.205191 0.267797
0.178684 -0.201987 0.267761
0.188681 -0.201758 0.267758
-0.11076 -0.205996 0.267835
0.069762 -0.201911 0.267789
0.0800077 -0.201679 0.267786
0.113144 -0.200929 0.267778
0.133414 -0.200471 0.267773
-0.188831 -0.205117 0.267855
-0.0708974 -0.202482 0.267825
-0.0603262 -0.202245 0.267822
-0.0524141 -0.202069 0.26782
-0.0418861 -0.201834 0.267817
-0.0313825 -0.201599 0.267815
0.0181779 -0.200492 0.267802
0.0285424 -0.20026 0.267799
0.153591 -0.197466 0.267767
0.163645 -0.197241 0.267765
-0.180692 -0.202291 0.267853
-0.169864 -0.202052 0.26785
-0.161759 -0.201873 0.267848
-0.150975 -0.201635 0.267845
-0.140216 -0.201398 0.267843
-0.132164 -0.20122 0.267841
-0.121449 -0.200984 0.267838
-0.100096 -0.200513 0.267832
-0.0921139 -0.200337 0.26783
-0.0814932 -0.200103 0.267828
0.0388829 -0.197448 0.267797
0.0491997 -0.19722 0.267794
0.0594927 -0.196993 0.267791
0.0876765 -0.196372 0.267784
0.0978812 -0.196147 0.267782
0.123291 -0.195586 0.267775
0.143514 -0.19514 0.26777
-0.0209032 -0.196168 0.267812
-0.0104483 -0.195941 0.267809
-1.76951e-05 -0.195714 0.267807
0.00778946 -0.195544 0.267805
0.173677 -0.191933 0.267762
0.183685 -0.191715 0.26776
-0.188831 -0.197177 0.267855
-0.11076 -0.1955 0.267835
0.0311298 -0.192452 0.267799
0.069762 -0.191623 0.267789
0.0800077 -0.191403 0.267786
0.108063 -0.1908 0.267779
0.133414 -0.190256 0.267773
-0.0921139 -0.192481 0.26783
-0.0814932 -0.192255 0.267828
-0.0708974 -0.192031 0.267825
-0.0603262 -0.191807 0.267822
-0.0524141 -0.191639 0.26782
-0.0418861 -0.191416 0.267817
-0.0313825 -0.191194 0.267815
0.0181779 -0.190144 0.267802
0.143514 -0.187488 0.26777
0.153591 -0.187274 0.267767
0.163645 -0.187061 0.267765
-0.180692 -0.191713 0.267853
-0.169864 -0.191487 0.26785
-0.161759 -0.191318 0.267848
-0.150975 -0.191092 0.267845
-0.140216 -0.190867 0.267843
-0.132164 -0.190699 0.267841
-0.121449 -0.190475 0.267838
-0.100096 -0.190029 0.267832
0.038883 -0.187124 0.267797
0.0491997 -0.186908 0.267794
0.0594927 -0.186693 0.267791
0.0876765 -0.186104 0.267784
0.0978812 -0.185891 0.267781
0.11822 -0.185466 0.267776
-0.0209032 -0.185775 0.267812
-0.0104483 -0.18556 0.267809
-1.76951e-05 -0.185345 0.267807
0.00778946 -0.185184 0.267805
0.173677 -0.181764 0.267762
0.183685 -0.181558 0.26776
-0.188831 -0.18659 0.267855
-0.11076 -0.185003 0.267835
0.0181779 -0.182383 0.267802
0.0285424 -0.182172 0.267799
0.069762 -0.181334 0.267789
0.0800077 -0.181126 0.267786
0.108063 -0.180556 0.267779
0.128355 -0.180143 0.267774
-0.100096 -0.182165 0.267832
-0.0921139 -0.182005 0.26783
-0.0814932 -0.181793 0.267828
-0.0708974 -0.18158 0.267825
-0.0603262 -0.181368 0.267822
-0.0524141 -0.18121 0.26782
-0.0418861 -0.180999 0.267817
-0.0313825 -0.180789 0.267815
0.138467 -0.177386 0.267771
0.148556 -0.177183 0.267769
0.158621 -0.176982 0.267766
-0.180692 -0.181136 0.267853
-0.169864 -0.180922 0.26785
-0.161759 -0.180762 0.267848
-0.150975 -0.180549 0.267845
-0.140216 -0.180337 0.267843
-0.132164 -0.180178 0.267841
-0.121449 -0.179966 0.267838
0.00518861 -0.177465 0.267805
0.038883 -0.1768 0.267797
0.0491997 -0.176596 0.267794
0.0594927 -0.176393 0.267791
0.0876765 -0.175836 0.267784
0.0978812 -0.175635 0.267781
0.11822 -0.175233 0.267776
-0.11076 -0.177131 0.267835
-0.0209032 -0.175382 0.267812
-0.0104483 -0.175179 0.267809
0.128355 -0.172478 0.267774
0.168664 -0.171693 0.267764
0.178684 -0.171498 0.267761
0.188681 -0.171304 0.267758
-0.188831 -0.176003 0.267855
0.0129867 -0.172134 0.267803
0.0233632 -0.171935 0.267801
0.069762 -0.171046 0.267789
0.0800077 -0.170849 0.267786
0.108063 -0.170312 0.267779
-0.142903 -0.172489 0.267843
-0.134846 -0.172337 0.267841
-0.126803 -0.172185 0.267839
-0.100096 -0.171681 0.267832
-0.0921139 -0.17153 0.26783
-0.0814932 -0.17133 0.267828
-0.0708974 -0.17113 0.267825
-0.0603262 -0.17093 0.267822
-0.0524141 -0.170781 0.26782
-0.0418861 -0.170582 0.267817
-0.0313825 -0.170384 0.267815
0.138467 -0.167176 0.267771
0.148556 -0.166986 0.267769
0.158621 -0.166796 0.267766
-0.180692 -0.170559 0.267853
-0.169864 -0.170357 0.26785
-0.161759 -0.170207 0.267848
-0.0156727 -0.16749 0.267811
-0.00523001 -0.167296 0.267808
0.00258622 -0.167151 0.267806
0.0337157 -0.166572 0.267798
0.0440443 -0.16638 0.267796
0.0543491 -0.166188 0.267793
0.0876765 -0.165569 0.267784
0.0978812 -0.165379 0.267781
0.11822 -0.165001 0.267776
-0.116101 -0.166732 0.267837
0.128355 -0.162257 0.267774
0.168664 -0.161519 0.267764
0.178684 -0.161335 0.267761
0.188681 -0.161152 0.267758
-0.0261398 -0.162485 0.267813
0.0129867 -0.16178 0.267803
0.0233632 -0.161593 0.267801
0.0646303 -0.16085 0.26779
0.0748878 -0.160665 0.267788
0.108063 -0.160067 0.267779
-0.172568 -0.162482 0.267851
-0.16716 -0.162386 0.26785
-0.156364 -0.162194 0.267846
-0.145592 -0.162003 0.267844
-0.134846 -0.161813 0.267841
-0.126803 -0.16167 0.267839
-0.105425 -0.161291 0.267833
-0.0974336 -0.16115 0.267832
-0.0868005 -0.160961 0.267829
-0.0761922 -0.160773 0.267827
-0.0656087 -0.160585 0.267824
-0.0550499 -0.160398 0.267821
-0.047147 -0.160258 0.267819
-0.0366312 -0.160072 0.267816
0.11822 -0.157326 0.267776
0.138467 -0.156967 0.267771
0.148556 -0.156788 0.267769
0.158621 -0.15661 0.267766
-0.186116 -0.160076 0.267854
-0.0156727 -0.157103 0.267811
-0.00522999 -0.156921 0.267808
0.00258622 -0.156785 0.267806
0.0337157 -0.156242 0.267798
0.0440443 -0.156062 0.267796
0.0543491 -0.155882 0.267793
0.0825655 -0.15539 0.267785
0.0927818 -0.155212 0.267783
-0.116101 -0.156229 0.267837
0.102975 -0.152471 0.26778
0.128355 -0.152036 0.267774
0.168664 -0.151344 0.267764
0.178684 -0.151173 0.267761
0.188681 -0.151001 0.267758
-0.0497797 -0.152485 0.26782
-0.0418861 -0.152352 0.267817
-0.0313824 -0.152175 0.267815
0.0129867 -0.151426 0.267803
0.0233632 -0.151251 0.267801
0.0646303 -0.150555 0.26779
0.0748878 -0.150382 0.267788
-0.183404 -0.152093 0.267854
-0.175275 -0.151959 0.267852
-0.16716 -0.151824 0.26785
-0.156364 -0.151645 0.267846
-0.145592 -0.151467 0.267844
-0.134846 -0.151288 0.267841
-0.126803 -0.151155 0.267839
-0.105425 -0.150801 0.267833
-0.0974336 -0.150668 0.267832
-0.0868005 -0.150492 0.267829
-0.0761922 -0.150316 0.267827
-0.0656087 -0.150141 0.267824
0.0953322 -0.147473 0.267782
0.113144 -0.147178 0.267778
0.138467 -0.146758 0.267771
0.148556 -0.146591 0.267769
0.158621 -0.146424 0.267766
-0.0209032 -0.146801 0.267812
-0.0104483 -0.146631 0.267809
-1.76951e-05 -0.146461 0.267807
0.0337157 -0.145912 0.267798
0.0440443 -0.145743 0.267796
0.0543491 -0.145576 0.267793
0.0825655 -0.145116 0.267785
-0.116101 -0.145726 0.267837
0.102975 -0.142221 0.26778
0.123291 -0.141896 0.267775
0.168664 -0.14117 0.267764
0.178684 -0.14101 0.267761
0.188681 -0.14085 0.267758
-0.0761922 -0.142474 0.267827
-0.0656087 -0.142307 0.267824
-0.0550499 -0.142141 0.267821
-0.047147 -0.142017 0.267819
-0.0366312 -0.141852 0.267816
0.00778948 -0.141154 0.267805
0.0181779 -0.140991 0.267802
0.0646303 -0.140261 0.26779
0.0748878 -0.1401 0.267788
-0.186116 -0.141555 0.267854
-0.175275 -0.141388 0.267852
-0.16716 -0.141262 0.26785
-0.156364 -0.141096 0.267846
-0.145592 -0.14093 0.267844
-0.134846 -0.140764 0.267841
-0.126803 -0.14064 0.267839
-0.105425 -0.14031 0.267833
-0.0974336 -0.140187 0.267832
-0.0868005 -0.140023 0.267829
0.0825655 -0.137411 0.267785
0.0927818 -0.137253 0.267783
0.113144 -0.136939 0.267778
0.133414 -0.136627 0.267773
0.143514 -0.136471 0.26777
0.153591 -0.136315 0.267767
0.198656 -0.13562 0.267756
-0.0261398 -0.136488 0.267813
-0.0156727 -0.136329 0.267811
-0.00522999 -0.136171 0.267808
0.0285424 -0.13566 0.267799
0.038883 -0.135503 0.267797
0.0491997 -0.135347 0.267794
-0.116101 -0.135223 0.267837
0.069762 -0.132464 0.267789
0.102975 -0.131971 0.26778
0.123291 -0.131669 0.267775
0.163645 -0.13107 0.267765
0.173677 -0.130921 0.267762
0.183685 -0.130773 0.26776
-0.105425 -0.132442 0.267833
-0.0974336 -0.132326 0.267832
-0.0868005 -0.132171 0.267829
-0.0761922 -0.132017 0.267827
-0.0656087 -0.131863 0.267824
-0.0550499 -0.131709 0.267821
-0.047147 -0.131594 0.267819
-0.0366312 -0.131441 0.267816
0.00258623 -0.13087 0.267806
0.0129867 -0.130718 0.267803
0.0594927 -0.130041 0.267791
-0.186116 -0.130971 0.267854
-0.175275 -0.130817 0.267852
-0.16716 -0.130701 0.26785
-0.156364 -0.130547 0.267846
-0.145592 -0.130393 0.267844
-0.134846 -0.13024 0.267841
-0.126803 -0.130125 0.267839
0.0800077 -0.127174 0.267786
0.0876766 -0.127064 0.267784
0.113144 -0.126701 0.267778
0.133414 -0.126411 0.267773
0.143514 -0.126267 0.26777
0.153591 -0.126124 0.267767
0.193671 -0.125552 0.267757
-0.116101 -0.127346 0.267837
-0.0261398 -0.126089 0.267813
-0.0156727 -0.125942 0.267811
-0.00522999 -0.125796 0.267808
0.0233632 -0.125396 0.267801
0.0337157 -0.125252 0.267798
0.0440443 -0.125107 0.267796
0.0543491 -0.122387 0.267793
0.0646303 -0.122246 0.26779
0.0978812 -0.121791 0.267781
0.123291 -0.121443 0.267775
0.163645 -0.12089 0.267765
0.173677 -0.120753 0.267762
0.183685 -0.120616 0.26776
-0.145592 -0.12249 0.267844
-0.134846 -0.122346 0.267841
-0.126803 -0.122238 0.267839
-0.105425 -0.121952 0.267833
-0.0974336 -0.121845 0.267832
-0.0868005 -0.121702 0.267829
-0.0761922 -0.12156 0.267827
-0.0656087 -0.121418 0.267824
-0.0550499 -0.121277 0.267821
-0.047147 -0.121171 0.267819
-0.0366312 -0.12103 0.267816
0.00258623 -0.120504 0.267806
0.0129867 -0.120365 0.267803
-0.186116 -0.120388 0.267854
-0.175275 -0.120245 0.267852
-0.16716 -0.120139 0.26785
-0.156364 -0.119998 0.267846
0.0363001 -0.11747 0.267797
0.0440443 -0.117369 0.267796
0.0748878 -0.116964 0.267788
0.0825655 -0.116863 0.267785
0.108063 -0.116529 0.267779
0.133414 -0.116196 0.267773
0.143514 -0.116064 0.26777
0.153591 -0.115932 0.267767
0.193671 -0.115406 0.267757
-0.116101 -0.116844 0.267837
-0.0261398 -0.11569 0.267813
-0.0156727 -0.115555 0.267811
-0.00522999 -0.115421 0.267808
0.0233632 -0.115054 0.267801
0.0543491 -0.11208 0.267793
0.0646303 -0.111951 0.26779
0.0927818 -0.111598 0.267783
0.11822 -0.111279 0.267776
0.163645 -0.11071 0.267765
0.173677 -0.110584 0.267762
0.183685 -0.110458 0.26776
-0.186116 -0.11245 0.267854
-0.175275 -0.112317 0.267852
-0.16716 -0.112218 0.26785
-0.156364 -0.112086 0.267846
-0.145592 -0.111953 0.267844
-0.134846 -0.111822 0.267841
-0.126803 -0.111723 0.267839
-0.105425 -0.111461 0.267834
-0.0974336 -0.111363 0.267832
-0.0868005 -0.111233 0.267829
-0.0761922 -0.111103 0.267827
-0.0656087 -0.110974 0.267824
-0.0550499 -0.110844 0.267821
-0.047147 -0.110747 0.267819
-0.0366312 -0.110619 0.267816
0.00258623 -0.110138 0.267806
0.0129867 -0.110011 0.267803
0.0233632 -0.107298 0.267801
0.0337157 -0.107174 0.267798
0.0440443 -0.10705 0.267796
0.0748878 -0.106681 0.267788
0.0825655 -0.10659 0.267785
0.102975 -0.106345 0.26778
0.128355 -0.106042 0.267774
0.138467 -0.105921 0.267771
0.148556 -0.1058 0.267769
0.193671 -0.10526 0.267757
-0.116101 -0.106341 0.267837
-0.0261398 -0.10529 0.267813
-0.0156727 -0.105168 0.267811
-0.00522999 -0.105046 0.267808
0.00258623 -0.102364 0.267806
0.0129867 -0.102245 0.267803
0.0543491 -0.101774 0.267793
0.0646303 -0.101657 0.26779
0.0927818 -0.101336 0.267783
0.113144 -0.101105 0.267778
0.158621 -0.100587 0.267766
0.168664 -0.100472 0.267764
0.178684 -0.100358 0.267761
-0.186116 -0.101867 0.267854
-0.175275 -0.101746 0.267852
-0.16716 -0.101656 0.26785
-0.156364 -0.101536 0.267846
-0.145592 -0.101417 0.267844
-0.134846 -0.101297 0.267841
-0.126803 -0.101208 0.267839
-0.105425 -0.100971 0.267834
-0.0974336 -0.100882 0.267832
-0.0868005 -0.100764 0.267829
-0.0761922 -0.100646 0.267827
-0.0656087 -0.100529 0.267824
-0.0550499 -0.100412 0.267821
-0.047147 -0.100324 0.267819
-0.0366312 -0.100207 0.267816
0.208565 -0.101506 0.237998
-0.0261398 -0.0974912 0.267813
-0.0156727 -0.0973779 0.267811
-0.00522999 -0.0972651 0.267808
0.0233632 -0.096956 0.267801
0.0337157 -0.0968441 0.267798
0.0440443 -0.0967324 0.267796
0.0748878 -0.096399 0.267788
0.0825655 -0.096316 0.267785
0.102975 -0.0960953 0.26778
0.123291 -0.0958757 0.267775
0.133414 -0.0957662 0.267773
0.143514 -0.0956571 0.26777
0.188681 -0.0951687 0.267759
0.198656 -0.0950609 0.267756
-0.116101 -0.095838 0.267837
-0.0445158 -0.0924797 0.267818
-0.0366312 -0.092399 0.267816
0.00258623 -0.0919977 0.267806
0.0129867 -0.0918912 0.267803
0.0543491 -0.0914679 0.267793
0.0646303 -0.0913627 0.26779
0.0927818 -0.0910746 0.267783
0.113144 -0.0908662 0.267778
0.153591 -0.0904522 0.267767
0.163645 -0.0903493 0.267765
0.173677 -0.0902467 0.267762
-0.186116 -0.091283 0.267854
-0.175275 -0.0911751 0.267852
-0.16716 -0.0910944 0.26785
-0.156364 -0.0909871 0.267846
-0.145592 -0.0908799 0.267844
-0.134846 -0.0907731 0.267841
-0.126803 -0.090693 0.267839
-0.105425 -0.0904804 0.267834
-0.0974336 -0.0904009 0.267832
-0.0868005 -0.0902952 0.267829
-0.0761922 -0.0901896 0.267827
-0.0656087 -0.0900844 0.267824
-0.0550499 -0.0899794 0.267821
0.196164 -0.0874808 0.267756
0.203634 -0.0874065 0.267755
-0.0261398 -0.0870921 0.267813
-0.0156727 -0.086991 0.267811
-0.00522999 -0.0868902 0.267808
0.0233632 -0.086614 0.267801
0.0337157 -0.086514 0.267798
0.0440443 -0.0864142 0.267796
0.0748878 -0.0861164 0.267788
0.0825655 -0.0860423 0.267785
0.102975 -0.0858452 0.26778
0.123291 -0.0856489 0.267775
0.133414 -0.0855512 0.267773
0.143514 -0.0854537 0.26777
0.183685 -0.0850657 0.26776
-0.116101 -0.0853352 0.267837
-0.0921139 -0.0824917 0.26783
-0.0814932 -0.0823952 0.267828
-0.0708974 -0.082299 0.267825
-0.0603263 -0.082203 0.267822
-0.0524141 -0.0821311 0.26782
-0.0418861 -0.0820356 0.267817
0.00258624 -0.0816317 0.267806
0.0129867 -0.0815373 0.267803
0.0543491 -0.0811617 0.267793
0.0646303 -0.0810683 0.26779
0.0927818 -0.0808126 0.267783
0.113144 -0.0806277 0.267778
0.153591 -0.0802604 0.267767
0.163645 -0.0801691 0.267765
0.173677 -0.080078 0.267762
-0.186116 -0.0806994 0.267854
-0.175275 -0.0806041 0.267852
-0.16716 -0.0805328 0.26785
-0.156364 -0.0804379 0.267846
-0.145592 -0.0803431 0.267844
-0.134846 -0.0802487 0.267841
-0.126803 -0.0801779 0.267839
-0.105425 -0.07999 0.267834
0.183685 -0.0774478 0.26776
0.193671 -0.07736 0.267757
0.203634 -0.0772724 0.267755
-0.116101 -0.0774581 0.267837
-0.0313824 -0.0767377 0.267815
-0.0209032 -0.0766485 0.267812
-0.0104483 -0.0765596 0.267809
0.0233632 -0.0762721 0.267801
0.0337157 -0.076184 0.267798
0.0440443 -0.0760961 0.267796
0.0748878 -0.0758338 0.267788
0.0825655 -0.0757686 0.267785
0.102975 -0.075595 0.26778
0.123291 -0.0754222 0.267775
0.133414 -0.0753361 0.267773
0.143514 -0.0752502 0.26777
0.168664 -0.0724927 0.267764
-0.150975 -0.0724832 0.267845
-0.140216 -0.0723979 0.267843
-0.132164 -0.0723341 0.267841
-0.105425 -0.0721221 0.267834
-0.0974336 -0.0720587 0.267832
-0.0868005 -0.0719744 0.267829
-0.0761922 -0.0718903 0.267826
-0.0656087 -0.0718064 0.267824
-0.0550499 -0.0717227 0.267821
-0.047147 -0.0716601 0.267819
-1.76802e-05 -0.0712864 0.267807
0.00778948 -0.0712245 0.267805
0.0543491 -0.0708554 0.267793
0.0646303 -0.0707739 0.26779
0.0927818 -0.0705507 0.267783
0.113144 -0.0703893 0.267778
0.153591 -0.0700686 0.267767
-0.186116 -0.0701159 0.267854
-0.175275 -0.0700331 0.267852
-0.16716 -0.0699711 0.26785
0.178684 -0.067329 0.267761
0.188681 -0.0672526 0.267759
0.198656 -0.0671764 0.267756
0.208608 -0.0671004 0.267753
-0.121449 -0.0669946 0.267838
-0.0366312 -0.0663711 0.267816
-0.0261398 -0.066294 0.267813
-0.0156727 -0.066217 0.267811
0.0181779 -0.0659682 0.267802
0.0285424 -0.065892 0.267799
0.038883 -0.065816 0.267797
0.0748878 -0.0655513 0.267788
0.0825655 -0.0654949 0.267785
0.102975 -0.0653448 0.26778
0.123291 -0.0651955 0.267775
0.133414 -0.065121 0.267773
0.143514 -0.0650468 0.26777
0.153591 -0.0624248 0.267767
0.163645 -0.0623537 0.267765
-0.186116 -0.0621783 0.267854
-0.175275 -0.0621048 0.267852
-0.16716 -0.0620498 0.26785
-0.156364 -0.0619767 0.267847
-0.145592 -0.0619037 0.267844
-0.134846 -0.0618309 0.267841
-0.11076 -0.0616677 0.267835
-0.100096 -0.0615955 0.267832
-0.0921139 -0.0615414 0.26783
-0.0814932 -0.0614694 0.267828
-0.0708974 -0.0613977 0.267825
-0.0603263 -0.061326 0.267822
-0.052414 -0.0612724 0.267821
-0.00522999 -0.0609528 0.267808
0.00258624 -0.0608998 0.267806
0.0491997 -0.060584 0.267794
0.0594927 -0.0605143 0.267791
0.0927818 -0.0602888 0.267783
0.113144 -0.0601508 0.267778
0.128355 -0.0574926 0.267774
0.138467 -0.057427 0.267771
0.173677 -0.0571986 0.267762
0.183685 -0.0571337 0.26776
0.193671 -0.0570689 0.267757
0.203634 -0.0570042 0.267755
-0.126803 -0.0565189 0.267839
-0.0418861 -0.0559926 0.267817
-0.0313824 -0.0559274 0.267815
-0.0209032 -0.0558625 0.267812
0.0129867 -0.0556524 0.267803
0.0233632 -0.0555881 0.267801
0.0337157 -0.0555239 0.267798
0.069762 -0.0553005 0.267789
0.0800077 -0.055237 0.267786
0.102975 -0.0550947 0.26778
0.113144 -0.052472 0.267778
0.148556 -0.0522627 0.267769
0.158621 -0.0522033 0.267766
-0.186116 -0.0515947 0.267854
-0.175275 -0.0515338 0.267852
-0.16716 -0.0514882 0.26785
-0.156364 -0.0514275 0.267847
-0.145592 -0.0513669 0.267844
-0.134846 -0.0513065 0.267841
-0.116101 -0.0512011 0.267837
-0.105425 -0.0511411 0.267834
-0.0974336 -0.0510962 0.267832
-0.0868005 -0.0510364 0.267829
-0.0761922 -0.0509768 0.267826
-0.0656087 -0.0509173 0.267824
-0.0550499 -0.0508579 0.267821
-0.0104483 -0.0506072 0.26781
-1.76802e-05 -0.0505486 0.267807
0.0440443 -0.0503008 0.267796
0.0543491 -0.0502429 0.267793
0.0876765 -0.0500556 0.267784
0.0978812 -0.0474342 0.267782
0.123291 -0.0472987 0.267775
0.133414 -0.0472447 0.267773
0.168664 -0.0470567 0.267764
0.178684 -0.0470033 0.267761
0.188681 -0.0469499 0.267759
0.198656 -0.0468967 0.267756
0.208608 -0.0468437 0.267753
-0.126803 -0.0460037 0.267839
-0.047147 -0.0456018 0.267819
-0.0366312 -0.0455488 0.267816
-0.0261398 -0.0454959 0.267813
0.00778948 -0.0453247 0.267805
0.0181779 -0.0452723 0.267802
0.0285424 -0.04522 0.267799
0.0646303 -0.0450379 0.26779
0.0748878 -0.0449862 0.267788
0.0825654 -0.042379 0.267786
0.108063 -0.0422577 0.267779
0.143514 -0.0420891 0.26777
0.153591 -0.0420412 0.267767
-0.186116 -0.0410112 0.267854
-0.175275 -0.0409627 0.267852
-0.16716 -0.0409265 0.26785
-0.156364 -0.0408782 0.267847
-0.145592 -0.0408301 0.267844
-0.134846 -0.0407821 0.267841
-0.116101 -0.0406983 0.267837
-0.105425 -0.0406506 0.267834
-0.0974336 -0.0406149 0.267832
-0.0868005 -0.0405674 0.267829
-0.0761922 -0.04052 0.267826
-0.0656087 -0.0404727 0.267824
-0.0550499 -0.0404255 0.267821
-0.0156727 -0.0402495 0.267811
-0.00522999 -0.0402029 0.267808
0.038883 -0.0400058 0.267797
0.0491997 -0.0399597 0.267794
0.0233632 -0.0374897 0.267801
0.0594927 -0.0373386 0.267791
0.069762 -0.0372957 0.267789
0.0927818 -0.0371995 0.267783
0.11822 -0.0370931 0.267776
0.128355 -0.0370508 0.267774
0.163645 -0.0369032 0.267765
0.173677 -0.0368613 0.267762
0.183685 -0.0368195 0.26776
0.193671 -0.0367777 0.267757
0.203634 -0.0367361 0.267755
-0.126803 -0.0354886 0.267839
-0.047147 -0.0351786 0.267819
-0.0366312 -0.0351377 0.267816
-0.0261398 -0.0350968 0.267813
0.00258624 -0.034985 0.267806
0.0129867 -0.0349445 0.267803
-0.0156727 -0.0324593 0.267811
-0.00522999 -0.0324217 0.267808
0.0337157 -0.0322814 0.267798
0.0440443 -0.0322441 0.267796
0.0800077 -0.0321145 0.267786
0.102975 -0.0320318 0.26778
0.138467 -0.0319039 0.267771
0.148556 -0.0318675 0.267769
-0.186116 -0.0304277 0.267854
-0.175275 -0.0303917 0.267852
-0.16716 -0.0303648 0.26785
-0.156364 -0.030329 0.267847
-0.145592 -0.0302933 0.267844
-0.134846 -0.0302577 0.267841
-0.116101 -0.0301955 0.267837
-0.105425 -0.0301602 0.267834
-0.0974336 -0.0301337 0.267832
-0.0868005 -0.0300984 0.267829
-0.0761922 -0.0300632 0.267826
-0.0656087 -0.0300281 0.267824
-0.0550499 -0.0299931 0.267821
-0.047147 -0.0273611 0.267819
-0.0366312 -0.0273293 0.267816
-0.0261398 -0.0272975 0.267813
0.00258624 -0.0272106 0.267806
0.0129867 -0.0271791 0.267803
0.0233632 -0.0271477 0.267801
0.0543491 -0.0270539 0.267793
0.0646303 -0.0270228 0.26779
0.0876765 -0.026953 0.267784
0.113144 -0.0268759 0.267778
0.123291 -0.0268452 0.267775
0.158621 -0.0267383 0.267766
0.168664 -0.0267079 0.267764
0.178684 -0.0266775 0.267761
0.188681 -0.0266473 0.267759
0.198656 -0.0266171 0.267756
0.208608 -0.0265869 0.267753
-0.126803 -0.0249735 0.267839
-0.188831 -0.0224967 0.267855
-0.180692 -0.0224767 0.267853
-0.169864 -0.0224502 0.26785
-0.161759 -0.0224303 0.267848
-0.150975 -0.0224039 0.267846
-0.140216 -0.0223775 0.267843
-0.116101 -0.0223184 0.267837
-0.105425 -0.0222923 0.267834
-0.0974336 -0.0222727 0.267832
-0.0868005 -0.0222466 0.267829
-0.0761922 -0.0222206 0.267826
-0.0656087 -0.0221947 0.267824
-0.0550499 -0.0221688 0.267821
-0.0156727 -0.0220723 0.267811
-0.00522997 -0.0220468 0.267808
0.0337157 -0.0219513 0.267798
0.0440443 -0.021926 0.267796
0.0748878 -0.0218504 0.267788
0.0978812 -0.0217941 0.267782
0.133414 -0.021707 0.267773
0.143514 -0.0216823 0.26777
-0.132164 -0.0170971 0.267841
-0.047147 -0.0169378 0.267819
-0.0366312 -0.0169181 0.267816
-0.0261398 -0.0168985 0.267813
0.00258624 -0.0168446 0.267806
0.0129867 -0.0168251 0.267803
0.0233632 -0.0168057 0.267801
0.0543491 -0.0167476 0.267793
0.0646303 -0.0167284 0.26779
0.0825654 -0.0166948 0.267786
0.108063 -0.016647 0.267779
0.11822 -0.016628 0.267776
0.153591 -0.0165617 0.267767
0.163645 -0.0165428 0.267765
0.173677 -0.016524 0.267762
0.183685 -0.0165053 0.26776
0.193671 -0.0164866 0.267757
0.203634 -0.0164679 0.267755
-0.188831 -0.01191 0.267855
-0.180692 -0.0118994 0.267853
-0.169864 -0.0118854 0.26785
-0.161759 -0.0118749 0.267848
-0.150975 -0.0118609 0.267846
-0.140216 -0.0118469 0.267843
-0.121449 -0.0118226 0.267838
-0.11076 -0.0118087 0.267835
-0.100096 -0.0117949 0.267832
-0.0921139 -0.0117845 0.26783
-0.0814932 -0.0117707 0.267828
-0.0708974 -0.011757 0.267825
-0.0603263 -0.0117433 0.267822
-0.0156727 -0.0116854 0.267811
-0.00522997 -0.0116718 0.267808
0.0337157 -0.0116213 0.267798
0.0440443 -0.0116079 0.267796
0.0748878 -0.0115679 0.267788
0.0927818 -0.0115447 0.267783
0.128355 -0.0114985 0.267774
0.138467 -0.0114854 0.267771
-0.132164 -0.00657583 0.267841
-0.0524141 -0.00651835 0.26782
-0.0418861 -0.00651077 0.267817
-0.0313824 -0.00650319 0.267815
0.00258624 -0.00647871 0.267806
0.0129867 -0.00647121 0.267803
0.0233632 -0.00646374 0.267801
0.0543491 -0.00644141 0.267793
0.0646303 -0.00643399 0.26779
0.0825654 -0.00642107 0.267786
0.102975 -0.00640636 0.26778
0.113144 -0.00639903 0.267778
0.148556 -0.00637351 0.267769
0.158621 -0.00636625 0.267766
0.168664 -0.00635902 0.267763
0.178684 -0.00635179 0.267761
0.188681 -0.00634459 0.267759
0.198656 -0.0063374 0.267756
-0.188831 -0.00132334 0.267855
-0.180692 -0.00132217 0.267853
-0.169864 -0.00132061 0.26785
-0.161759 -0.00131944 0.267848
-0.150975 -0.00131788 0.267846
-0.140216 -0.00131633 0.267843
-0.121449 -0.00131363 0.267838
-0.11076 -0.00131209 0.267835
-0.100096 -0.00131055 0.267832
-0.0921139 -0.0013094 0.26783
-0.0814932 -0.00130787 0.267828
-0.0708974 -0.00130634 0.267825
-0.0603263 -0.00130482 0.267822
-0.0209032 -0.00129914 0.267812
-0.0104483 -0.00129763 0.26781
0.0337157 -0.00129126 0.267798
0.0440443 -0.00128977 0.267796
0.0748878 -0.00128533 0.267788
0.0927818 -0.00128275 0.267783
0.123291 -0.00127835 0.267775
0.133414 -0.00127689 0.267773
-0.132164 0.00394548 0.267841
-0.0524141 0.00391099 0.26782
-0.0418861 0.00390644 0.267817
-0.0313824 0.0039019 0.267815
-1.76802e-05 0.00388834 0.267807
0.00778948 0.00388496 0.267805
0.018178 0.00388047 0.267802
0.0543491 0.00386483 0.267793
0.0646303 0.00386038 0.26779
0.0825654 0.00385263 0.267786
0.102975 0.0038438 0.26778
0.113144 0.0038394 0.267778
0.143514 0.00382627 0.26777
0.153591 0.00382191 0.267767
0.163645 0.00381756 0.267765
0.173677 0.00381323 0.267762
0.183685 0.0038089 0.26776
0.193671 0.00380458 0.267757
0.203634 0.00380027 0.267755
-0.188831 0.00926331 0.267855
-0.180692 0.0092551 0.267853
-0.169864 0.00924417 0.26785
-0.161759 0.009236 0.267848
-0.150975 0.00922512 0.267846
-0.140216 0.00921426 0.267843
-0.121449 0.00919532 0.267838
-0.11076 0.00918454 0.267835
-0.100096 0.00917378 0.267832
-0.0921139 0.00916573 0.26783
-0.0814932 0.00915501 0.267828
-0.0708974 0.00914432 0.267825
-0.0603263 0.00913365 0.267822
-0.0209032 0.00909387 0.267812
-0.0104483 0.00908332 0.26781
0.0285424 0.00904398 0.2678
0.038883 0.00903355 0.267797
0.0748878 0.00899722 0.267788
0.0927818 0.00897916 0.267783
0.123291 0.00894838 0.267775
0.133414 0.00893817 0.267773
-0.132164 0.0144668 0.267841
-0.0524141 0.0143404 0.26782
-0.0418861 0.0143237 0.267817
-0.0313824 0.014307 0.267815
-1.76802e-05 0.0142573 0.267807
0.00778948 0.0142449 0.267805
0.018178 0.0142284 0.267802
0.0491997 0.0141793 0.267794
0.0594927 0.0141629 0.267791
0.0825654 0.0141264 0.267786
0.102975 0.014094 0.26778
0.113144 0.0140779 0.267778
0.143514 0.0140297 0.26777
0.153591 0.0140137 0.267767
0.163645 0.0139978 0.267765
0.173677 0.0139819 0.267762
0.183685 0.013966 0.26776
0.193671 0.0139502 0.267757
0.203634 0.0139344 0.267755
-0.188831 0.01985 0.267855
-0.180692 0.0198324 0.267853
-0.169864 0.019809 0.26785
-0.161759 0.0197915 0.267848
-0.150975 0.0197682 0.267845
-0.140216 0.0197449 0.267843
-0.121449 0.0197043 0.267838
-0.11076 0.0196812 0.267835
-0.100096 0.0196581 0.267832
-0.0921139 0.0196409 0.26783
-0.0814932 0.0196179 0.267828
-0.0708974 0.019595 0.267825
-0.0603263 0.0195722 0.267822
-0.0209032 0.0194869 0.267812
-0.0104483 0.0194643 0.26781
0.0285424 0.01938 0.2678
0.0388829 0.0193577 0.267797
0.069762 0.0192909 0.267789
0.0927818 0.0192411 0.267783
0.123291 0.0191751 0.267775
0.133414 0.0191533 0.267773
-0.132164 0.0249881 0.267841
-0.0524141 0.0247697 0.26782
-0.0418861 0.0247409 0.267817
-0.0313824 0.0247121 0.267815
-1.76653e-05 0.0246262 0.267807
0.00778948 0.0246048 0.267805
0.018178 0.0245764 0.267802
0.0491997 0.0244914 0.267794
0.0594927 0.0244632 0.267791
0.0800077 0.024407 0.267786
0.102975 0.0243442 0.26778
0.113144 0.0243163 0.267778
0.143514 0.0242331 0.26777
0.153591 0.0242055 0.267767
0.163645 0.024178 0.267765
0.173677 0.0241505 0.267762
0.183685 0.0241231 0.26776
0.193671 0.0240958 0.267757
0.203634 0.0240685 0.267755
-0.188831 0.02779 0.267855
-0.180692 0.0277653 0.267853
-0.169864 0.0277326 0.26785
-0.161759 0.027708 0.267848
-0.150975 0.0276754 0.267845
-0.140216 0.0276428 0.267843
-0.121449 0.027586 0.267838
-0.11076 0.0275537 0.267835
-0.100096 0.0275214 0.267832
-0.0921139 0.030116 0.26783
-0.0814932 0.0300808 0.267828
-0.0708974 0.0300457 0.267825
-0.0603263 0.0300106 0.267822
-0.0209032 0.0298799 0.267812
-0.0104483 0.0298453 0.26781
0.0285424 0.029716 0.2678
0.0388829 0.0296817 0.267797
0.069762 0.0295794 0.267789
0.0876765 0.02952 0.267784
0.123291 0.0294019 0.267775
0.133414 0.0293683 0.267773
-0.132164 0.0328791 0.267841
-0.0524141 0.0325917 0.26782
-0.0418861 0.0325538 0.267817
-0.0313824 0.0325159 0.267815
-1.76653e-05 0.0349951 0.267807
0.00778948 0.0349648 0.267805
0.018178 0.0349243 0.267802
0.0491997 0.0348036 0.267794
0.0594927 0.0347636 0.267791
0.0800077 0.0346837 0.267786
0.0978812 0.0346141 0.267782
0.108063 0.0345745 0.267779
0.143514 0.0344365 0.26777
0.153591 0.0343973 0.267767
0.163645 0.0343582 0.267765
0.173677 0.0343191 0.267762
0.183685 0.0342802 0.26776
0.193671 0.0342413 0.267757
-0.188831 0.0383767 0.267855
-0.180692 0.0383427 0.267853
-0.169864 0.0382974 0.26785
-0.161759 0.0382635 0.267848
-0.150975 0.0382184 0.267845
-0.140216 0.0381735 0.267843
-0.121449 0.038095 0.267838
-0.11076 0.0380503 0.267835
-0.100096 0.0380057 0.267832
-0.0921139 0.0379724 0.26783
-0.0814932 0.037928 0.267828
-0.0708974 0.0378837 0.267825
-0.0603263 0.0378395 0.267822
-0.0209032 0.0376747 0.267812
-0.0104483 0.037631 0.26781
0.0285424 0.040052 0.2678
0.0388829 0.0400058 0.267797
0.069762 0.0398678 0.267789
0.0876765 0.0397878 0.267784
0.11822 0.0396513 0.267777
0.128355 0.039606 0.267774
-0.132164 0.0434004 0.267841
-0.0524141 0.0430211 0.26782
-0.0418861 0.042971 0.267817
-0.0313824 0.0429211 0.267815
-1.76653e-05 0.0427719 0.267807
0.00778948 0.0427347 0.267805
0.018178 0.0426853 0.267802
0.0491997 0.0425377 0.267794
0.0594927 0.0450639 0.267791
0.0800077 0.0449603 0.267786
0.0978812 0.0448702 0.267782
0.108063 0.0448188 0.267779
0.138467 0.0446654 0.267771
0.148556 0.0446145 0.267769
0.158621 0.0445637 0.267766
0.168664 0.0445131 0.267763
0.178684 0.0444625 0.267761
0.188681 0.0444121 0.267759
0.198656 0.0443618 0.267756
-0.188831 0.0489633 0.267855
-0.180692 0.0489199 0.267853
-0.169864 0.0488622 0.26785
-0.161759 0.048819 0.267848
-0.150975 0.0487614 0.267845
-0.140216 0.0487041 0.267843
-0.121449 0.048604 0.267838
-0.11076 0.048547 0.267835
-0.100096 0.0484901 0.267832
-0.0921139 0.0484475 0.26783
-0.0814932 0.0483908 0.267828
-0.0708974 0.0483343 0.267825
-0.0603263 0.048278 0.267822
-0.0209032 0.0480677 0.267812
-0.0104483 0.0480119 0.26781
0.0285424 0.047804 0.2678
0.0388829 0.0477489 0.267797
0.069762 0.0475842 0.267789
0.0876765 0.0500555 0.267784
0.11822 0.0498838 0.267777
0.128355 0.0498269 0.267774
-0.132164 0.0539218 0.267841
-0.0524141 0.0534504 0.26782
-0.0418861 0.0533882 0.267817
-0.0313824 0.0533262 0.267815
-1.76653e-05 0.0531408 0.267807
0.00778948 0.0530946 0.267805
0.018178 0.0530333 0.267802
0.0491997 0.0528499 0.267794
0.0594927 0.0527891 0.267791
0.0800077 0.0526678 0.267786
0.0978812 0.0525622 0.267782
0.108063 0.0525021 0.267779
0.138467 0.0548747 0.267771
0.148556 0.0548121 0.267769
0.158621 0.0547497 0.267766
0.168664 0.0546875 0.267763
0.178684 0.0546254 0.267761
0.188681 0.0545634 0.267759
0.198656 0.0545016 0.267756
-0.188831 0.05955 0.267855
-0.180692 0.0594972 0.267853
-0.169864 0.0594269 0.26785
-0.161759 0.0593744 0.267848
-0.150975 0.0593044 0.267845
-0.140216 0.0592347 0.267843
-0.121449 0.0591129 0.267838
-0.11076 0.0590436 0.267835
-0.100096 0.0589744 0.267832
-0.0921139 0.0589226 0.26783
-0.0814932 0.0588537 0.267828
-0.0708974 0.058785 0.267825
-0.0603263 0.0587164 0.267822
-0.0209032 0.0584607 0.267812
-0.0104483 0.0583929 0.26781
0.0285424 0.05814 0.2678
0.0388829 0.0580729 0.267797
0.069762 0.0578726 0.267789
0.0876765 0.0577564 0.267784
0.11822 0.0575583 0.267777
0.128355 0.0600478 0.267774
-0.132164 0.0644431 0.267841
-0.0524141 0.0638798 0.26782
-0.0418861 0.0638055 0.267817
-0.0313824 0.0637312 0.267815
-1.76653e-05 0.0635097 0.267807
0.00778949 0.0634546 0.267805
0.018178 0.0633812 0.267802
0.0491997 0.0631621 0.267794
0.0594927 0.0630894 0.267791
0.0800077 0.0629445 0.267786
0.0978812 0.0628183 0.267782
0.108063 0.0627464 0.267779
0.138467 0.0625316 0.267771
0.148556 0.0650097 0.267769
0.158621 0.0649358 0.267766
0.168664 0.0648619 0.267763
0.178684 0.0647883 0.267761
0.188681 0.0647147 0.267759
0.198656 0.0646414 0.267756
-0.188831 0.0701366 0.267855
-0.180692 0.0700745 0.267853
-0.169864 0.0699917 0.26785
-0.161759 0.0699299 0.267848
-0.150975 0.0698474 0.267845
-0.140216 0.0697653 0.267843
-0.121449 0.0696219 0.267838
-0.11076 0.0695402 0.267835
-0.100096 0.0694587 0.267832
-0.0921139 0.0693977 0.26783
-0.0814932 0.0693166 0.267828
-0.0708974 0.0692357 0.267825
-0.0603263 0.0691549 0.267822
-0.0209032 0.0688537 0.267812
-0.0104483 0.0687738 0.26781
0.0285424 0.068476 0.2678
0.0388829 0.068397 0.267797
0.069762 0.0681611 0.267789
0.0876765 0.0680242 0.267784
0.11822 0.0677909 0.267777
0.128355 0.0677135 0.267774
-0.132164 0.0749644 0.267841
-0.0524141 0.0743091 0.26782
-0.0418861 0.0742227 0.267817
-0.0313824 0.0741363 0.267815
-1.76653e-05 0.0738786 0.267807
0.00778949 0.0738145 0.267805
0.018178 0.0737291 0.267802
0.0491997 0.0734743 0.267794
0.0594927 0.0733897 0.267791
0.0800077 0.0732211 0.267786
0.0978812 0.0730743 0.267782
0.108063 0.0729907 0.267779
0.138467 0.0727408 0.267771
0.148556 0.0726579 0.267769
0.158621 0.0725752 0.267766
-0.188831 0.0780766 0.267855
-0.180692 0.0780074 0.267853
-0.169864 0.0779153 0.26785
-0.161759 0.0778465 0.267848
-0.150975 0.0777547 0.267845
-0.140216 0.0776632 0.267843
-0.121449 0.0775036 0.267838
0.168664 0.0750364 0.267763
0.178684 0.0749511 0.267761
0.188681 0.0748661 0.267759
0.198656 0.0747813 0.267756
-0.11076 0.0800369 0.267835
-0.100096 0.0799431 0.267832
-0.0921139 0.0798729 0.26783
-0.0814932 0.0797795 0.267828
-0.0708974 0.0796863 0.267825
-0.0603263 0.0795934 0.267822
-0.0209032 0.0792467 0.267812
-0.0104483 0.0791548 0.26781
0.0285424 0.078812 0.2678
0.0388829 0.0787211 0.267797
0.069762 0.0784496 0.267789
0.0876765 0.078292 0.267784
0.11822 0.0780234 0.267777
0.128355 0.0779344 0.267774
-0.132164 0.0828554 0.267841
-0.0524141 0.0847385 0.26782
-0.0418861 0.0846399 0.267817
-0.0313824 0.0845415 0.267815
-1.76653e-05 0.0842476 0.267807
0.00778949 0.0841744 0.267805
0.018178 0.0840771 0.267802
0.0491997 0.0837865 0.267794
0.0594927 0.0836901 0.267791
0.0800077 0.0834978 0.267786
0.0978812 0.0833304 0.267782
0.108063 0.083235 0.267779
0.138467 0.0829501 0.267771
0.148556 0.0828555 0.267769
0.158621 0.0827613 0.267766
0.168664 0.0826672 0.267763
0.178684 0.0825733 0.267761
-0.188831 0.0886633 0.267855
-0.180692 0.0885847 0.267853
-0.169864 0.0884801 0.26785
-0.161759 0.0884019 0.267848
-0.150975 0.0882977 0.267845
-0.140216 0.0881938 0.267843
-0.121449 0.0880125 0.267838
-0.11076 0.0879094 0.267835
-0.100096 0.0878063 0.267832
-0.0921139 0.0877292 0.26783
-0.0814932 0.0876267 0.267828
-0.0708974 0.0875243 0.267825
0.188681 0.0850174 0.267759
0.198656 0.0849211 0.267756
-0.0603263 0.0900319 0.267822
-0.0209032 0.0896398 0.267812
-0.0104483 0.0895358 0.26781
0.0285424 0.089148 0.2678
0.038883 0.0890452 0.267797
0.069762 0.0887381 0.267789
0.0876765 0.0885598 0.267784
0.11822 0.0882561 0.267777
0.128355 0.0881553 0.267774
-0.132164 0.0933767 0.26784
-0.0524141 0.0925605 0.26782
-0.0418861 0.0950571 0.267817
-0.0313824 0.0949466 0.267815
-1.76653e-05 0.0946165 0.267807
0.00778949 0.0945344 0.267805
0.018178 0.0944251 0.267802
0.0491997 0.0940986 0.267794
0.0594927 0.0939904 0.267791
0.0800077 0.0937744 0.267786
0.0978812 0.0935864 0.267782
0.108063 0.0934793 0.267779
0.138467 0.0931593 0.267771
0.148556 0.0930531 0.267769
0.158621 0.0929473 0.267766
0.168664 0.0928416 0.267763
0.178684 0.0927361 0.267761
0.188681 0.0926309 0.267759
0.198656 0.092526 0.267756
-0.191547 0.0992793 0.267856
-0.180692 0.099162 0.267853
-0.169864 0.0990449 0.26785
-0.161759 0.0989573 0.267848
-0.150975 0.0988407 0.267845
-0.140216 0.0987244 0.267843
-0.121449 0.0985215 0.267838
-0.11076 0.098406 0.267835
-0.100096 0.0982907 0.267832
-0.0921139 0.0982044 0.26783
-0.0814932 0.0980895 0.267828
-0.0708974 0.097975 0.267825
-0.0603263 0.0978607 0.267822
-0.0209032 0.100033 0.267812
-0.0104483 0.0999167 0.26781
0.0285424 0.099484 0.2678
0.038883 0.0993692 0.267797
0.069762 0.0990265 0.267789
0.0876765 0.0988276 0.267784
0.11822 0.0984886 0.267777
0.128355 0.0983762 0.267774
-0.132164 0.103898 0.26784
-0.0524141 0.10299 0.26782
-0.0418861 0.10287 0.267817
-0.0313824 0.10275 0.267815
-1.76579e-05 0.104985 0.267807
0.00778949 0.104894 0.267805
0.018178 0.104773 0.267802
0.0491997 0.104411 0.267794
0.0594927 0.104291 0.267791
0.0800077 0.104051 0.267786
0.0978812 0.103842 0.267782
0.108063 0.103724 0.267779
0.138467 0.103369 0.267771
0.148556 0.103251 0.267769
0.158621 0.103133 0.267766
0.168664 0.103016 0.267763
0.178684 0.102899 0.267761
0.188681 0.102782 0.267759
0.198656 0.102666 0.267756
-0.191547 0.109869 0.267856
-0.180692 0.109739 0.267853
-0.169864 0.10961 0.26785
-0.161759 0.109513 0.267848
-0.150975 0.109384 0.267845
-0.140216 0.109255 0.267843
-0.121449 0.10903 0.267838
-0.11076 0.108903 0.267835
-0.100096 0.108775 0.267832
-0.0921139 0.108679 0.26783
-0.0814932 0.108552 0.267828
-0.0708974 0.108426 0.267825
-0.0603263 0.108299 0.267822
-0.0209032 0.107828 0.267812
-0.0104483 0.107702 0.26781
0.0285424 0.10982 0.2678
0.038883 0.109693 0.267797
0.069762 0.109315 0.267789
0.0876765 0.109095 0.267784
0.11822 0.108721 0.267777
0.128355 0.108597 0.267774
0.208608 0.107614 0.267753
-0.132164 0.114419 0.26784
-0.0524141 0.113419 0.26782
-0.0418861 0.113287 0.267817
-0.0313824 0.113155 0.267815
-1.76579e-05 0.112762 0.267807
0.00778949 0.112664 0.267805
0.018178 0.112534 0.267802
-0.191547 0.117811 0.267856
-0.180692 0.117672 0.267853
-0.169864 0.117533 0.26785
0.0491997 0.114723 0.267794
0.0594927 0.114591 0.267791
0.0800077 0.114328 0.267786
0.0978812 0.114098 0.267782
0.108063 0.113968 0.267779
0.138467 0.113578 0.267771
0.148556 0.113448 0.267769
0.158621 0.113319 0.267766
0.168664 0.11319 0.267763
0.178684 0.113062 0.267761
0.188681 0.112934 0.267759
0.198656 0.112806 0.267756
-0.161759 0.120068 0.267848
-0.150975 0.119927 0.267845
-0.140216 0.119786 0.267843
-0.121449 0.119539 0.267838
-0.11076 0.119399 0.267835
-0.100096 0.119259 0.267832
-0.0921139 0.119155 0.26783
-0.0814932 0.119015 0.267828
-0.0708974 0.118876 0.267825
-0.0603263 0.118738 0.267822
-0.0209032 0.118221 0.267812
-0.0104483 0.118083 0.26781
0.0285424 0.117572 0.2678
0.038883 0.120017 0.267797
0.069762 0.119603 0.267789
0.0876765 0.119363 0.267785
0.11822 0.118954 0.267777
0.128355 0.118818 0.267774
0.208608 0.117742 0.267753
-0.132164 0.124941 0.26784
-0.0524141 0.123849 0.26782
-0.0418861 0.123704 0.267817
-0.0313824 0.123561 0.267815
-1.76504e-05 0.123131 0.267807
0.00778949 0.123024 0.267805
0.018178 0.122882 0.267802
-0.191547 0.128401 0.267856
-0.180692 0.12825 0.267853
-0.169864 0.128098 0.26785
-0.161759 0.127985 0.267848
-0.150975 0.127834 0.267845
-0.140216 0.127684 0.267842
0.0491997 0.125035 0.267794
0.0594927 0.124891 0.267791
0.0800077 0.124604 0.267787
0.0978812 0.124354 0.267782
0.108063 0.124212 0.267779
0.138467 0.123787 0.267771
0.148556 0.123646 0.267769
0.158621 0.123505 0.267766
0.168664 0.123365 0.267763
0.178684 0.123225 0.267761
0.188681 0.123085 0.267759
0.198656 0.122945 0.267756
-0.121449 0.130048 0.267838
-0.11076 0.129896 0.267835
-0.100096 0.129744 0.267832
-0.0921139 0.12963 0.26783
-0.0814932 0.129478 0.267828
-0.0708974 0.129327 0.267825
-0.0603263 0.129176 0.267822
-0.0209032 0.128614 0.267812
-0.0104483 0.128464 0.26781
0.0285424 0.127908 0.2678
0.038883 0.12776 0.267797
-0.132164 0.132832 0.26784
0.069762 0.129892 0.267789
0.0876765 0.129631 0.267785
0.11822 0.129186 0.267777
0.128355 0.129039 0.267774
0.208608 0.127871 0.267753
-0.0524141 0.134278 0.26782
-0.0418861 0.134122 0.267817
-0.0313824 0.133966 0.267815
-1.76504e-05 0.1335 0.267807
0.00778949 0.133384 0.267805
0.018178 0.13323 0.267802
0.0491997 0.132769 0.267794
0.0594927 0.132617 0.267791
-0.191547 0.138991 0.267856
-0.180692 0.138827 0.267853
-0.169864 0.138663 0.26785
-0.161759 0.13854 0.267848
-0.150975 0.138377 0.267845
-0.140216 0.138214 0.267842
-0.121449 0.13793 0.267838
-0.11076 0.137768 0.267835
-0.100096 0.137607 0.267832
0.0800077 0.134881 0.267787
0.0978812 0.134611 0.267782
0.108063 0.134457 0.267779
0.138467 0.133996 0.267771
0.148556 0.133844 0.267769
0.158621 0.133691 0.267766
0.168664 0.133539 0.267763
0.178684 0.133388 0.267761
0.188681 0.133236 0.267758
0.198656 0.133085 0.267756
-0.0921139 0.140105 0.26783
-0.0814932 0.139941 0.267828
-0.0708974 0.139778 0.267825
-0.0603263 0.139615 0.267822
-0.0209032 0.139007 0.267812
-0.0104483 0.138845 0.26781
0.0285424 0.138244 0.2678
0.0388829 0.138084 0.267797
0.069762 0.137608 0.267789
-0.132164 0.143353 0.26784
0.0876765 0.139899 0.267785
0.11822 0.139419 0.267777
0.128355 0.13926 0.267774
0.208608 0.137999 0.267753
0.218537 0.137843 0.267751
-0.0524141 0.144707 0.26782
-0.0418861 0.144539 0.267817
-0.0313824 0.144371 0.267815
-1.76504e-05 0.143869 0.267807
0.00778949 0.143744 0.267805
0.018178 0.143578 0.267802
0.0491997 0.143081 0.267794
0.0594927 0.142917 0.267791
0.0800077 0.142588 0.267787
-0.191547 0.149581 0.267856
-0.180692 0.149404 0.267853
-0.169864 0.149228 0.26785
-0.161759 0.149096 0.267848
-0.150975 0.14892 0.267845
-0.140216 0.148745 0.267842
-0.121449 0.148439 0.267838
-0.11076 0.148265 0.267835
-0.100096 0.148091 0.267832
-0.0921139 0.147961 0.26783
-0.0814932 0.147788 0.267828
-0.0708974 0.147616 0.267825
0.0978812 0.144867 0.267782
0.108063 0.144701 0.267779
0.138467 0.144206 0.267771
0.148556 0.144041 0.267769
0.158621 0.143877 0.267766
0.168664 0.143714 0.267763
0.178684 0.14355 0.267761
0.188681 0.143388 0.267758
0.198656 0.143225 0.267756
-0.0603263 0.150053 0.267822
-0.0209032 0.1494 0.267812
-0.0104483 0.149226 0.26781
0.0285424 0.14858 0.2678
0.0388829 0.148409 0.267797
0.069762 0.147897 0.267789
0.0876765 0.1476 0.267785
-0.132164 0.153874 0.26784
-0.0524141 0.152529 0.26782
0.11822 0.149652 0.267777
0.128355 0.149481 0.267774
0.208608 0.148127 0.267753
0.218537 0.14796 0.267751
-0.191547 0.157523 0.267856
-0.0418861 0.154956 0.267817
-0.0313824 0.154776 0.267815
-1.76504e-05 0.154238 0.267807
0.00778949 0.154104 0.267805
0.018178 0.153926 0.267802
0.0491997 0.153394 0.267794
0.0594927 0.153217 0.267791
0.0800077 0.152865 0.267786
0.0978812 0.152559 0.267782
-0.180692 0.159981 0.267853
-0.169864 0.159792 0.26785
-0.161759 0.159651 0.267848
-0.150975 0.159463 0.267845
-0.140216 0.159275 0.267842
-0.121449 0.158948 0.267838
-0.11076 0.158762 0.267835
-0.100096 0.158576 0.267832
-0.0921139 0.158436 0.26783
-0.0814932 0.158251 0.267828
-0.0708975 0.158066 0.267825
-0.0603263 0.157882 0.267822
0.108063 0.154945 0.267779
0.138467 0.154415 0.267771
0.148556 0.154239 0.267769
0.158621 0.154063 0.267766
0.168664 0.153888 0.267763
0.178684 0.153713 0.267761
0.188681 0.153539 0.267759
0.198656 0.153365 0.267756
-0.0209032 0.159793 0.267812
-0.0104483 0.159607 0.26781
0.0285424 0.158916 0.2678
0.0388829 0.158733 0.267797
0.069762 0.158185 0.267789
0.0876765 0.157868 0.267784
-0.132164 0.164396 0.26784
-0.0524141 0.162959 0.26782
-0.0418861 0.162769 0.267817
-0.0313824 0.16258 0.267815
0.11822 0.159884 0.267777
0.128355 0.159702 0.267774
0.208608 0.158256 0.267753
0.218537 0.158077 0.267751
-0.191547 0.168113 0.267856
-0.180692 0.167914 0.267853
-0.169864 0.167716 0.26785
-0.161759 0.167568 0.267848
-1.76504e-05 0.164607 0.267807
0.00778949 0.164464 0.267805
0.018178 0.164274 0.267802
0.0491997 0.163706 0.267794
0.0594927 0.163517 0.267791
0.0800077 0.163142 0.267786
0.0978812 0.162815 0.267782
0.108063 0.162628 0.267779
-0.150975 0.170006 0.267845
-0.140216 0.169806 0.267842
-0.121449 0.169457 0.267838
-0.11076 0.169258 0.267835
-0.100096 0.16906 0.267832
-0.0921139 0.168911 0.26783
-0.0814932 0.168714 0.267828
-0.0708975 0.168517 0.267825
-0.0603263 0.16832 0.267822
-0.0209032 0.167587 0.267812
0.138467 0.164624 0.267772
0.148556 0.164436 0.267769
0.158621 0.164249 0.267766
0.168664 0.164062 0.267764
0.178684 0.163876 0.267761
0.188681 0.16369 0.267759
0.198656 0.163505 0.267756
-0.0104483 0.169988 0.26781
0.0285424 0.169252 0.2678
0.0388829 0.169057 0.267797
0.069762 0.168474 0.267789
0.0876765 0.168135 0.267784
0.11822 0.167559 0.267777
-0.132164 0.174917 0.26784
-0.0524141 0.173388 0.26782
-0.0418861 0.173186 0.267817
-0.0313824 0.172985 0.267815
0.128355 0.169922 0.267774
0.208608 0.168384 0.267753
0.218537 0.168194 0.267751
-0.191547 0.178703 0.267856
-0.180692 0.178492 0.267853
-0.169864 0.178281 0.26785
-0.161759 0.178123 0.267848
-0.150975 0.177913 0.267845
-0.140216 0.177704 0.267842
-1.76504e-05 0.174976 0.267807
0.00778949 0.174824 0.267805
0.018178 0.174622 0.267802
0.0491997 0.174018 0.267794
0.0594927 0.173818 0.267791
0.0800077 0.173418 0.267786
0.0978812 0.173071 0.267782
0.108062 0.172873 0.267779
-0.121449 0.179966 0.267838
-0.11076 0.179755 0.267835
-0.100096 0.179544 0.267832
-0.0921139 0.179387 0.26783
-0.0814932 0.179177 0.267828
-0.0708975 0.178968 0.267825
-0.0603263 0.178759 0.267822
-0.0209032 0.17798 0.267812
-0.0104483 0.177774 0.26781
0.156107 0.174485 0.267767
0.163645 0.174336 0.267765
0.173677 0.174138 0.267762
0.183685 0.17394 0.26776
0.193671 0.173743 0.267757
-0.132164 0.182808 0.26784
0.0285424 0.179588 0.267799
0.0388829 0.179381 0.267797
0.069762 0.178762 0.267789
-0.0524141 0.183817 0.26782
-0.0418861 0.183603 0.267817
-0.0313824 0.18339 0.267815
-1.76504e-05 0.182752 0.267807
0.00778949 0.182594 0.267805
0.203635 0.178613 0.267755
-0.191547 0.189293 0.267856
-0.180692 0.189069 0.267853
-0.169864 0.188846 0.26785
-0.161759 0.188679 0.267848
-0.150975 0.188456 0.267845
-0.140216 0.188235 0.267842
-0.121449 0.187848 0.267838
-0.11076 0.187627 0.267835
0.018178 0.18497 0.267802
0.0491997 0.18433 0.267794
0.0594927 0.184118 0.267791
-0.100096 0.190029 0.267832
-0.0921139 0.189862 0.26783
-0.0814932 0.18964 0.267828
-0.0708975 0.189418 0.267825
-0.0603263 0.189197 0.267822
-0.0209032 0.188373 0.267812
-0.0104483 0.188155 0.26781
-0.132164 0.193329 0.26784
0.0285424 0.189924 0.267799
0.0388829 0.189705 0.267797
-0.0524141 0.194247 0.26782
-0.0418861 0.194021 0.267817
-0.0313824 0.193795 0.267815
-1.76504e-05 0.193121 0.267807
0.00778948 0.192954 0.267805
0.018178 0.192731 0.267802
-0.191547 0.199882 0.267856
-0.180692 0.199646 0.267853
-0.169864 0.19941 0.26785
-0.161759 0.199234 0.267848
-0.150975 0.198999 0.267845
