ply
format ascii 1.0
comment Created by Open3D
element vertex 1660
property double x
property double y
property double z
end_header
0.142189 0.269591 0.178932
0.0734417 -0.220677 -0.344837
-0.083807 0.00233822 0.344837
0.153019 0.166277 0.184209
0.142189 0.262868 -0.337916
0.101648 -0.0825339 0.33588
0.142982 -0.000971317 0.116984
0.153612 -0.217258 0.0754334
-0.0254193 0.126787 0.344837
-0.139619 0.121715 -0.344837
-0.16682 -0.0687552 -0.123769
0.153665 0.0474049 -0.173057
-0.160103 -0.193983 -0.289024
0.142937 0.305341 -0.210918
-0.100099 0.18416 -0.33588
0.128754 0.285221 -0.0259962
0.132123 0.165701 -0.145985
0.152287 -0.22504 -0.225853
0.128754 -0.221051 -0.278428
0.142982 0.113168 -0.110237
-0.0462398 0.295574 -0.312974
-0.124863 -0.125477 -0.33588
-0.160103 0.238553 -0.333937
-0.16682 -0.206487 0.183044
-0.180255 -0.284183 0.00397614
-0.180255 0.282678 0.0518732
-0.0997321 0.289287 -0.282139
0.153665 0.0495725 -0.0756538
-0.0350421 0.274376 -0.344837
-0.172511 0.0201808 -0.33588
0.142982 0.105229 0.125324
-0.160103 0.000415161 0.0642366
-0.16682 0.172639 -0.315271
-0.16682 -0.155005 -0.298654
-0.160103 -0.0942353 -0.18937
0.144642 0.30565 -0.139985
0.128754 0.0817796 -0.00525121
-0.0884926 -0.22753 0.344837
-0.16682 -0.116867 -0.239631
-0.0628596 -0.0627276 -0.344837
0.142189 -0.205667 -0.118576
0.142189 -0.0534984 0.333755
-0.16682 0.047149 -0.140181
-0.155093 -0.119758 -0.344837
-0.0527297 0.0212156 -0.33588
0.155625 -0.201434 -0.070563
-0.16682 0.272757 0.158886
0.153665 0.0441888 0.103898
0.153665 -0.00962614 0.187223
0.0759894 0.012677 0.344837
0.153753 -0.217258 -0.225876
0.142189 0.191629 -0.0628083
0.00598315 0.152804 -0.344837
0.142189 0.152382 -0.154456
0.13275 0.1657 0.122332
-0.160103 0.0701033 -0.227025
0.0286492 -0.0238633 -0.33588
0.0156815 0.0768392 -0.344837
0.142189 -0.179345 -0.136932
-0.0245159 -0.121531 -0.344837
0.0241703 0.18746 -0.344837
0.060381 -0.274076 0.344837
0.124229 0.250981 -0.344837
0.152444 0.057268 0.0566795
-0.16682 0.125458 -0.296867
-0.0476134 0.286616 0.299844
0.152088 0.104563 -0.00335835
-0.118023 0.0702251 0.33588
-0.160103 0.262784 -0.104986
0.155625 -0.113817 -0.0168765
-0.127051 0.00778874 -0.344837
0.142982 0.103877 -0.264448
0.142189 -0.184411 0.0777047
-0.16682 -0.155855 -0.238222
0.142189 0.0280378 0.0236839
0.15142 0.120313 -0.242391
0.0993989 0.177086 0.344837
-0.00361737 0.295574 0.329972
0.128754 0.0942953 0.346013
-0.16682 -0.00112236 -0.257936
-0.0266306 -0.206007 0.236235
-0.148543 0.0224423 0.33588
-0.150386 0.295573 0.33515
0.142189 0.191 0.200388
0.142982 0.235795 -0.0577926
-0.160103 0.245917 -0.202861
0.0858563 -0.00293833 -0.344837
-0.170179 -0.203767 0.0320968
0.019628 -0.0788001 -0.33588
0.155625 0.184185 -0.0887521
0.0134375 -0.206007 -0.315182
0.0862089 -0.254138 0.00518116
-0.16682 0.184004 0.129371
-0.160103 -0.179092 -0.208281
-0.0869262 -0.15187 -0.33588
-0.16682 0.307565 -0.0174639
0.142982 -0.16141 -0.23901
0.142272 -0.223683 -0.169136
0.128754 0.176712 0.205115
-0.16682 0.0275016 -0.173189
0.0139205 0.160254 0.344837
-0.160103 -0.158804 0.311394
0.155625 -0.0888337 -0.321703
0.142189 -0.0441034 0.32803
0.0121071 -0.206007 0.306975
-0.0233715 0.0383233 -0.33588
0.109632 -0.206007 -0.242143
-0.160103 0.259823 0.171759
0.142982 -0.138344 0.183612
-0.160103 0.197944 0.276318
0.0473143 0.0913422 -0.33588
0.142406 0.174915 0.19429
0.155625 -0.189097 0.222325
-0.16682 0.162621 -0.315013
0.142982 0.0059128 0.251116
-0.160103 -0.115503 0.295676
0.142982 -0.170733 0.290138
0.155625 -0.0511008 0.0344833
-0.160103 -0.0493585 0.142689
-0.101901 -0.206007 -0.252833
0.109521 -0.0278896 -0.33588
-0.16682 0.0414091 -0.212365
-0.160103 0.230341 -0.09391
0.112879 0.229428 0.344837
0.047241 0.0338846 0.344837
-0.180255 -0.265266 -0.129681
0.153337 -0.108527 -0.065943
0.0056392 0.135797 -0.33588
0.142189 -0.00178096 -0.0550067
-0.160103 0.0612276 0.229822
0.0878895 0.280809 0.344837
-0.16682 0.0856599 -0.0275736
0.0207812 0.30901 -0.337859
-0.16682 0.128256 0.188108
0.0175684 -0.123259 0.33588
0.142189 -0.226695 -0.267627
-0.180255 0.257988 -0.126702
0.142982 -0.0732372 0.236883
0.150307 -0.203794 0.00335836
0.148907 -0.0764037 0.345956
-0.160103 0.139887 -0.0507662
-0.160103 -0.186065 0.135396
-0.180255 -0.241089 0.260324
0.128754 0.131897 -0.0162585
0.137814 0.30901 -0.00725038
0.0690817 0.16844 0.33588
0.0862089 -0.297692 0.18873
-0.0263446 -0.0167844 -0.344837
0.142189 0.166824 -0.10646
0.0348137 -0.0448817 0.33588
-0.160103 -0.193277 -0.111394
0.155625 0.196234 -0.263398
0.0967247 0.295574 0.313902
0.0409287 -0.206007 -0.0288534
-0.160103 0.0977649 0.285585
0.142982 0.0189051 -0.122202
-0.114095 0.286616 0.290665
0.0435305 0.00952594 0.33588
0.155625 0.0631518 -0.297224
0.151394 0.0130781 0.05732
-0.0114105 -0.0169589 0.344837
-0.168615 0.17034 -0.344837
0.0146509 0.286617 -0.305392
0.142982 0.085251 -0.11418
-0.160103 0.186393 0.0730645
0.097398 0.0897249 -0.344837
0.129773 -0.163246 0.0268704
-0.16682 0.301574 -0.0560439
0.142189 -0.081864 0.00265778
-0.0961495 -0.206007 0.0242451
-0.160103 -0.202224 -0.19673
0.0651063 -0.206007 0.205258
-0.0582663 -0.206007 0.0767318
0.0349172 0.259217 0.33588
-0.142837 -0.0902986 -0.33588
0.142189 -0.0584754 -0.00864002
-0.180255 -0.289643 -0.289722
-0.160103 -0.130266 0.0167182
-0.160103 -0.104397 -0.30402
0.155625 0.110454 -0.0214338
-0.160103 -0.205734 0.0262533
-0.160103 -0.167448 0.238598
0.0884652 0.263012 -0.344837
0.153094 0.266779 -0.0250012
-0.160103 -0.166961 -0.245924
0.131923 -0.0598502 -0.349315
-0.16682 0.2782 -0.0536899
-0.160103 0.274533 0.158353
0.145699 -0.22504 0.131042
0.142189 -0.204632 -0.345936
-0.180255 -0.22132 -0.241833
-0.160103 -0.0967665 -0.199462
-0.160103 -0.0731683 -0.224855
-0.180255 0.275495 -0.302958
-0.125313 -0.206007 -0.0996368
-0.16682 0.17008 -0.229814
0.142982 0.0440605 -0.120804
0.153665 -0.110692 0.0699668
-0.160103 0.0230686 0.0793383
0.136261 0.282139 -0.0461826
0.0716052 -0.100229 -0.33588
0.142189 0.167557 -0.185021
0.142982 -0.109527 -0.263194
-0.16682 0.193007 -0.0212836
0.142189 0.204101 0.341684
-0.0994984 0.233879 0.33588
-0.10974 -0.206007 0.0583687
-0.160103 -0.136523 -0.043534
-0.118251 0.0272318 -0.33588
0.142982 -0.0209365 -0.166156
-0.145344 0.171609 -0.344837
-0.160103 0.106472 -0.0985385
-0.0404888 0.248491 -0.33588
-0.0697006 0.00701237 -0.33588
-0.0804311 -0.206007 0.188574
-0.165607 -0.205009 -0.344837
0.0668618 0.27536 0.33588
0.142982 -0.0879534 0.106468
0.142189 -0.102528 0.331052
-0.0970402 -0.206007 -0.0926962
0.142189 0.100173 -0.314551
0.142982 -0.120095 0.194335
0.153665 -0.042848 0.10514
0.0577312 -0.206007 0.283483
0.142189 -0.0891895 0.00464146
0.027592 0.0918957 0.344837
0.179873 0.161081 -0.19219
0.153665 0.0650815 0.270247
-0.0382719 -0.206007 -0.101819
0.01705 -0.172458 0.33588
0.142189 0.105755 -0.298136
0.105523 0.141602 0.344837
0.142189 0.126299 -0.261483
-0.16682 -0.0942328 -0.220146
-0.044437 0.206571 -0.33588
-0.180255 0.299759 0.21992
0.151382 0.238152 0.181025
0.118218 -0.228399 -0.341818
-0.160103 0.238994 -0.0767855
0.155625 0.240835 0.309517
0.142189 0.124843 -0.328303
0.128754 0.226597 -0.329464
0.0644115 -0.139074 -0.344837
-0.123035 -0.210715 -0.33588
-0.180255 -0.298928 0.0787425
-0.14811 -0.206007 0.0922656
-0.0835871 -0.206007 -0.0817673
-0.160103 0.28646 -0.0649932
-0.145645 0.135312 0.344837
-0.16682 0.00883091 -0.0250489
0.128754 0.28729 -0.292203
0.142982 -0.0349858 -0.185674
0.142982 0.253108 -0.0335163
0.131824 0.192572 -0.312419
0.0862089 -0.274775 -0.0337252
-0.11237 0.123215 -0.33588
-0.0638838 0.251736 0.33588
0.11572 -0.206007 0.20651
0.142189 -0.100071 -0.0100399
0.00662143 0.169203 -0.344837
0.142189 -0.194308 -0.0664249
-0.16682 -0.146464 0.256486
0.142189 0.181169 -0.024356
-0.160103 0.201607 -0.152092
-0.16682 0.262948 -0.307748
0.142982 -0.16563 0.252934
-0.170778 0.182259 -0.344837
-0.180255 -0.282518 -0.135109
0.142189 0.146352 0.246523
-0.16682 0.258712 0.234911
0.142982 0.226969 -0.229533
-0.16682 0.22735 0.170609
0.128754 -0.0722629 -0.0167848
-0.141076 -0.116537 0.33588
-0.137177 -0.0673885 -0.33588
0.153665 0.0762436 -0.133599
0.0635032 -0.206007 0.0872934
0.153665 0.0601057 0.194137
-0.116256 0.217953 0.344837
0.155625 0.279583 0.156827
-0.180255 -0.267656 -0.123958
0.0400069 0.0298518 0.33588
0.0256911 -0.172567 -0.344837
0.151445 -0.0738206 -0.289069
0.142982 0.0472164 0.233213
-0.180255 -0.242345 0.322019
0.153665 0.0750662 -0.0702057
0.128754 -0.227481 0.33461
0.142982 0.067221 0.103122
-0.00376595 -0.206007 -0.0302736
-0.16682 0.0740663 -0.0679143
0.128754 0.188644 0.317464
-0.160103 0.0173776 0.00934125
0.0862089 -0.257433 0.162097
-0.160103 0.128904 0.139415
-0.160103 0.10331 -0.159882
-0.16682 -0.0885422 -0.226924
0.142982 -0.156451 0.193951
0.155625 -0.205408 0.100164
-0.12967 -0.206007 0.130931
-0.149027 0.0577134 0.33588
-0.160103 0.205169 0.303667
-0.160103 0.132494 -0.0220238
-0.160103 -0.162204 -0.0543556
0.0862089 -0.215079 -0.159479
-0.160103 0.0460119 -0.251447
-0.0987754 -0.133454 -0.344837
-0.0232737 0.0541001 0.33588
-0.0510939 -0.139049 -0.33588
-0.00179437 -0.0111752 0.33588
0.0558554 0.295574 -0.298455
0.0325461 0.0686979 0.344837
-0.0296832 -0.201969 0.344837
0.136824 0.249057 0.322445
0.153665 0.0217045 0.174098
0.153665 -0.00096425 0.232695
-0.136587 -0.206007 0.262564
0.142189 -0.224161 -0.0379178
-0.160103 0.259619 0.162889
0.109813 0.0171659 0.33588
-0.160103 -0.189692 0.145694
0.128754 -0.221289 -0.271845
0.155625 0.161787 -0.310736
-0.0753879 -0.206007 -0.273595
-0.16682 0.0755981 -0.223062
-0.0669689 -0.206007 0.30486
0.128754 0.28968 -0.137241
-0.078798 0.179654 -0.344837
-0.16682 0.162824 0.128553
-0.0178617 0.168462 -0.344837
-0.160103 0.0403662 0.0484865
-0.16682 -0.106619 -0.151081
0.00783812 -0.287278 -0.344837
0.0449133 -0.162109 -0.344837
-0.16682 0.202776 0.0911524
-0.123192 -0.115225 -0.344837
0.0514017 0.0978662 -0.344837
0.125361 0.00955672 -0.344837
-0.0443963 -0.206007 0.183403
0.142189 0.285497 0.183617
-0.16682 -0.164507 -0.272609
0.0748624 -0.206007 -0.137077
0.142189 0.110255 0.0493504
0.128754 -0.0362083 -0.341186
-0.16682 -0.0765909 -0.0500857
0.15436 -0.142093 -0.338283
-0.160103 0.252344 -0.154776
0.0277164 -0.206007 -0.306575
-0.0450781 -0.295074 0.344837
0.142189 0.304568 -0.318506
0.0862089 -0.242417 -0.326153
0.142189 0.235948 0.338339
-0.16682 -0.165714 0.184893
-0.160103 0.182866 0.319183
-0.059408 -0.119868 0.344837
-0.160103 0.117143 0.31614
-0.16682 0.0742969 0.285728
-0.176411 0.30901 0.0593299
0.0787945 -0.206007 -0.0480538
-0.16682 0.01691 -0.172727
-0.16682 0.146461 -0.334298
-0.16682 -0.141918 0.0452274
0.0418401 0.141652 0.33588
-0.0650048 -0.163177 -0.33588
-0.166253 -0.251993 -0.344837
0.142189 -0.176392 0.033732
0.153203 0.175777 0.173923
-0.00709245 -0.206007 0.322534
0.0740452 0.295574 -0.321279
0.142189 0.162576 -0.115826
-0.110947 0.022279 -0.33588
-0.171605 0.0239727 -0.33588
0.142982 0.0706552 -0.288002
0.142189 0.152828 0.289272
0.153665 0.0763244 -0.0779811
0.100638 0.286617 -0.334652
0.0276477 -0.206007 0.297293
-0.160103 0.214621 0.179376
-0.160103 -0.0226349 -0.156798
0.00261871 0.129314 0.344837
-0.123905 0.295573 0.335721
0.116709 -0.0201525 -0.33588
-0.16682 -0.0776129 -0.0366228
-0.142304 -0.0206458 0.344837
-0.16383 0.286617 0.252582
-0.160103 -0.171111 -0.240284
-0.16682 0.199673 0.283084
-0.16682 -0.036971 -0.139675
0.142211 0.18408 0.157919
-0.16682 -0.0687759 0.195207
0.0862089 -0.239708 0.125991
0.0765387 -0.0309975 0.33588
0.136356 -0.0398157 -0.322445
0.142982 -0.100734 0.20098
-0.16682 -0.118914 -0.222683
0.153665 -0.107961 -0.119439
0.0434872 0.110156 0.33588
0.173423 0.156613 -0.0597779
-0.16682 -0.127582 0.251812
-0.16682 -0.180054 -0.0881233
-0.0259214 -0.283013 0.344837
-0.130458 -0.206007 -0.0180997
0.153665 0.10381 -0.238111
0.142189 0.292838 -0.30404
0.142982 -0.0832913 -0.0567513
0.152604 0.0922713 0.292636
0.0862089 -0.254564 0.0962108
-0.179431 -0.108549 -0.33588
-0.0139542 0.216497 -0.344837
0.0710677 0.167007 0.344837
-0.0998794 -0.224661 -0.344837
0.153665 0.0177327 0.176458
-0.0518591 -0.206007 -0.113135
0.142189 -0.217429 0.278125
-0.0761187 -0.205971 -0.344837
-0.0277467 0.0632841 -0.33588
0.108577 -0.0807209 0.344837
0.155625 -0.209074 -0.213532
0.142189 -0.216585 -0.151817
-0.16682 0.00953 -0.236269
-0.170469 0.30901 -0.244133
-0.160103 0.0780284 -0.0794096
0.142982 -0.124632 0.107183
0.136118 -0.201528 -0.19152
0.0381888 -0.113499 0.33588
0.128754 0.113418 -0.0169587
-0.125536 -0.0795952 0.344837
0.153665 -0.0737492 -0.22732
-0.180255 -0.223637 -0.0867403
-0.168085 0.30901 -0.199115
0.0790031 0.14642 -0.33588
-0.160103 0.245258 -0.147245
-0.180255 -0.21108 0.295826
-0.0300484 0.182953 0.33588
-0.16682 -0.0553348 -0.306251
0.142982 -0.0707799 0.216359
-0.113689 -0.206007 -0.297184
0.130079 0.122844 0.0268704
-0.066508 -0.206007 -0.0353356
-0.0926201 0.295573 0.293407
-0.16682 0.107761 0.0208283
0.142982 0.0563972 0.070258
-0.180255 -0.301167 -0.131355
-0.0350724 0.275538 0.344837
0.153665 0.0786608 0.0817895
0.142982 0.118221 -0.2253
0.128754 0.116415 0.342997
-0.103563 0.036437 0.344837
0.00220143 0.166752 -0.344837
-0.115974 -0.206007 0.150136
-0.040887 0.147506 0.344837
-0.160103 0.229728 -0.15964
0.153665 0.0389352 -0.267269
-0.180255 -0.280977 -0.0156812
0.142189 0.193461 -0.0565967
0.154687 0.168191 0.305531
0.132213 0.282139 0.0754252
0.155625 -0.124843 -0.299942
0.0862089 -0.278365 -0.143009
0.128754 0.187044 -0.33758
-0.160103 0.255974 0.302112
0.128754 0.111021 -0.0118118
0.124519 0.178868 0.344837
0.102451 -0.0784836 0.33588
-0.160103 -0.0169698 -0.332458
0.145697 0.132343 -0.00335835
-0.0435953 -0.011007 -0.344837
0.155625 0.0938834 0.315118
0.142189 0.276142 0.0739219
-0.16682 -0.0453593 -0.310844
0.142982 -0.0474987 0.251967
0.175352 0.163632 0.247434
-0.160103 0.118528 -0.192579
-0.0748727 -0.27828 -0.344837
-0.160103 -0.0229283 -0.284277
-0.160103 -0.0508203 -0.0870654
-0.0962253 -0.0605593 -0.33588
-0.16682 0.103471 0.319045
-0.160103 0.0934055 0.125817
0.151382 0.246311 -0.278254
0.148546 0.175777 0.0348128
0.147072 -0.121356 -0.00335835
-0.0490096 -0.214316 -0.33588
0.0160764 -0.206007 0.246509
-0.0943657 -0.201374 0.33588
-0.180255 -0.261392 0.109123
-0.160103 -0.170089 0.0449133
-0.1074 -0.037366 0.344837
-0.0544209 0.277454 0.33588
-0.160103 -0.183595 0.113625
-0.160103 -0.0239922 -0.0142099
0.142982 -0.0987606 -0.252632
0.129956 0.0368872 -0.349315
-0.160103 0.0339591 -0.299577
-0.0799767 0.0378168 0.344837
0.141093 0.192571 0.17905
-0.160103 0.25405 0.0598708
0.155625 -0.189432 0.168354
0.142189 -0.210031 -0.0294246
0.0112964 0.267238 -0.33588
-0.0353659 0.171872 -0.344837
0.153019 0.166483 -0.182867
-0.111079 -0.206007 -0.153411
0.142982 0.00978793 -0.157302
0.142381 0.0614472 -0.292636
-0.073078 0.290748 0.33588
0.142982 -0.140767 0.231175
-0.165538 0.286617 0.186934
-0.16682 -0.0779454 -0.270962
0.153665 -0.0102562 0.121346
0.153665 0.0737516 -0.244085
-0.16682 0.246108 -0.103965
0.153665 0.0656815 0.271384
-0.16682 0.30789 0.0561836
-0.0378447 -0.206007 0.0831594
-0.16682 -0.0424802 0.172038
-0.164489 0.286617 -0.145903
0.0118378 -0.113015 -0.33588
0.128754 0.283765 0.201086
-0.0461966 -0.0786095 -0.344837
0.155625 -0.168442 -0.316278
0.153665 -0.0867442 -0.12449
-0.16682 0.0115504 -0.299973
-0.160103 0.155172 0.287416
-0.125135 0.259592 0.33588
-0.16682 0.268689 0.276187
0.0305683 -0.0379622 0.33588
0.138022 -0.185673 -0.349315
0.124669 -0.159322 0.33588
-0.160103 0.08815 -0.027565
0.142982 0.0143545 0.150081
0.011705 -0.0357134 0.33588
0.114282 0.232975 0.344837
0.142189 0.070753 0.0237775
0.142982 0.0153928 0.255167
-0.160103 0.0467204 0.257459
-0.160103 -0.0265937 -0.00116836
-0.0424422 0.122362 0.344837
0.151382 0.30565 0.187432
0.142982 -0.0821837 -0.225738
0.155625 0.154394 0.0285591
0.139471 -0.201528 0.132716
0.142982 -0.148569 0.291281
-0.160103 0.272841 -0.0531674
0.128754 0.293362 0.12326
0.0745341 0.30901 -0.341401
0.128754 -0.0694278 0.0182852
-0.16682 -0.0534872 -0.0146276
-0.173481 -0.274555 0.344837
-0.16682 -0.164069 0.260642
-0.0459674 0.192348 -0.33588
-0.160103 0.257068 -0.258048
0.083876 -0.143926 0.33588
0.0690936 0.0629055 0.33588
-0.0998297 0.288674 0.344837
0.153665 0.0724422 -0.0700706
-0.0787303 -0.206007 -0.135351
0.13991 -0.0257281 0.322445
0.151443 -0.106852 -0.0601144
-0.124141 0.0287089 -0.344837
0.142189 -0.151144 -0.335956
0.128754 -0.204793 -0.00368224
-0.16682 0.0456283 0.163167
-0.160103 0.184824 -0.017216
0.142982 -0.0852689 0.261344
0.151434 -0.168784 0.0817485
-0.147481 0.240032 0.33588
0.142189 -0.20601 -0.234548
-0.180255 -0.266034 0.0335915
-0.0583441 0.293819 -0.344837
-0.180255 0.288045 0.326021
0.0603709 -0.210865 0.33588
-0.180255 0.300361 -0.324089
0.132206 0.1657 0.107263
-0.16682 0.175082 -0.178859
0.00191319 -0.14169 -0.344837
-0.089675 -0.201639 -0.344837
0.153665 -0.0865333 -0.233934
-0.160103 0.169917 0.000952087
-0.180255 -0.229245 -0.245956
0.0603272 0.286617 -0.294157
0.142982 0.252774 0.103577
0.155625 -0.0613966 -0.327802
0.0449379 -0.206007 -0.217543
-0.0639288 0.234977 -0.344837
0.0862089 -0.295187 -0.243847
0.142189 -0.181192 0.13183
-0.124666 -0.206007 0.160523
0.0272255 0.054735 -0.344837
-0.160103 0.0453773 -0.0312179
0.0101922 -0.120654 -0.33588
0.00864363 -0.0320319 -0.344837
0.0981519 0.124873 -0.33588
0.142189 -0.120488 -0.000303423
-0.0881209 0.271905 -0.344837
0.128754 -0.0457612 -0.0226888
-0.160103 -0.0122996 -0.111841
0.0142783 0.0305455 -0.344837
-0.103444 -0.21052 0.344837
-0.16682 0.205875 0.230452
-0.180255 -0.303035 -0.11247
0.142189 0.146898 -0.345918
0.142189 -0.219099 -0.222851
0.0105889 0.249468 -0.33588
-0.160103 -0.00859182 0.189013
0.142189 0.286481 0.234544
-0.169127 0.15472 -0.33588
0.142982 -0.0727616 -0.180432
-0.166435 -0.258318 0.344837
0.0468611 0.286617 -0.305471
0.142982 0.0413276 0.0807168
0.155625 0.101931 0.332017
-0.16682 -0.162751 0.298641
-0.160103 0.0665918 -0.198558
0.0972577 0.0856937 0.33588
0.155625 0.203536 0.164827
0.142189 -0.13638 0.00279576
0.153665 -0.0776134 -0.112936
0.0862089 -0.253075 -0.256299
0.142189 0.158325 0.338831
0.0132522 -0.206007 0.0939938
-0.16682 0.0814737 -0.0159194
-0.160103 -0.0923794 -0.0757103
-0.166966 -0.0272643 0.33588
0.142982 -0.0204417 0.182347
-0.0255097 -0.150799 -0.344837
-0.0162254 -0.206007 -0.165208
-0.0818454 0.295574 -0.325046
0.142982 0.0340336 -0.135481
-0.16682 0.066027 0.190578
0.142189 0.212874 0.0199385
-0.16682 -0.036824 -0.0614771
0.154663 0.175588 0.16336
0.129921 0.148988 0.349315
-0.16682 0.229551 0.22277
0.155625 0.301419 -0.0340529
-0.180255 0.284247 -0.261194
0.142189 0.291789 -0.0383556
-0.180255 -0.236851 0.00419315
0.0993792 -0.223223 -0.344837
-0.180255 -0.291705 0.0938821
0.142189 -0.218384 -0.31625
-0.16682 0.157276 0.0740766
0.142189 -0.0715798 -0.0221266
0.0744965 0.0961744 0.344837
-0.0211496 -0.210748 -0.344837
-0.160103 0.157535 -0.199176
-0.033728 -0.165441 -0.33588
0.142982 -0.0571016 -0.278537
-0.0439572 -0.230995 0.344837
0.142189 -0.014782 0.0117033
-0.0071188 -0.206007 -0.0105597
0.136355 0.0883686 -0.349315
0.172664 0.157372 0.189625
-0.170576 0.30901 0.267853
0.107276 0.26162 0.344837
-0.0830758 -0.212235 0.33588
0.120881 -0.0437795 -0.344837
0.0449928 -0.167536 0.33588
-0.160103 0.265961 0.146848
-0.16682 0.0373131 0.208537
-0.0135479 0.295292 0.33588
-0.072128 -0.200917 0.344837
0.142189 0.130839 -0.177605
-0.16682 0.272319 0.0519161
-0.180255 0.110316 -0.340874
0.142189 0.179694 0.165179
-0.0834125 0.295574 -0.323706
0.109486 0.295619 0.344837
0.133927 0.192571 0.0587277
0.108782 0.064267 0.33588
0.142189 0.207145 0.26946
0.153665 0.0263602 0.148071
0.142982 -0.0863959 -0.227366
-0.180255 -0.295077 -0.164157
0.142189 -0.0124919 -0.000740897
-0.160103 -0.111031 0.0512383
0.0862089 -0.229754 -0.199142
-0.0845241 0.124528 -0.33588
0.0547075 -0.254595 -0.344837
-0.0412359 0.197876 -0.344837
0.142982 0.0258868 -0.139096
0.153019 0.167411 -0.331824
0.142189 -0.156646 -0.0186897
0.155625 0.150832 0.107016
0.0966219 0.295574 0.304197
-0.0944252 0.293127 0.282139
0.0228247 0.0560567 -0.344837
-0.160103 -0.0318839 0.28511
0.142189 0.146031 0.073023
-0.16682 0.0950437 -0.287976
-0.130526 0.110616 0.33588
-0.0751235 0.30901 0.344779
-0.180255 -0.237566 0.208098
0.153665 0.0618832 0.101726
-0.160103 0.0143602 0.143673
-0.035919 0.171971 -0.344837
0.155625 0.116673 -0.0468226
0.000189634 0.0846273 0.33588
0.15479 0.298094 -0.199985
-0.16682 0.192878 0.15977
0.142189 0.301587 0.151965
-0.131548 -0.206007 0.177663
0.155625 0.0508066 -0.297955
-0.16682 -0.0705204 0.178817
-0.16682 0.202181 0.308846
0.155625 0.13198 -0.159949
-0.16682 -0.133618 -0.0290927
-0.175834 0.255269 0.290263
0.142189 0.299423 -0.308312
0.153019 0.19205 -0.337171
-0.164729 0.105598 0.344837
-0.119692 -0.206007 0.281939
-0.160103 0.200901 -0.183934
-0.0805591 -0.272614 -0.344837
0.155625 -0.177149 -0.0314602
-0.16682 0.251322 0.0457165
0.142982 -0.0853336 -0.0926449
0.0534584 0.306948 0.344837
0.109064 0.128823 -0.344837
-0.16682 0.0101695 0.135709
-0.160103 0.244925 0.277266
0.142189 -0.153944 0.34084
0.141351 0.254322 -0.0268704
-0.0707968 -0.210454 0.33588
-0.180255 0.298077 -0.0228624
-0.0521241 0.228519 0.33588
-0.073823 -0.299891 -0.344837
0.0862089 -0.29926 -0.232138
0.00189002 0.295574 -0.301169
0.140118 0.30901 0.11689
0.142982 0.252835 0.236299
-0.160103 0.0467123 0.235778
0.142189 -0.00985833 0.0206257
0.056487 -0.30884 0.344837
-0.180255 -0.305051 -0.0331296
0.139894 -0.228399 -0.0431598
0.128754 0.168138 -0.229124
0.142982 -0.0676136 0.258029
-0.0234329 -0.206007 -0.212287
0.179783 0.161417 0.264289
-0.160103 -0.0139976 -0.167383
-0.0913711 0.282777 0.344837
0.151043 -0.188397 0.00335836
-0.16682 -0.0492912 0.0268943
-0.160103 -0.204792 0.0957665
0.142189 0.147501 0.0514525
-0.180255 0.256634 0.00355512
-0.124964 -0.206007 0.110843
-0.16682 0.275599 -0.135772
0.142982 -0.0354227 -0.196618
-0.052357 0.0540104 -0.344837
0.153665 0.0221827 0.220921
0.142189 -0.181082 -0.247878
-0.00326549 0.124341 0.344837
-0.160103 0.176447 0.158489
0.155625 0.150211 0.278804
-0.160103 -0.214086 0.0522605
0.135217 0.192572 -0.0281723
0.176238 0.155524 -0.234347
0.142189 0.163769 -0.0609475
0.142189 0.289935 0.0179346
-0.160103 0.226517 -0.326848
0.0233636 0.253003 0.33588
0.142982 0.263348 0.110369
-0.160103 0.0889642 0.0321015
0.154008 0.233596 0.307077
0.142982 0.237284 -0.0874133
0.155625 0.201826 0.314587
0.142189 0.131218 -0.000454212
-0.0798902 0.136044 -0.344837
0.142189 0.0565709 -0.047131
-0.0395189 0.0560422 0.344837
-0.180255 -0.25317 -0.177707
-0.160103 -0.193267 0.130673
-0.16682 0.29891 0.124131
0.142982 -0.149209 0.134718
-0.160103 0.0866538 0.0116349
-0.160103 -0.186564 -0.232866
0.155625 -0.1509 0.0316235
0.128754 -0.205854 -0.320765
-0.0987173 0.288446 0.282139
-0.160103 -0.0661691 0.13568
-0.0635088 0.295574 -0.322051
-0.16682 -0.0636368 -0.238289
-0.160103 -0.164007 0.124333
0.0862089 -0.225961 0.123283
0.0862089 -0.234362 0.0257631
-0.160103 -0.0699545 -0.0791836
0.142982 0.116793 -0.098867
0.155114 -0.137351 0.335405
0.142982 0.0427223 0.0809659
0.142189 0.277845 0.0883379
0.142189 0.295073 0.0525806
0.0136659 0.308771 -0.33588
-0.180255 -0.266522 0.168425
-0.144296 0.0514353 0.344837
0.155625 -0.202398 0.219161
-0.0447017 0.00251477 -0.33588
0.0488505 -0.206007 -0.186679
-0.160103 -0.165015 -0.285687
-0.16682 -0.175573 0.12769
-0.160103 -0.0245845 -0.174873
0.142189 0.294999 0.026336
-0.0967047 0.276138 -0.33588
-0.131286 0.0324829 -0.33588
0.142982 0.0957461 0.291904
0.00987644 -0.0873133 -0.344837
0.0292972 0.28016 -0.344837
0.142982 -0.0960036 -0.107076
-0.180255 -0.278579 0.267146
-0.16682 0.299068 -0.035044
0.152198 -0.22504 0.102472
-0.16682 0.0681112 0.0383662
0.155625 -0.0939122 -0.0525473
-0.160103 0.0920141 0.189868
0.155625 0.0285747 0.0443873
0.142982 0.0453689 0.290923
0.152956 0.221365 0.161493
0.155625 0.157865 0.255563
0.0902804 -0.206007 0.268896
-0.16682 -0.076101 -0.162799
-0.160103 0.176445 0.30334
0.151623 0.30565 -0.213609
0.155625 0.291568 0.273255
-0.135517 0.0170151 0.33588
0.155625 -0.176307 -0.105995
0.128754 -0.167788 0.324986
-0.180255 -0.249511 0.195738
0.128754 -0.00696534 0.337275
-0.0276131 0.0910895 -0.344837
-0.0721438 -0.206007 -0.266197
-0.160103 -0.159734 0.286023
-0.0468874 0.0731763 -0.33588
-0.16682 -0.0679512 0.310706
0.142189 0.283473 -0.101431
0.155625 -0.142908 -0.312874
-0.160103 -0.0499901 -0.0377823
-0.160103 -0.197989 -0.0857494
-0.15792 0.295573 0.295114
0.057431 -0.0852276 -0.33588
-0.16682 0.20334 -0.202347
0.153665 -0.041088 -0.175587
-0.0849958 0.211199 0.33588
0.0679571 -0.0951336 -0.33588
-0.147323 0.186247 0.344837
0.155625 -0.210938 0.235235
0.0351379 -0.082546 -0.33588
-0.0841298 -0.206007 -0.0733747
0.122347 -0.0684458 -0.344837
-0.0461115 -0.0426169 -0.33588
-0.160103 0.224289 0.232353
0.0862089 -0.252067 -0.152928
-0.160103 -0.0886551 -0.196406
0.0986369 0.281169 0.344837
-0.16682 0.159672 -0.130538
-0.16682 0.133167 0.00838612
-0.173805 0.30901 0.00437541
-0.0489201 0.16456 -0.344837
0.142982 -0.130981 0.125765
-0.180255 -0.233457 -0.0842457
0.142189 0.01761 0.329627
0.142982 -0.0951384 -0.130693
-0.0123613 0.0348719 0.33588
0.142189 0.0873044 0.0389225
-0.129629 -0.206007 -0.191832
-0.0935347 -0.0600169 -0.344837
-0.16682 0.298541 0.2468
-0.143624 -0.206007 0.311787
0.00336638 0.288779 0.33588
-0.00413206 0.0166371 -0.33588
0.155625 -0.104162 -0.329423
-0.15514 0.125233 -0.33588
0.153665 -0.0309197 0.137368
-0.141761 0.0845982 0.33588
-0.16682 0.200672 0.148955
-0.0518727 0.201308 -0.344837
0.162141 0.156704 0.0747993
-0.160103 -0.0778307 -0.309345
-0.16682 0.293191 -0.321841
-0.16682 -0.158507 0.225846
0.142982 0.0281893 -0.108563
-0.16682 0.172665 -0.17389
-0.175237 0.30901 0.165776
0.0840157 -0.00920813 -0.33588
0.155625 -0.210843 -0.216468
0.142982 0.0185792 0.0892746
-0.160103 0.160762 -0.122043
-0.16682 -0.0492559 -0.0294295
-0.0208994 -0.12779 -0.33588
-0.0155398 -0.179833 -0.344837
-0.138209 -0.206007 0.0039687
-0.0288588 0.018211 0.344837
0.142189 0.0496719 0.330218
-0.114638 -0.0222056 0.344837
0.0382764 0.0490626 0.344837
0.151774 0.175777 0.162226
0.142982 -0.106247 -0.162478
0.153665 0.051688 0.25458
0.128754 0.0933722 0.0123525
0.155625 0.146299 -0.205842
-0.16682 0.195645 -0.204458
0.128754 0.290982 0.0384554
0.142982 -0.15509 0.194048
-0.180255 -0.267474 -0.253611
-0.16682 0.17398 0.117285
-0.0956605 -0.206007 0.0972878
-0.16682 0.245794 0.211806
-0.123236 -0.206007 -0.316705
-0.160103 0.0994074 0.263318
-0.16682 0.280734 0.105982
0.142189 -0.16526 -0.0274531
-0.171075 -0.0995788 -0.344837
0.0982764 -0.206007 0.269995
0.142982 0.239589 0.158606
0.0641767 -0.206007 -0.138583
0.153665 0.0323115 -0.081983
-0.16682 -0.0856118 -0.238043
0.0929842 -0.206007 0.259719
0.153019 0.0547767 0.0121682
0.0784421 -0.206007 0.0559475
-0.154321 -0.206007 -0.0888732
0.142189 -0.117913 0.0100038
-0.160103 0.235504 -0.298783
0.132574 0.1657 0.239879
-0.0994884 -0.206007 -0.243178
0.142189 0.27467 0.148801
0.155625 0.216331 -0.215763
0.143077 -0.152957 -0.345747
0.128754 0.155595 -0.325791
0.153665 -0.111531 0.084589
-0.160103 -0.0631651 0.130116
-0.160103 0.244773 0.162447
-0.160103 0.284718 -0.230925
-0.16682 -0.0100952 0.0668872
-0.065791 -0.206007 -0.160673
-0.116507 0.164304 0.33588
-0.160103 -0.015729 0.138213
0.151485 0.0830094 0.0625411
0.142982 0.0723232 0.128568
-0.160103 0.277526 0.167101
0.131997 -0.228399 0.268896
0.0937038 -0.206007 0.220468
0.153665 0.0145833 0.248893
-0.180255 -0.21089 -0.149226
0.128754 0.287123 0.220874
0.142982 -0.151439 0.198927
-0.160103 0.0940421 0.304529
-0.0302947 -0.148381 0.344837
0.142189 -0.205468 -0.289813
-0.160103 -0.0370436 -0.138037
-0.155766 0.229918 -0.33588
0.151382 0.225869 0.261645
0.142189 -0.183033 0.122039
-0.0803072 -0.206007 -0.154177
0.142189 0.1394 0.246166
-0.16682 0.00916332 0.0577816
-0.16682 -0.13679 0.274689
-0.160103 0.135409 -0.0687932
-0.0751637 -0.155589 -0.33588
0.175187 0.155721 0.19073
0.129821 0.122487 0.349315
0.142189 -0.176622 -0.224978
0.172035 0.160124 0.241608
0.0845387 0.0880905 -0.344837
0.142189 0.200077 0.0278377
0.108363 -0.206007 0.284908
0.142189 0.203847 0.0653214
-0.160103 0.261187 -0.138522
-0.124776 -0.206007 -0.203977
-0.16682 0.00149723 0.31818
0.153665 -0.152791 -0.231432
-0.180255 -0.209304 -0.269214
0.0865101 -0.198249 -0.344837
0.142982 0.0459529 -0.163759
0.154321 -0.0609725 0.0134594
-0.180255 -0.298531 0.115168
-0.160103 0.245061 0.273163
-0.169472 -0.174083 0.33588
0.0919528 0.200739 0.344837
0.155625 -0.184421 0.168782
0.151879 0.113569 -0.110052
-0.160103 0.274171 0.205353
-0.160103 0.195886 -0.149859
-0.160103 -0.0359035 0.175801
0.155625 -0.0350229 0.317703
-0.160103 0.0257522 0.136794
0.0102746 -0.295537 0.344837
-0.160103 0.18048 -0.00223488
-0.180255 0.304194 0.285758
0.142982 0.115932 -0.257705
-0.0257999 0.210219 0.33588
0.122424 -0.197273 -0.344837
-0.16682 0.223114 0.0855926
-0.160103 0.26366 -0.160423
0.0512084 -0.207771 -0.33588
0.155625 -0.0776363 0.317105
0.0188184 0.144084 -0.33588
0.0732301 -0.206007 0.246991
0.155482 0.294513 -0.185444
0.0426016 -0.186884 0.33588
0.151382 0.225297 -0.119711
-0.16682 0.241463 0.171672
-0.0259353 -0.181597 0.344837
-0.16682 0.0551199 -0.149539
-0.160103 -0.180053 0.139501
-0.16682 -0.157714 -0.31645
-0.16682 0.303116 0.158454
0.142982 0.0246608 0.160193
0.0740763 -0.206007 -0.236337
-0.160103 -0.0324453 0.274216
0.142189 0.0538653 0.324992
-0.160103 0.00884735 0.20463
-0.16682 0.284243 0.191795
-0.16682 0.0738276 -0.0635657
0.142189 -0.209895 0.271585
-0.138176 -0.0921802 0.33588
0.153665 0.00310962 0.12637
-0.16682 0.189678 0.17156
0.155625 0.197908 0.246261
0.142982 0.262017 0.125935
0.151217 0.0456879 -0.345956
-0.160103 -0.0323782 0.101005
-0.115587 0.124689 0.344837
-0.065083 -0.0743474 0.344837
-0.16682 0.207361 -0.165121
-0.160103 -0.11793 -0.214042
0.142189 -0.178759 -0.0709175
-0.160103 0.100082 -0.121377
0.127799 -0.206007 -0.0606619
-0.16682 0.304174 0.118405
0.089247 -0.206007 -0.103213
0.00473044 -0.15319 0.33588
0.142189 -0.204145 -0.280882
-0.180255 -0.248867 0.000147715
0.131692 -0.208846 -0.349315
0.141854 -0.228399 0.283577
0.155625 0.0987815 0.305555
-0.146542 -0.26895 0.344837
-0.0935628 -0.128171 -0.33588
-0.0947558 0.0483244 -0.33588
0.142189 -0.222443 0.124599
0.101968 -0.206007 -0.210079
-0.160103 -0.0594202 0.212159
-0.180255 -0.254154 -0.218532
-0.0734676 -0.15771 0.344837
-0.0803096 0.286616 0.32044
0.128754 0.225551 -0.0209181
0.0125079 0.0999174 -0.344837
-0.16682 -0.201472 0.204055
-0.160103 -0.0940555 -0.261092
0.153665 0.002458 0.186373
0.142982 0.113561 0.277423
-0.16682 0.0860846 -0.176127
0.1437 -0.224998 0.237789
-0.160103 0.205346 0.165547
0.142189 -0.221378 -0.0465279
-0.180255 -0.25072 -0.0533408
0.155625 -0.173381 -0.182926
0.110292 0.0323336 0.344837
-0.16682 -0.0532199 -0.263638
-0.0562098 0.123209 -0.33588
0.15539 0.0253722 -0.0103166
-0.0328422 -0.0693546 -0.344837
0.142982 -0.0093093 0.28113
0.142982 -0.0486039 0.140664
0.0568673 0.160459 -0.344837
0.0701191 -0.206007 -0.092114
0.00244753 -0.175319 0.33588
0.0890456 -0.0956414 0.33588
-0.149944 0.040319 -0.344837
0.153073 0.266779 -0.264505
-0.165491 0.288531 -0.344837
0.00892941 0.0917843 -0.33588
-0.16682 0.295184 -0.0528756
-0.0657715 -0.206007 -0.272111
0.153665 -0.082984 0.147035
-0.160103 0.125966 0.168709
0.0862089 -0.248068 -0.177658
0.147009 0.175777 -0.329322
0.153665 0.0822188 0.279624
-0.180255 -0.239055 0.272114
-0.16682 0.0750135 0.155294
-0.160103 0.0120738 -0.0368254
0.142189 -0.0187069 -0.347211
-0.0271823 0.229437 0.33588
0.142189 -0.192503 -0.160268
-0.0395123 -0.0656004 0.344837
0.151522 -0.163727 -0.198178
-0.160103 -0.100492 -0.0320445
0.142982 0.0659351 0.198053
-0.110776 -0.206007 0.148735
0.140056 0.30901 -0.283292
0.142189 0.183833 0.012993
-0.115819 -0.0749641 -0.344837
0.142189 -0.126393 0.0164838
0.153019 -0.114841 -0.011399
0.148219 -0.22504 -0.288824
-0.00351556 -0.19441 0.344837
-0.0589841 0.165111 -0.33588
-0.0194527 -0.206007 0.219423
0.142189 0.291104 -0.0351575
0.128754 -0.226589 0.161355
-0.160103 0.123868 0.2726
0.142982 -0.149384 0.278586
-0.160103 -0.0201496 -0.094656
-0.0114323 0.115668 -0.344837
-0.160103 0.126249 0.301306
0.142189 -0.220232 0.171957
0.142982 0.0161613 -0.0774354
-0.180255 0.116458 -0.340362
-0.16682 0.0486212 0.143893
0.142982 -0.000687744 0.060064
-0.180255 -0.221846 0.2441
0.155625 -0.196424 0.341682
0.142189 -0.213383 -0.0587508
0.142189 -0.186621 -0.264938
-0.0436861 -0.0821255 0.344837
-0.0721776 0.0929849 0.33588
-0.160103 0.0498872 0.237773
0.0413828 -0.115812 -0.344837
-0.16682 -0.0654637 -0.241812
-0.156383 0.199526 0.344837
0.153668 0.221365 0.248015
-0.128536 -0.0129133 0.344837
0.0972859 0.16434 -0.344837
0.155625 0.173585 0.0788648
0.153665 0.0991238 0.137377
0.114274 -0.0163562 -0.344837
0.0644076 -0.206007 0.243683
-0.16682 0.0789016 -0.202443
-0.160103 -0.14019 -0.165275
-0.16682 0.182953 0.0911386
-0.160103 0.120703 -0.0592809
-0.117617 -0.206007 -0.0891798
-0.179479 -0.203767 0.143724
-0.123131 -0.18359 -0.344837
0.142189 0.189553 0.0608217
0.142189 0.167226 0.218094
-0.16682 0.243294 -0.247315
0.0471282 0.0889568 0.33588
0.153665 -0.0904991 0.072901
0.102291 0.307115 0.33588
-0.16682 -0.212152 0.225913
0.142189 0.122794 -0.248041
-0.160103 0.00677533 -0.331297
0.0669063 0.242011 0.33588
0.153665 -0.0256705 0.143075
-0.123035 -0.0140666 0.33588
-0.180255 0.287378 -0.340734
0.128754 0.127561 -0.00821316
0.0764576 -0.18789 -0.344837
0.128754 0.244056 -0.335085
-0.16682 0.307674 0.146407
-0.160103 -0.00792142 0.103399
-0.160103 0.0569035 -0.00707818
-0.162781 0.286617 0.17779
-0.170674 0.30901 0.0142898
0.142982 0.224502 -0.143382
0.103671 -0.0692625 0.344837
0.0678766 0.000726324 -0.344837
0.153665 0.0489093 0.183375
0.142189 0.200625 0.192962
-0.0389307 -0.186216 0.33588
-0.129915 -0.129145 -0.33588
-0.160103 0.258226 0.310792
0.155625 0.21239 -0.0257526
0.0236278 -0.206124 -0.344837
0.155625 0.225989 0.309485
-0.0104068 0.30901 0.342338
0.142189 0.0975663 -0.0210142
-0.102339 -0.172022 0.344837
-0.160103 0.093234 -0.0363381
-0.149587 0.0666731 0.344837
0.0862089 -0.271642 -0.0991319
-0.180255 -0.214173 -0.184685
-0.160589 0.290699 0.282139
0.138199 0.282139 0.0996306
0.120022 -0.155402 -0.33588
-0.114847 0.171694 -0.344837
0.1269 -0.206007 -0.181542
-0.160402 0.286617 -0.288773
0.142189 -0.116222 -0.313803
0.155625 -0.191506 0.141294
0.107135 -0.100209 0.344837
-0.180255 0.294353 0.196759
0.155625 0.188428 0.0706598
0.151382 0.263787 -0.232925
-0.0412248 -0.206007 0.113073
-0.17937 -0.0617285 -0.344837
-0.17689 -0.0666491 -0.33588
-0.0492422 0.121366 -0.33588
-0.16682 0.0222249 0.00450408
0.155625 0.203969 -0.0268738
-0.118699 -0.133886 -0.33588
0.155463 0.239457 0.334885
-0.153992 -0.206007 -0.248615
0.153665 -0.0313817 -0.237862
0.153665 -0.0322156 -0.156578
0.155625 0.158987 0.278843
-0.160103 -0.183483 0.00374033
0.153665 0.0838238 0.157979
0.0965819 -0.0848184 0.344837
0.0578051 -0.15084 -0.344837
-0.160103 0.0152923 0.310609
0.142189 0.294331 0.198772
-0.180255 -0.250386 0.219634
0.142189 0.135118 0.288986
-0.180255 0.300509 0.0818555
0.142982 0.100838 -0.255187
0.153665 0.0214605 0.158381
0.112391 0.295574 0.285963
0.142189 0.293807 0.227695
0.0862089 -0.293761 -0.260819
-0.180255 -0.215332 0.288621
0.0222798 0.286617 -0.314176
0.153665 0.0991985 -0.0810003
-0.16682 -0.0977868 0.241202
-0.16682 0.251645 -0.241792
0.153665 -0.0746421 -0.123444
0.142189 -0.198623 0.177095
-0.113752 0.146555 0.344837
-0.16682 0.0493241 0.201833
0.0139489 0.173185 0.344837
0.155625 0.161593 -0.0440431
-0.16682 -0.200577 0.229754
-0.0299585 -0.0155741 0.344837
-0.177276 0.179768 0.344837
0.142982 -0.124029 -0.202608
-0.0879949 -0.0135894 0.33588
-0.16682 0.231577 0.309129
-0.160103 0.131667 -0.0354026
-0.16682 0.200178 -0.178642
-0.128057 0.28966 0.33588
0.155625 0.135115 -0.107487
0.128754 -0.224333 -0.224131
-0.160103 0.0668937 -0.0979268
-0.160103 -0.145622 0.120299
0.179708 0.157613 0.271852
0.13618 -0.18038 0.0268704
-0.160103 0.256137 0.262242
0.00991797 -0.269274 0.344837
-0.0865422 -0.0581075 -0.344837
0.142189 0.0606881 -0.305057
-0.130826 -0.206007 -0.298459
-0.16682 0.0059461 0.149026
-0.16682 0.00634681 0.263994
-0.096151 -0.206007 -0.202484
0.142982 0.0682274 0.15692
0.155625 0.0103031 0.315609
0.142189 0.0481754 -0.3217
-0.160103 0.213268 -0.307184
0.151382 0.254006 0.0706245
-0.160103 -0.0311003 -0.013364
-0.00846293 -0.206007 -0.0712192
-0.160103 0.152459 0.239177
-0.163617 -0.202256 0.33588
0.142982 0.224896 -0.203123
-0.160103 -0.0332907 0.192605
-0.00960238 -0.206007 0.308329
-0.11021 -0.0848696 0.344837
-0.160103 -0.00539109 0.139323
-0.16682 -0.0419815 0.199516
0.142982 -0.139083 -0.159062
-0.180255 -0.246272 0.189005
0.0608491 -0.209368 0.344837
0.155625 -0.185414 0.216866
0.154265 0.175695 -0.334557
0.155625 -0.180916 0.0597645
-0.0861593 0.298044 -0.344837
-0.16682 -0.179396 -0.13205
0.153665 0.0177903 0.18452
-0.0349749 0.266239 0.344837
0.142982 0.0064291 0.190381
0.142982 0.230148 -0.0894604
-0.16682 0.00522719 -0.110588
-0.180255 -0.267684 0.224944
0.0282049 -0.206007 0.0783714
0.00255089 0.269674 -0.33588
0.155434 0.189318 0.125119
0.153665 0.0834669 0.130925
-0.130587 0.286439 0.33588
-0.160103 0.245059 -0.0993938
-0.16682 0.20653 -0.0554158
-0.160103 -0.207282 0.175077
0.154359 -0.0622237 -0.335846
0.153019 0.297417 -0.252182
-0.126833 -0.206007 0.333248
0.142189 0.0608591 0.0148956
0.0964513 0.295574 -0.327989
0.128754 -0.220593 -0.163228
-0.160103 0.0504191 0.253816
0.138017 0.30901 0.224649
-0.160103 -0.196969 0.289589
0.142189 0.268006 -0.0182157
0.0452303 -0.249167 -0.344837
0.142189 0.15956 -0.342401
0.128754 0.307711 -0.156378
-0.160103 0.0174887 -0.0619183
-0.109133 -0.215297 0.33588
-0.180255 -0.260956 -0.299838
0.142189 0.171266 -0.0677995
-0.160103 0.0962574 0.021554
0.142189 -0.20076 0.290462
0.151971 0.182494 0.215079
0.142189 0.203876 -0.224038
0.128754 0.12232 -0.346394
0.128754 0.298831 0.122688
-0.126467 0.289781 0.33588
0.128754 -0.205921 -0.228554
-0.0420276 0.216913 -0.344837
0.00781735 0.230367 0.344837
-0.16682 0.0878297 -0.1375
0.142982 0.0993034 0.220011
-0.150243 -0.123028 -0.344837
0.140406 -0.201528 0.316998
-0.110759 -0.074071 0.33588
0.147111 -0.157495 0.00335836
-0.160103 0.252203 0.322236
-0.16682 -0.0620007 -0.264321
-0.180255 -0.293749 0.100851
0.153665 -0.113139 -0.234528
-0.160103 -0.162666 0.0441772
-0.122913 -0.290943 0.344837
-0.0204666 0.201833 0.33588
0.142982 0.0726878 0.160775
0.142189 0.201814 -0.140709
0.126465 0.0912213 0.33588
0.128754 -0.227099 0.0103529
-0.095454 -0.182798 0.33588
0.154992 0.304631 -0.345531
0.0141703 0.194548 -0.344837
0.134943 0.192571 0.257654
0.0036249 0.200075 -0.33588
0.155498 0.189079 -0.266753
-0.16682 0.086818 -0.224548
0.155625 0.273621 -0.261279
-0.16682 -0.0615677 -0.206515
-0.16682 0.0647402 0.137405
-0.160103 -0.0765495 -0.275708
0.142189 -0.22492 0.00524078
-0.107054 0.168815 -0.344837
0.0862089 -0.268961 -0.00602703
-0.15836 -0.199709 0.344837
0.142189 0.294169 0.153503
0.153665 -0.0392919 0.165784
-0.180255 0.267211 -0.199687
-0.160103 0.206873 -0.146744
0.142189 0.195758 -0.244197
-0.160103 -0.200356 0.103964
0.139903 -0.228399 -0.232974
-0.16682 0.109494 -0.010493
-0.147063 0.292361 -0.344837
-0.16682 0.13494 -0.145486
0.142189 0.230993 0.341581
-0.16682 0.00581205 -0.008564
-0.00124037 0.295574 -0.311152
0.128754 0.0971294 0.0045463
-0.164218 0.235544 -0.33588
0.0114133 0.0888729 0.33588
0.112752 0.113767 0.344837
0.00865719 -0.206007 -0.0188293
0.142189 -0.157545 0.0145121
0.142189 -0.0100715 0.018936
-0.16682 -0.0136048 -0.161124
0.142189 -0.19197 0.0118619
-0.160103 0.269806 0.0362886
0.142189 0.180908 -0.188354
0.128754 -0.207903 -0.22649
0.0955754 0.0463764 0.33588
-0.16682 -0.0881806 0.283008
0.142189 0.212197 0.28119
-0.180255 -0.255182 0.237311
0.0186144 0.0212766 0.344837
0.142982 -0.0186522 -0.213485
0.00156742 0.0359358 0.33588
-0.16682 0.13901 -0.156826
-0.16682 -0.112557 -0.147048
-0.111395 0.0727595 -0.33588
0.153665 -0.146649 0.066996
-0.150475 -0.243727 -0.344837
0.155594 0.184047 0.290426
0.151382 0.238237 -0.139792
0.155625 -0.098062 -0.0527228
0.0862089 -0.252991 -0.049058
-0.160103 0.106919 -0.0654575
0.142982 0.104784 0.238856
-0.160103 -0.193142 0.0373604
-0.142311 -0.206007 0.0646133
0.142189 0.172373 -0.265898
-0.180255 -0.222585 -0.277338
-0.0730628 0.212307 0.33588
0.0248599 0.161169 -0.33588
0.142982 0.0297151 0.254358
-0.118433 0.287793 0.282139
-0.16682 0.20271 0.0690855
-0.160103 -0.173859 0.0313974
-0.180255 -0.282664 -0.0225591
-0.160103 -0.104299 -0.206045
-0.16682 -0.207515 -0.11609
-0.0626302 0.125231 -0.33588
0.142189 0.216203 -0.14993
0.128754 0.0047942 -0.332799
0.117223 -0.206007 -0.103365
-0.160103 0.174722 -0.263947
-0.160103 0.138021 0.133677
0.155625 -0.0724856 -0.0343459
-0.174001 -0.104247 0.33588
-0.160103 0.101064 0.182253
0.0145389 -0.300501 -0.344837
-0.16682 -0.0797801 -0.29295
0.155625 0.248594 0.316169
0.124082 -0.206007 0.258945
0.151382 0.22923 -0.0173334
0.143347 -0.164005 0.0034948
0.153665 -0.0316393 -0.236833
0.128913 -0.0396914 0.322445
0.15561 -0.213426 -0.289725
0.142982 0.0918266 -0.127014
-0.160103 -0.0347986 0.122378
-0.180255 -0.280369 -0.169606
0.151382 0.24018 0.194082
-0.16682 0.289372 -0.207881
-0.180255 0.287266 0.00140774
0.140293 0.165701 -0.15717
0.0935477 -0.0250467 -0.33588
-0.180255 -0.272582 0.212704
0.13251 0.192572 -0.0564633
0.151471 -0.0653761 -0.287614
0.153348 0.113181 -0.137279
0.142982 -0.0781745 0.16511
-0.173065 0.30901 -0.106325
-0.0217215 -6.57067e-05 -0.33588
-0.168445 0.255269 0.0990156
0.142189 0.101953 -0.0355336
-0.160103 -0.20507 0.155523
0.142982 -0.138477 -0.204941
-0.160103 0.0505899 0.212056
0.136027 0.23662 -0.0268704
-0.138916 0.00554668 0.344837
-0.16682 0.146525 -0.225986
0.142189 -0.0460065 -0.341183
0.0862089 -0.216782 -0.170942
-0.16682 0.171243 0.223161
0.142189 -0.215846 0.328318
0.154287 0.168084 -0.209685
0.142189 0.172545 -0.0261964
0.142189 0.104817 0.00599026
0.142189 -0.146474 -0.0138366
0.153665 -0.121631 0.0744747
0.0862089 -0.290624 0.336775
0.142982 -0.142936 0.235308
-0.16682 0.0870832 0.0308313
0.142189 0.0854414 -0.349012
-0.160103 0.240909 0.291149
-0.104489 -0.110392 -0.33588
-0.160103 0.129893 -0.143132
0.153665 -0.0918304 0.07181
0.142189 0.288256 -0.0799176
0.00614858 0.226384 0.344837
0.140777 0.282139 0.213725
0.128942 0.1657 0.20631
0.0921506 -0.0189443 0.33588
0.038406 0.00808471 -0.33588
-0.0880465 0.0594172 -0.33588
0.0805689 -0.130495 0.344837
0.15542 0.304742 -0.173732
-0.00356543 -0.206007 -0.320278
0.142189 0.175533 0.226318
-0.160103 -0.0564983 0.187112
-0.180255 0.226416 -0.342324
-0.00613779 0.162561 0.33588
-0.180255 -0.226833 -0.311685
0.104888 -0.140452 -0.33588
0.153665 0.0884054 -0.233814
0.142189 -0.199225 -0.00135293
-0.180255 -0.0630762 -0.343858
0.142189 0.0274796 0.345713
0.142982 0.00946725 -0.170177
-0.171572 0.255269 -0.148431
0.152641 0.103945 0.345956
0.142189 -0.0756694 -0.0053855
-0.17992 0.239452 -0.344837
-0.0777994 0.0381367 -0.344837
0.153665 0.0104627 0.0887933
0.142189 0.187396 -0.143783
0.142189 0.281338 0.163864
0.153665 0.0637543 -0.242878
-0.160103 -0.0646471 -0.306968
0.101475 0.295574 0.290326
-0.16682 -0.112893 0.151832
0.142189 0.113319 -0.0509647
0.0119295 -0.135911 0.33588
-0.144807 -0.227059 0.344837
0.142189 0.294002 0.0138357
0.0552853 0.157899 -0.344837
-0.160103 -0.0311542 -0.192299
-0.0530485 0.190487 0.33588
-0.0505092 0.244189 -0.33588
-0.180255 0.208405 0.337156
-0.16682 -0.19702 -0.0964588
0.155625 0.234919 -0.327747
0.155625 0.103433 -0.0205533
-0.16682 -0.0550876 0.160309
-0.16682 0.109955 0.227898
0.142189 -0.11272 0.331139
-0.160807 -0.0333813 0.33588
0.142982 -0.141325 -0.155414
-0.160103 -0.0509822 -0.317337
0.0647108 -0.0404742 -0.33588
0.0314923 0.163996 0.33588
-0.064402 -0.0384381 0.33588
0.142665 -0.0572215 0.00393977
0.0468969 -0.206007 -0.295311
0.0572611 0.0780494 -0.344837
0.153665 -0.0643924 0.268436
-0.160103 0.0839126 -0.0196682
0.019676 -0.206007 -0.325946
-0.145176 -0.145007 -0.344837
0.110976 0.204659 0.344837
0.155625 0.0358881 0.00677185
0.142982 0.110455 0.0664848
-0.16682 0.270185 0.0304845
-0.080305 0.205353 0.33588
0.0635853 -0.305151 -0.344837
-0.16682 -0.0770179 -0.222218
0.132574 -0.228399 -0.297914
0.142189 0.16314 -0.0261109
-0.0108398 0.30229 0.33588
0.142982 0.251733 0.0867892
0.128754 0.301456 -0.344141
0.155625 0.207511 -0.0810279
0.128754 -0.109872 -0.021678
-0.00517206 -0.204047 0.344837
0.153665 0.0888587 -0.266569
0.151506 -0.164679 -0.258061
-0.0437177 -0.184982 0.344837
-0.16682 -0.0400264 0.222877
-0.180255 0.305239 0.187572
-0.160103 -0.200047 -0.117038
0.154595 0.160188 0.00352955
0.155625 0.206584 -0.304855
-0.128445 0.0637701 -0.33588
0.142982 -0.0866764 0.264039
0.142982 0.000695691 -0.0868528
-0.114457 -0.206007 0.0397229
-0.180255 0.266879 0.332426
-0.160103 0.0160955 -0.124851
-0.0311064 -0.283533 -0.344837
0.128754 0.305954 -0.21626
-0.160103 0.0508081 0.144796
-0.160103 0.0623009 -0.208097
0.155625 0.302564 -0.173418
-0.16682 0.0285118 0.151507
-0.0142279 0.187745 -0.344837
-0.0655092 -0.173287 -0.344837
0.153665 0.0489362 0.217944
0.142982 0.0986548 0.132369
-0.00843445 -0.197946 -0.344837
-0.160103 -0.0155666 -0.335
-0.0749388 0.295574 -0.321657
-0.160103 0.22993 0.234307
-0.130426 0.302127 0.344837
-0.160103 -0.131605 0.121184
-0.180255 -0.275431 0.167067
0.0975193 -0.206007 -0.215476
-0.16682 -0.203941 0.21307
0.155625 0.186221 0.0456496
-0.0529524 -0.206007 -0.266667
-0.160103 0.0926589 -0.19525
-0.160103 -0.0349856 0.109272
0.155625 0.0596774 0.315187
0.0630286 -0.206007 0.196493
-0.16682 0.292544 0.192525
0.142982 0.0118715 -0.209881
0.137 0.30901 0.168582
-0.0278607 -0.0958355 -0.344837
0.137363 0.184441 0.349315
-0.160103 0.0873685 0.110268
-0.180255 -0.254814 0.04901
0.153665 0.0940718 -0.136966
-0.160103 0.0358523 0.261451
0.153665 -0.0346891 0.0844379
0.133652 0.120494 0.349315
-0.160103 0.175613 0.157949
0.130721 0.192572 -0.289099
-0.160103 0.119908 -0.0996586
0.142982 -0.0707314 0.114497
-0.16682 0.155764 0.213909
0.151382 0.224887 -0.0506011
0.128754 0.138995 -0.0032509
-0.0181327 -0.0173566 0.344837
0.145472 0.182494 -0.046181
0.142189 -0.171292 0.0403378
0.142189 0.297004 0.277178
-0.16682 0.180808 0.319761
0.00741446 0.0913603 -0.33588
0.0816391 0.00873627 -0.344837
0.180051 0.158894 -0.109066
-0.16682 -0.17448 0.272598
-0.160103 0.0558959 0.217974
-0.0857696 -0.206007 0.112109
0.138719 0.154774 0.0268704
-0.118292 -0.206007 -0.0780457
-0.160103 0.144479 0.0487927
-0.160103 0.0109741 0.168889
0.122755 0.121755 -0.33588
0.00300462 -0.206007 0.0331242
0.136175 0.162531 0.0268704
0.137776 0.282139 -0.319225
0.142189 -0.00199418 0.034367
-0.160103 0.153736 -0.137964
-0.0296047 0.113334 -0.344837
-0.0634696 -0.118324 0.344837
0.142189 -0.212423 0.270575
-0.09664 0.0823007 -0.344837
0.155625 -0.198839 -0.158528
0.0586556 0.286617 -0.316065
0.103085 0.16773 0.344837
-0.00905918 0.242611 0.344837
0.117376 -0.135112 0.33588
-0.180255 0.278741 0.21283
0.153665 -0.143673 0.25897
-0.0863807 0.00143941 -0.344837
0.153665 -0.0710507 0.168677
-0.172938 -0.203767 0.090345
-0.16682 0.0352195 0.205452
-0.160103 -0.080797 -0.325888
0.154818 0.175526 0.235804
-0.160103 0.235634 -0.0739942
0.142189 0.290763 0.11584
-0.164045 0.251536 0.344837
0.155625 0.0236948 0.0273401
0.142189 0.140425 0.184264
0.126898 -0.15105 0.344837
-0.160103 -0.168032 -0.153043
0.142982 -0.0355461 -0.164165
-0.16682 0.165622 0.151602
-0.16682 -0.142816 -0.197246
0.0238615 -0.0553718 0.33588
-0.0465571 0.196159 -0.33588
0.142189 0.289079 -0.0455503
-0.0126734 0.286616 0.302234
0.0862089 -0.30687 0.178503
-0.160103 0.120728 -0.102065
-0.16682 -0.168091 0.00547822
0.147299 -0.223525 -0.00335835
-0.0808767 0.217876 -0.344837
0.096953 -0.0429154 -0.33588
-0.16682 0.042098 0.291701
0.142982 0.259895 0.164527
-0.16682 0.216871 -0.310465
-0.180255 -0.248406 -0.176474
-0.180255 0.278779 0.0884751
0.153615 -0.148087 0.0133618
0.151453 0.118414 0.138013
0.0862089 -0.263439 -0.25553
0.0776589 0.286617 -0.286695
-0.16682 0.0433078 -0.215598
0.173979 0.156057 0.133426
