ply
format ascii 1.0
comment Created by Open3D
element vertex 605
property double x
property double y
property double z
end_header
-0.0721911 -0.198106 -0.338553
-0.0766226 -0.19725 -0.320679
-0.0597615 -0.195896 -0.30103
-0.0638708 -0.191919 0.306958
-0.0775625 -0.18954 0.323563
-0.0776734 -0.189457 0.335386
-0.0758018 -0.181091 -0.316833
-0.0597615 -0.183523 -0.30103
-0.170895 -0.16405 0.106858
-0.170893 -0.163957 0.125214
-0.17089 -0.163809 0.154539
-0.170889 -0.163754 0.165522
-0.170886 -0.163606 0.194774
-0.170885 -0.16355 0.20573
-0.170882 -0.163403 0.23491
-0.170881 -0.163348 0.245839
-0.170878 -0.163201 0.274947
-0.170877 -0.163145 0.285849
-0.170874 -0.162999 0.314884
-0.170873 -0.162944 0.325759
-0.17087 -0.162797 0.354723
-0.170869 -0.162743 0.365571
-0.170945 -0.162795 -0.385345
-0.170943 -0.162739 -0.373993
-0.170941 -0.16259 -0.343759
-0.170938 -0.162497 -0.324891
-0.170936 -0.162348 -0.294746
-0.170933 -0.162199 -0.264657
-0.170929 -0.162051 -0.234623
-0.170926 -0.161902 -0.204644
-0.170923 -0.161755 -0.17472
-0.17092 -0.161607 -0.14485
-0.170917 -0.16146 -0.115035
-0.170916 -0.161405 -0.103868
-0.170913 -0.161258 -0.0741279
-0.17091 -0.161111 -0.0444413
-0.170907 -0.160965 -0.0148088
-0.170904 -0.160818 0.01477
-0.170903 -0.160764 0.0258481
-0.1709 -0.160618 0.0553532
-0.170897 -0.160472 0.0848047
-0.115544 -0.163492 0.409372
-0.115628 -0.163571 -0.423684
-0.170881 -0.144994 0.245839
-0.170878 -0.144863 0.274947
-0.170877 -0.144814 0.285849
-0.170874 -0.144684 0.314884
-0.170873 -0.144635 0.325759
-0.17087 -0.144505 0.354723
-0.170869 -0.144457 0.365571
-0.170945 -0.144083 -0.385345
-0.170943 -0.144033 -0.373993
-0.170941 -0.143901 -0.343759
-0.170908 -0.142495 -0.0222119
-0.170906 -0.142398 -1.26958e-05
-0.170904 -0.142317 0.0184635
-0.170902 -0.142221 0.0406073
-0.1709 -0.14214 0.0590375
-0.170898 -0.142043 0.0811262
-0.170938 -0.140083 -0.324891
-0.170936 -0.139955 -0.294746
-0.170933 -0.139827 -0.264657
-0.170929 -0.139699 -0.234623
-0.170926 -0.139571 -0.204644
-0.170923 -0.139444 -0.17472
-0.17092 -0.139316 -0.14485
-0.170917 -0.139189 -0.115035
-0.170916 -0.139142 -0.103868
-0.170913 -0.139015 -0.0741279
-0.17091 -0.138889 -0.0444413
-0.115544 -0.144257 0.409372
-0.115628 -0.143864 -0.423684
-0.170896 -0.134588 0.0995104
-0.170894 -0.134512 0.117874
-0.170892 -0.134421 0.139883
-0.17089 -0.134345 0.158201
-0.170888 -0.134254 0.180155
-0.170886 -0.134178 0.198427
-0.170884 -0.134088 0.220327
-0.170938 -0.121405 -0.324891
-0.170936 -0.121294 -0.294746
-0.170933 -0.121183 -0.264657
-0.170929 -0.121072 -0.234623
-0.170926 -0.120962 -0.204644
-0.170923 -0.120851 -0.17472
-0.17092 -0.120741 -0.14485
-0.170917 -0.120631 -0.115035
-0.170916 -0.12059 -0.103868
-0.170913 -0.12048 -0.0741279
-0.17091 -0.12037 -0.0444413
-0.170907 -0.120261 -0.0148088
-0.170904 -0.120152 0.01477
-0.170903 -0.120111 0.0258481
-0.1709 -0.120002 0.0553532
-0.170897 -0.119893 0.0848047
-0.115543 -0.124981 0.420766
-0.115628 -0.124156 -0.423684
-0.170881 -0.115628 0.245839
-0.170878 -0.115524 0.274947
-0.170877 -0.115485 0.285849
-0.170874 -0.115381 0.314884
-0.170873 -0.115342 0.325759
-0.17087 -0.115239 0.354723
-0.170869 -0.1152 0.365571
-0.170945 -0.114144 -0.385345
-0.170943 -0.114104 -0.373993
-0.170941 -0.114 -0.343759
-0.170896 -0.105101 0.0958353
-0.170893 -0.105006 0.125214
-0.17089 -0.104911 0.154539
-0.170889 -0.104876 0.165522
-0.170886 -0.104781 0.194774
-0.170885 -0.104746 0.20573
-0.170882 -0.104651 0.23491
-0.170881 -0.104616 0.245839
-0.170878 -0.104522 0.274947
-0.170877 -0.104486 0.285849
-0.170874 -0.104392 0.314884
-0.170873 -0.104357 0.325759
-0.17087 -0.104263 0.354723
-0.170869 -0.104228 0.365571
-0.170931 -0.102493 -0.249634
-0.170929 -0.102434 -0.230873
-0.170927 -0.102376 -0.212134
-0.170925 -0.102305 -0.189675
-0.170923 -0.102247 -0.170983
-0.170921 -0.102189 -0.152313
-0.170919 -0.102119 -0.129936
-0.170917 -0.102061 -0.111312
-0.170915 -0.101991 -0.0889914
-0.170913 -0.101933 -0.0704141
-0.170911 -0.101875 -0.0518579
-0.170909 -0.101805 -0.0296183
-0.170907 -0.101748 -0.0111085
-0.170905 -0.101678 0.0110756
-0.170903 -0.101621 0.0295392
-0.170901 -0.101563 0.0479819
-0.170899 -0.101494 0.0700856
-0.115628 -0.104449 -0.423684
-0.170938 -0.0989921 -0.324891
-0.170936 -0.0989014 -0.294746
-0.170897 -0.0940594 0.0884824
-0.170895 -0.0939955 0.110531
-0.170893 -0.0939424 0.128882
-0.115544 -0.094248 0.409372
-0.170945 -0.0842044 -0.385345
-0.170943 -0.0841754 -0.373993
-0.170941 -0.0840981 -0.343759
-0.115628 -0.0847417 -0.423684
-0.170938 -0.0803144 -0.324891
-0.170936 -0.0802408 -0.294746
-0.170933 -0.0801673 -0.264657
-0.170929 -0.080094 -0.234623
-0.170926 -0.0800208 -0.204644
-0.170923 -0.0799477 -0.17472
-0.17092 -0.0798748 -0.14485
-0.170917 -0.079802 -0.115035
-0.170916 -0.0797747 -0.103868
-0.170913 -0.0797021 -0.0741279
-0.17091 -0.0796296 -0.0444413
-0.170907 -0.0795572 -0.0148088
-0.170904 -0.079485 0.01477
-0.170903 -0.0794579 0.0258481
-0.1709 -0.0793859 0.0553532
-0.17089 -0.0754626 0.154539
-0.170889 -0.075437 0.165522
-0.170886 -0.0753689 0.194774
-0.170885 -0.0753434 0.20573
-0.170882 -0.0752755 0.23491
-0.170881 -0.07525 0.245839
-0.170878 -0.0751823 0.274947
-0.170877 -0.0751569 0.285849
-0.170874 -0.0750893 0.314884
-0.170873 -0.0750639 0.325759
-0.17087 -0.0749965 0.354723
-0.170869 -0.0749713 0.365571
-0.115543 -0.0749885 0.420766
-0.170897 -0.0645579 0.0848047
-0.170896 -0.0645359 0.0958353
-0.170893 -0.0644776 0.125214
-0.17089 -0.0644193 0.154539
-0.170889 -0.0643974 0.165522
-0.170886 -0.0643393 0.194774
-0.170885 -0.0643175 0.20573
-0.170882 -0.0642595 0.23491
-0.170881 -0.0642378 0.245839
-0.170878 -0.06418 0.274947
-0.170877 -0.0641583 0.285849
-0.170874 -0.0641006 0.314884
-0.170873 -0.064079 0.325759
-0.170938 -0.0616366 -0.324891
-0.170936 -0.0615801 -0.294746
-0.170933 -0.0615237 -0.264657
-0.170929 -0.0614675 -0.234623
-0.170926 -0.0614113 -0.204644
-0.170923 -0.0613552 -0.17472
-0.17092 -0.0612992 -0.14485
-0.170917 -0.0612434 -0.115035
-0.170916 -0.0612224 -0.103868
-0.170913 -0.0611667 -0.0741279
-0.17091 -0.0611111 -0.0444413
-0.170907 -0.0610555 -0.0148088
-0.170904 -0.0610001 0.01477
-0.170903 -0.0609793 0.0258481
-0.1709 -0.060924 0.0553532
-0.115628 -0.0571514 -0.423684
-0.170945 -0.0542651 -0.385345
-0.170943 -0.0542464 -0.373993
-0.170941 -0.0541966 -0.343759
-0.17087 -0.0457296 0.354723
-0.170869 -0.0457142 0.365571
-0.170903 -0.0424959 0.0295392
-0.170901 -0.0424719 0.0479819
-0.170899 -0.042443 0.0700856
-0.115544 -0.0442389 0.409372
-0.170938 -0.0392233 -0.324891
-0.170936 -0.0391874 -0.294746
-0.170933 -0.0391515 -0.264657
-0.170929 -0.0391157 -0.234623
-0.170926 -0.0390799 -0.204644
-0.170923 -0.0390442 -0.17472
-0.17092 -0.0390086 -0.14485
-0.170917 -0.0389731 -0.115035
-0.170916 -0.0389597 -0.103868
-0.170913 -0.0389243 -0.0741279
-0.17091 -0.0388889 -0.0444413
-0.170907 -0.0388535 -0.0148088
-0.170904 -0.0388183 0.01477
-0.115628 -0.037444 -0.423684
-0.170897 -0.0350417 0.0884824
-0.170895 -0.035018 0.110531
-0.170893 -0.0349982 0.128882
-0.170891 -0.0349744 0.150876
-0.170889 -0.0349547 0.169181
-0.170887 -0.034931 0.191121
-0.170885 -0.0349113 0.209381
-0.170883 -0.0348916 0.22762
-0.170881 -0.034868 0.24948
-0.170879 -0.0348484 0.267675
-0.170877 -0.0348249 0.289481
-0.170875 -0.0348053 0.30763
-0.170872 -0.0347818 0.329382
-0.17087 -0.0347584 0.351105
-0.170869 -0.0347389 0.369185
-0.170945 -0.0243257 -0.385345
-0.170943 -0.0243173 -0.373993
-0.170941 -0.024295 -0.343759
-0.170898 -0.0239868 0.0737666
-0.170896 -0.0239705 0.0958353
-0.115543 -0.0249962 0.420766
-0.170938 -0.0205455 -0.324891
-0.170936 -0.0205267 -0.294746
-0.170933 -0.0205079 -0.264657
-0.170929 -0.0204892 -0.234623
-0.170926 -0.0204704 -0.204644
-0.170923 -0.0204517 -0.17472
-0.17092 -0.0204331 -0.14485
-0.170917 -0.0204145 -0.115035
-0.170916 -0.0204075 -0.103868
-0.170913 -0.0203889 -0.0741279
-0.17091 -0.0203704 -0.0444413
-0.170907 -0.0203518 -0.0148088
-0.170904 -0.0203334 0.01477
-0.170903 -0.0203264 0.0258481
-0.115628 -0.0137952 -0.423684
-0.170893 -0.00552666 0.125214
-0.17089 -0.00552166 0.154539
-0.170889 -0.00551979 0.165522
-0.170886 -0.00551481 0.194774
-0.170885 -0.00551294 0.20573
-0.170882 -0.00550797 0.23491
-0.170881 -0.00550611 0.245839
-0.170878 -0.00550115 0.274947
-0.170877 -0.00549929 0.285849
-0.170874 -0.00549435 0.314884
-0.170873 -0.00549249 0.325759
-0.17087 -0.00548756 0.354723
-0.170869 -0.00548571 0.365571
-0.170938 -0.00186779 -0.324891
-0.170936 -0.00186608 -0.294746
-0.170933 -0.00186437 -0.264657
-0.170929 -0.00186266 -0.234623
-0.170926 -0.00186096 -0.204644
-0.170923 -0.00185926 -0.17472
-0.17092 -0.00185756 -0.14485
-0.170917 -0.00185587 -0.115035
-0.170916 -0.00185524 -0.103868
-0.170913 -0.00185355 -0.0741279
-0.17091 -0.00185186 -0.0444413
-0.170907 -0.00185018 -0.0148088
-0.170904 -0.0018485 0.01477
-0.170903 -0.00184787 0.0258481
-0.1709 -0.00184619 0.0553532
-0.115628 0.00591219 -0.423684
-0.170945 0.00561361 -0.385345
-0.170943 0.00561168 -0.373993
-0.170941 0.00560653 -0.343759
-0.170897 0.00553352 0.0848047
-0.170896 0.00553164 0.0958353
-0.170893 0.00552663 0.125214
-0.17089 0.00552164 0.154539
-0.170889 0.00551976 0.165522
-0.170886 0.00551478 0.194774
-0.170885 0.00551291 0.20573
-0.170882 0.00550794 0.23491
-0.170881 0.00550608 0.245839
-0.170878 0.00550112 0.274947
-0.170877 0.00549926 0.285849
-0.170874 0.00549432 0.314884
-0.170873 0.00549247 0.325759
-0.17087 0.00548753 0.354723
-0.170869 0.00548568 0.365571
-0.115544 0.00577027 0.409372
-0.170938 0.0205456 -0.324891
-0.170936 0.0205267 -0.294746
-0.170933 0.0205079 -0.264657
-0.170929 0.0204892 -0.234623
-0.170926 0.0204705 -0.204644
-0.170923 0.0204518 -0.17472
-0.17092 0.0204331 -0.14485
-0.170917 0.0204145 -0.115035
-0.170916 0.0204075 -0.103868
-0.170913 0.0203889 -0.0741279
-0.17091 0.0203704 -0.0444413
-0.170907 0.0203519 -0.0148088
-0.170904 0.0203334 0.01477
-0.170903 0.0203265 0.0258481
-0.1709 0.020308 0.0553532
-0.115628 0.0256196 -0.423684
-0.115544 0.0250046 0.409372
-0.170945 0.035553 -0.385345
-0.170943 0.0355407 -0.373993
-0.170941 0.0355081 -0.343759
-0.170898 0.0350576 0.0737666
-0.170896 0.0350338 0.0958353
-0.170893 0.0350021 0.125214
-0.17089 0.0349705 0.154539
-0.170889 0.0349586 0.165522
-0.170886 0.0349271 0.194774
-0.170885 0.0349152 0.20573
-0.170882 0.0348838 0.23491
-0.170881 0.034872 0.245839
-0.170878 0.0348406 0.274947
-0.170877 0.0348288 0.285849
-0.170874 0.0347975 0.314884
-0.170873 0.0347857 0.325759
-0.17087 0.0347545 0.354723
-0.170869 0.0347428 0.365571
-0.170938 0.0392233 -0.324891
-0.170936 0.0391873 -0.294746
-0.170933 0.0391515 -0.264657
-0.170929 0.0391156 -0.234623
-0.170926 0.0390799 -0.204644
-0.170923 0.0390442 -0.17472
-0.17092 0.0390086 -0.14485
-0.170917 0.038973 -0.115035
-0.170916 0.0389597 -0.103868
-0.170913 0.0389242 -0.0741279
-0.17091 0.0388888 -0.0444413
-0.170907 0.0388535 -0.0148088
-0.170904 0.0388182 0.01477
-0.170903 0.038805 0.0258481
-0.115628 0.0453269 -0.423684
-0.17089 0.0460137 0.154539
-0.170889 0.0459982 0.165522
-0.170886 0.0459566 0.194774
-0.170885 0.0459411 0.20573
-0.170882 0.0458996 0.23491
-0.170881 0.0458841 0.245839
-0.170878 0.0458428 0.274947
-0.170877 0.0458273 0.285849
-0.170874 0.0457861 0.314884
-0.170873 0.0457707 0.325759
-0.17087 0.0457295 0.354723
-0.170869 0.0457142 0.365571
-0.115544 0.0557795 0.409372
-0.170938 0.0579011 -0.324891
-0.170936 0.057848 -0.294746
-0.170933 0.057795 -0.264657
-0.170929 0.0577422 -0.234623
-0.170926 0.0576894 -0.204644
-0.170923 0.0576367 -0.17472
-0.17092 0.0575841 -0.14485
-0.170917 0.0575316 -0.115035
-0.170916 0.057512 -0.103868
-0.115628 0.0650343 -0.423684
-0.170913 0.0611667 -0.0741279
-0.17091 0.0611111 -0.0444413
-0.170907 0.0610556 -0.0148088
-0.170904 0.0610001 0.01477
-0.170903 0.0609794 0.0258481
-0.1709 0.0609241 0.0553532
-0.170945 0.0654923 -0.385345
-0.170943 0.0654697 -0.373993
-0.170941 0.0654097 -0.343759
-0.170897 0.0645579 0.0848047
-0.170896 0.0645359 0.0958353
-0.170893 0.0644776 0.125214
-0.115544 0.0750137 0.409372
-0.170898 0.0756506 0.0737666
-0.170896 0.0755993 0.0958353
-0.170893 0.0755309 0.125214
-0.17089 0.0754626 0.154539
-0.170889 0.075437 0.165522
-0.170886 0.0753689 0.194774
-0.170885 0.0753434 0.20573
-0.170882 0.0752755 0.23491
-0.170881 0.07525 0.245839
-0.170878 0.0751823 0.274947
-0.170877 0.0751569 0.285849
-0.170874 0.0750893 0.314884
-0.170873 0.0750639 0.325759
-0.17087 0.0749965 0.354723
-0.170869 0.0749713 0.365571
-0.170938 0.0803144 -0.324891
-0.170936 0.0802407 -0.294746
-0.170933 0.0801673 -0.264657
-0.170929 0.0800939 -0.234623
-0.170926 0.0800207 -0.204644
-0.170923 0.0799477 -0.17472
-0.17092 0.0798747 -0.14485
-0.170917 0.0798019 -0.115035
-0.170916 0.0797746 -0.103868
-0.170913 0.079702 -0.0741279
-0.17091 0.0796295 -0.0444413
-0.170907 0.0795572 -0.0148088
-0.170904 0.079485 0.01477
-0.170903 0.0794579 0.0258481
-0.17087 0.0859716 0.354723
-0.170869 0.0859427 0.365571
-0.170945 0.0954317 -0.385345
-0.170943 0.0953988 -0.373993
-0.170941 0.0953112 -0.343759
-0.170938 0.0989921 -0.324891
-0.170936 0.0989014 -0.294746
-0.170933 0.0988109 -0.264657
-0.170929 0.0987205 -0.234623
-0.170926 0.0986302 -0.204644
-0.170923 0.0985402 -0.17472
-0.17092 0.0984503 -0.14485
-0.170917 0.0983605 -0.115035
-0.170916 0.0983269 -0.103868
-0.170913 0.0982374 -0.0741279
-0.17091 0.0981481 -0.0444413
-0.170907 0.0980589 -0.0148088
-0.170904 0.0979699 0.01477
-0.170903 0.0979365 0.0258481
-0.1709 0.0978477 0.0553532
-0.170897 0.105137 0.0848047
-0.170896 0.105101 0.0958353
-0.170893 0.105006 0.125214
-0.17089 0.104911 0.154539
-0.170889 0.104876 0.165522
-0.170886 0.104781 0.194774
-0.170885 0.104746 0.20573
-0.170882 0.104651 0.23491
-0.170881 0.104616 0.245839
-0.170878 0.104522 0.274947
-0.170877 0.104486 0.285849
-0.170874 0.104392 0.314884
-0.170873 0.104357 0.325759
-0.170938 0.11767 -0.324891
-0.170936 0.117562 -0.294746
-0.17089 0.115955 0.154539
-0.170889 0.115915 0.165522
-0.170886 0.115811 0.194774
-0.170885 0.115772 0.20573
-0.170882 0.115667 0.23491
-0.170881 0.115628 0.245839
-0.170878 0.115524 0.274947
-0.170877 0.115485 0.285849
-0.170874 0.115381 0.314884
-0.170873 0.115342 0.325759
-0.17087 0.115239 0.354723
-0.170869 0.1152 0.365571
-0.170933 0.121183 -0.264657
-0.170929 0.121072 -0.234623
-0.170926 0.120962 -0.204644
-0.170923 0.120851 -0.17472
-0.17092 0.120741 -0.14485
-0.170917 0.120631 -0.115035
-0.170916 0.12059 -0.103868
-0.170913 0.12048 -0.0741279
-0.17091 0.12037 -0.0444413
-0.170907 0.120261 -0.0148088
-0.170904 0.120152 0.01477
-0.170903 0.120111 0.0258481
-0.1709 0.120002 0.0553532
-0.170945 0.125371 -0.385345
-0.170943 0.125328 -0.373993
-0.170941 0.125213 -0.343759
-0.170897 0.134649 0.0848047
-0.170896 0.134604 0.0958353
-0.170893 0.134482 0.125214
-0.170938 0.140083 -0.324891
-0.170936 0.139955 -0.294746
-0.170933 0.139827 -0.264657
-0.170929 0.139699 -0.234623
-0.170926 0.139571 -0.204644
-0.170923 0.139444 -0.17472
-0.17092 0.139316 -0.14485
-0.170917 0.139189 -0.115035
-0.170916 0.139142 -0.103868
-0.170913 0.139015 -0.0741279
-0.17091 0.138889 -0.0444413
-0.170907 0.138763 -0.0148088
-0.170904 0.138637 0.01477
-0.170903 0.138589 0.0258481
-0.1709 0.138464 0.0553532
-0.170897 0.145716 0.0848047
-0.170896 0.145667 0.0958353
-0.170893 0.145535 0.125214
-0.17089 0.145403 0.154539
-0.170889 0.145354 0.165522
-0.170886 0.145223 0.194774
-0.170885 0.145174 0.20573
-0.170882 0.145043 0.23491
-0.170881 0.144994 0.245839
-0.170878 0.144863 0.274947
-0.170877 0.144814 0.285849
-0.170874 0.144684 0.314884
-0.170873 0.144635 0.325759
-0.17087 0.144505 0.354723
-0.170869 0.144457 0.365571
-0.170945 0.15531 -0.385345
-0.170943 0.155257 -0.373993
-0.170941 0.155114 -0.343759
-0.170938 0.158761 -0.324891
-0.170936 0.158615 -0.294746
-0.170933 0.15847 -0.264657
-0.170929 0.158325 -0.234623
-0.170926 0.158181 -0.204644
-0.170923 0.158036 -0.17472
-0.17092 0.157892 -0.14485
-0.170917 0.157748 -0.115035
-0.170916 0.157694 -0.103868
-0.170913 0.157551 -0.0741279
-0.170881 0.156006 0.245839
-0.170878 0.155866 0.274947
-0.170877 0.155813 0.285849
-0.170874 0.155673 0.314884
-0.170873 0.15562 0.325759
-0.17087 0.155481 0.354723
-0.170869 0.155428 0.365571
-0.17091 0.161111 -0.0444413
-0.170907 0.160965 -0.0148088
-0.170904 0.160818 0.01477
-0.170903 0.160764 0.0258481
-0.1709 0.160618 0.0553532
-0.170898 0.175288 0.0737666
-0.170896 0.175169 0.0958353
-0.170893 0.175011 0.125214
-0.17089 0.174852 0.154539
-0.170889 0.174793 0.165522
-0.170886 0.174635 0.194774
-0.170885 0.174576 0.20573
-0.170882 0.174419 0.23491
-0.170938 0.181174 -0.324891
-0.170936 0.181008 -0.294746
-0.170933 0.180842 -0.264657
-0.170929 0.180677 -0.234623
-0.170926 0.180512 -0.204644
-0.170923 0.180347 -0.17472
-0.17092 0.180183 -0.14485
-0.170917 0.180018 -0.115035
-0.170916 0.179957 -0.103868
-0.170913 0.179793 -0.0741279
-0.17091 0.179629 -0.0444413
-0.170907 0.179466 -0.0148088
-0.170904 0.179303 0.01477
-0.170903 0.179242 0.0258481
-0.170945 0.18525 -0.385345
-0.170943 0.185186 -0.373993
-0.170941 0.185016 -0.343759
-0.17089 0.185896 0.154539
-0.170889 0.185833 0.165522
-0.170886 0.185665 0.194774
-0.170885 0.185602 0.20573
-0.170882 0.185435 0.23491
-0.170881 0.185372 0.245839
-0.170878 0.185205 0.274947
-0.170877 0.185143 0.285849
-0.170874 0.184976 0.314884
-0.170873 0.184914 0.325759
-0.17087 0.184747 0.354723
-0.170869 0.184685 0.365571
-0.170938 0.199852 -0.324891
-0.170936 0.199669 -0.294746
-0.170933 0.199486 -0.264657
-0.170929 0.199304 -0.234623
-0.170926 0.199121 -0.204644
-0.170923 0.19894 -0.17472
-0.17092 0.198758 -0.14485
-0.170917 0.198577 -0.115035
-0.170916 0.198509 -0.103868
-0.170913 0.198328 -0.0741279
-0.17091 0.198148 -0.0444413
-0.170907 0.197968 -0.0148088
-0.170904 0.197788 0.01477
-0.170903 0.197721 0.0258481
-0.1709 0.197542 0.0553532
-0.170874 0.195965 0.314884
-0.170873 0.195899 0.325759
-0.17087 0.195723 0.354723
-0.170869 0.195657 0.365571
