ply
format ascii 1.0
comment Created by Open3D
element vertex 848
property double x
property double y
property double z
end_header
-0.147455 -0.189666 -0.314288
-0.135549 -0.1665 -0.305459
0.145532 -0.188895 -0.31799
0.134372 -0.187157 -0.303887
-0.129202 -0.145798 -0.305468
0.14292 -0.165232 -0.308253
-0.131171 -0.141033 -0.283546
-0.12882 -0.135895 -0.264074
-0.119582 -0.127876 -0.305483
0.134107 -0.145626 -0.308242
-0.126357 -0.130514 -0.243679
0.12709 -0.141299 -0.289895
-0.124965 -0.12745 -0.224322
0.125381 -0.132446 -0.308231
0.12525 -0.137379 -0.27005
-0.109837 -0.112436 -0.305496
-0.123513 -0.124251 -0.204118
-0.136977 -0.18655 0.296453
0.123341 -0.133316 -0.249477
-0.121994 -0.120909 -0.183006
0.121361 -0.129101 -0.228136
-0.139323 -0.173722 0.303418
0.119033 -0.124124 -0.211237
-0.119429 -0.115279 -0.152546
0.116743 -0.110091 -0.308217
0.117174 -0.120181 -0.182962
-0.118044 -0.112187 -0.122666
0.104756 -0.103263 -0.307405
-0.09665 -0.09154 -0.305514
0.114697 -0.114877 -0.16473
0.139465 -0.162852 0.305455
-0.116568 -0.108908 -0.09095
-0.131514 -0.146652 0.298927
0.113945 -0.113311 -0.143779
-0.116108 -0.107852 -0.067304
-0.130619 -0.139816 0.274192
0.113165 -0.111689 -0.122073
-0.115628 -0.106749 -0.0426049
-0.127368 -0.132759 0.244129
0.112353 -0.110006 -0.0995776
-0.115128 -0.105595 -0.0167891
-0.123199 -0.125186 0.205878
-0.128211 -0.132925 0.294899
0.111507 -0.10826 -0.0762474
0.125687 -0.139938 0.280384
-0.114611 -0.104386 0.0102123
-0.115614 -0.106487 0.0349956
-0.114224 -0.108458 0.0568914
-0.116981 -0.114758 0.131048
-0.120481 -0.11666 0.154988
-0.120896 -0.117524 0.165171
-0.121744 -0.119289 0.185997
0.11064 -0.10645 -0.0520143
0.121567 -0.130892 0.233408
0.122369 -0.132685 0.254335
0.124037 -0.13642 0.297955
-0.116147 -0.10746 0.0915202
-0.11688 -0.10899 0.110198
0.0871965 -0.0808045 -0.308137
-0.0866871 -0.0736306 -0.296197
0.110263 -0.105752 -0.0124855
0.117685 -0.122383 0.189212
0.118413 -0.124008 0.208925
0.109321 -0.103797 0.0142651
0.109862 -0.10501 0.0295663
0.110415 -0.106252 0.0452281
0.111268 -0.10817 0.0694254
0.112154 -0.110159 0.0945153
0.113074 -0.112223 0.120545
0.113706 -0.113642 0.138447
0.114685 -0.115839 0.166165
-0.11466 -0.104078 0.147717
0.105824 -0.0960996 -0.0323044
-0.111203 -0.111764 0.303379
-0.0801291 -0.0669269 -0.277205
0.122448 -0.117049 0.305475
-0.0695859 -0.0625549 -0.305551
0.0722966 -0.0650994 -0.306506
-0.072291 -0.0599992 -0.255871
0.111218 -0.101701 0.305492
-0.0969107 -0.089446 0.303355
-0.0663141 -0.0554205 -0.236716
0.0585453 -0.0524757 -0.308141
-0.0588793 -0.0507428 -0.21489
0.0890247 -0.0812123 0.305527
-0.0812637 -0.0704652 0.280883
-0.0872934 -0.0713608 0.303344
-0.0451163 -0.0409384 -0.305583
-0.074322 -0.0652489 0.261688
-0.0674527 -0.060146 0.243045
-0.0727337 -0.0624993 0.303325
0.038683 -0.0370452 -0.308114
-0.0478455 -0.0397458 -0.187035
0.0780563 -0.0612828 0.30554
-0.0343953 -0.0326856 -0.305597
-0.0426219 -0.0373617 -0.167355
-0.0573047 -0.0502986 0.210419
0.0563762 -0.0510764 0.305566
-0.0508706 -0.0454743 0.192605
-0.0530674 -0.0443101 0.303298
0.0201697 -0.0249394 -0.307089
-0.0336314 -0.028266 -0.147434
-0.0382643 -0.0361119 0.158242
-0.0319918 -0.0315722 0.141858
-0.0268057 -0.0221516 -0.124303
0.0403386 -0.0314351 0.305589
-0.0331039 -0.0305461 0.303271
-0.00509363 -0.0159162 -0.305637
-0.0232256 -0.022743 0.112309
-0.0177022 -0.0156936 -0.103475
0.0192417 -0.0215955 0.305618
-0.0116653 -0.01421 0.0809627
-0.00772059 -0.0166045 0.303241
-0.0106532 -0.00893695 -0.0789001
0.0175891 -0.00440073 -0.305669
-0.00345385 -0.00549773 -0.0534104
-0.00336629 -0.00598801 0.0538285
-0.0108526 -0.00143818 -0.308046
0.0181481 -0.00239487 0.303204
-0.0218108 -0.00236401 0.30611
0.00738692 0.00196077 0.0244591
-0.0291365 0.00426618 -0.30802
0.00752461 0.00564188 -0.0282249
0.0125169 0.00960071 -0.0051803
0.0445189 0.0120904 0.303168
-0.0421482 0.0117271 0.305698
0.0448581 0.0134183 -0.305707
0.0251873 0.0170649 -0.028309
0.0209555 0.0176472 0.0166207
0.0552111 0.0218475 0.303153
-0.0489821 0.0154839 -0.305993
-0.0619981 0.0256073 0.305732
0.0350485 0.0242404 -0.0546765
0.0324403 0.0261631 0.0439342
0.0399988 0.0277463 -0.0673238
0.0371187 0.0306165 0.059965
0.0768467 0.0415915 0.303122
0.0648936 0.0286631 -0.305731
0.0465048 0.0345918 -0.0902179
0.0477819 0.0399736 0.0949966
-0.0815572 0.0439034 0.305758
0.0577522 0.0449231 0.112406
-0.0679555 0.0319209 -0.307968
0.0556697 0.0412089 -0.114525
0.0612999 0.0497956 0.127305
0.0665639 0.0549332 0.145461
0.0988258 0.0616481 0.303093
-0.10083 0.0619304 0.30578
0.0812614 0.044167 -0.305756
0.0662037 0.0507779 -0.147369
0.0788729 0.065819 0.185785
0.0858314 0.0715911 0.20786
0.0747381 0.0568996 -0.169866
0.115538 0.0818612 0.303067
-0.0748128 0.048364 -0.307958
0.100919 0.0832847 0.245183
-0.109516 0.0801411 0.308208
0.0804596 0.0628752 -0.189529
0.107756 0.0895436 0.267829
0.0979492 0.0599704 -0.305777
0.115275 0.0960838 0.292089
0.0884374 0.0686292 -0.21086
-0.0950354 0.0559244 -0.307933
-0.127857 0.0978717 0.309873
0.0964531 0.074245 -0.231259
0.138138 0.117526 0.303041
0.101401 0.0796984 -0.249484
0.11496 0.079187 -0.305801
-0.133522 0.114508 0.292915
-0.137562 0.115561 0.308812
0.108869 0.0849846 -0.268922
-0.133968 0.114559 0.238184
-0.136034 0.11609 0.258342
0.143844 0.137807 0.303031
-0.13423 0.114649 0.187805
-0.136011 0.116186 0.207184
-0.134429 0.114745 0.141008
-0.13599 0.116275 0.159542
-0.134605 0.114837 0.097339
-0.135946 0.116366 0.115125
-0.13305 0.114498 0.0508881
-0.135902 0.116451 0.0735664
0.127939 0.0985397 -0.305818
-0.109895 0.084876 -0.310328
0.149573 0.15817 0.303023
-0.133449 0.114538 0.0124227
-0.135861 0.116531 0.0345913
0.231611 0.172738 0.351894
0.213235 0.172738 0.362542
0.19486 0.172738 0.373191
0.167297 0.172737 0.389164
0.153516 0.172737 0.39715
-0.133777 0.114589 -0.0235953
-0.142392 0.146951 0.308253
0.230679 0.172738 0.300356
0.208396 0.172738 0.313269
0.190569 0.172738 0.3236
0.163829 0.172737 0.339096
0.137089 0.172737 0.354592
0.123719 0.172736 0.36234
0.096979 0.172736 0.377836
0.0836093 0.172735 0.385583
-0.133962 0.114672 -0.0572243
-0.135528 0.1159 -0.0442826
0.229802 0.172739 0.251805
0.212492 0.172738 0.261837
0.190854 0.172738 0.274377
0.169217 0.172737 0.286916
0.130269 0.172737 0.309486
0.108632 0.172736 0.322025
0.0913222 0.172736 0.332056
-0.134135 0.11475 -0.0889474
0.048048 0.172735 0.357134
0.0307385 0.172735 0.367165
0.00910175 0.172734 0.379703
-0.0082078 0.172734 0.389734
0.216357 0.172738 0.213302
0.20374 0.172738 0.220614
0.174301 0.172738 0.237675
0.144862 0.172737 0.254736
0.123834 0.172737 0.266922
0.094395 0.172736 0.283982
-0.132625 0.114514 -0.122767
0.0481342 0.172735 0.31079
0.0313122 0.172735 0.320539
0.010285 0.172734 0.332724
-0.0107422 0.172734 0.34491
-0.027564 0.172733 0.354658
-0.0485911 0.172733 0.366843
-0.0696179 0.172733 0.379028
-0.0906448 0.172732 0.391214
0.232281 0.172739 0.160315
0.195468 0.172738 0.18165
0.175016 0.172738 0.193502
0.154564 0.172737 0.205355
0.134113 0.172737 0.217207
0.113661 0.172737 0.22906
0.0850285 0.172736 0.245652
-0.13308 0.114521 -0.151448
0.0482158 0.172735 0.266986
0.0318547 0.172735 0.276467
0.0114034 0.172735 0.288319
-0.00904775 0.172734 0.300171
-0.0294988 0.172734 0.312023
-0.0499499 0.172733 0.323874
-0.0704007 0.172733 0.335726
-0.0908515 0.172732 0.347577
-0.111302 0.172732 0.359429
-0.135843 0.172731 0.37365
-0.156293 0.172731 0.385502
0.136697 0.117888 -0.305829
0.231431 0.172739 0.119383
0.211525 0.172739 0.13092
0.191618 0.172738 0.142456
0.171712 0.172738 0.153993
0.151805 0.172737 0.16553
0.131899 0.172737 0.177066
0.111993 0.172737 0.188603
0.0920864 0.172736 0.200139
-0.1334 0.114558 -0.178396
0.0482929 0.172735 0.225518
0.0323682 0.172735 0.234747
0.0124623 0.172735 0.246283
-0.0114248 0.172734 0.260125
-0.0313306 0.172734 0.271661
-0.0512362 0.172733 0.283197
-0.0711417 0.172733 0.294732
-0.0910471 0.172732 0.306268
-0.110952 0.172732 0.317803
-0.130858 0.172732 0.329339
-0.151633 0.168948 0.308264
-0.150763 0.172731 0.340874
-0.170668 0.172731 0.35241
-0.190573 0.17273 0.363945
-0.210478 0.17273 0.37548
-0.230382 0.17273 0.387016
0.230626 0.172739 0.0805772
0.211236 0.172739 0.0918142
0.191846 0.172738 0.103051
0.172457 0.172738 0.114289
-0.122816 0.102861 -0.31031
0.153068 0.172738 0.125525
0.133678 0.172737 0.136763
0.114289 0.172737 0.148
0.0949001 0.172737 0.159236
-0.133614 0.114619 -0.203803
0.0483661 0.172736 0.186204
0.0289772 0.172735 0.19744
0.00958812 0.172735 0.208677
-0.00980067 0.172734 0.219913
-0.0291893 0.172734 0.231149
-0.048578 0.172734 0.242385
-0.0679665 0.172733 0.253621
-0.0912326 0.172733 0.267105
-0.110621 0.172732 0.278341
-0.130009 0.172732 0.289577
-0.168785 0.172731 0.312048
-0.188173 0.172731 0.323284
-0.207561 0.17273 0.33452
-0.230827 0.17273 0.348002
-0.234933 0.174779 0.367856
0.23364 0.172739 0.0415457
0.214742 0.172739 0.0524985
0.184504 0.172738 0.0700228
0.154266 0.172738 0.087547
0.131588 0.172737 0.10069
0.10891 0.172737 0.113833
0.0900117 0.172737 0.124785
-0.133775 0.114688 -0.227872
0.0484355 0.172736 0.14888
0.0295374 0.172735 0.159832
0.0106394 0.172735 0.170784
-0.00825864 0.172735 0.181736
-0.0309362 0.172734 0.194878
-0.0498339 0.172734 0.20583
-0.0687315 0.172733 0.216782
-0.0876293 0.172733 0.227734
-0.110306 0.172732 0.240876
-0.129204 0.172732 0.251827
-0.148101 0.172732 0.262779
-0.170778 0.172731 0.275921
-0.189675 0.172731 0.286872
-0.208572 0.17273 0.297823
-0.231248 0.17273 0.310965
-0.234884 0.174935 0.3314
0.23282 0.172739 0.00657803
0.214388 0.172739 0.0172604
0.184896 0.172738 0.0343522
0.166464 0.172738 0.0450345
0.144346 0.172738 0.0578532
0.114855 0.172737 0.0749446
0.0964236 0.172737 0.0856268
-0.132261 0.114538 -0.253502
0.0485016 0.172736 0.1134
0.0300699 0.172735 0.124081
0.0116385 0.172735 0.134763
-0.0104791 0.172735 0.147581
-0.0289104 0.172734 0.158263
-0.0510278 0.172734 0.17108
-0.069459 0.172733 0.181762
-0.08789 0.172733 0.192443
-0.110007 0.172733 0.205261
-0.128438 0.172732 0.215942
-0.150555 0.172732 0.228759
-0.168985 0.172731 0.239441
-0.191102 0.172731 0.252258
-0.209533 0.17273 0.262939
-0.227963 0.17273 0.27362
-0.234959 0.186191 0.386778
0.232039 0.172739 -0.0267043
0.210453 0.172739 -0.0141943
0.192465 0.172739 -0.00376916
0.17088 0.172738 0.00874072
0.149294 0.172738 0.0212504
0.131307 0.172738 0.0316755
0.0953316 0.172737 0.0525249
0.0845392 0.172737 0.0587799
-0.132802 0.114507 -0.275801
0.0485644 0.172736 0.0796292
0.030577 0.172736 0.0900536
0.0089922 0.172735 0.102563
-0.00899518 0.172735 0.112987
-0.0305797 0.172734 0.125496
-0.0485668 0.172734 0.13592
-0.0701511 0.172734 0.148429
-0.0881381 0.172733 0.158853
-0.109722 0.172733 0.171362
-0.127709 0.172732 0.181786
-0.149293 0.172732 0.194295
-0.170877 0.172731 0.206804
-0.188863 0.172731 0.217227
-0.210447 0.172731 0.229736
-0.228433 0.17273 0.240159
-0.234908 0.186067 0.349402
0.231294 0.172739 -0.0584207
0.210217 0.172739 -0.0462048
0.189139 0.172739 -0.0339892
0.171574 0.172738 -0.0238093
0.150497 0.172738 -0.0115938
0.12942 0.172738 0.000621855
0.111855 0.172737 0.0108014
0.0802397 0.172737 0.0291246
0.0486242 0.172736 0.0474477
0.03106 0.172736 0.057627
0.00998312 0.172735 0.0698419
-0.00758088 0.172735 0.0800211
-0.0286577 0.172735 0.0922359
-0.0497343 0.172734 0.104451
-0.0708109 0.172734 0.116665
-0.0883745 0.172733 0.126844
-0.109451 0.172733 0.139059
-0.130527 0.172732 0.151273
-0.148091 0.172732 0.161452
-0.169167 0.172732 0.173666
-0.190243 0.172731 0.185881
-0.207806 0.172731 0.196059
-0.228881 0.17273 0.208274
-0.23486 0.185949 0.313832
0.234016 0.17274 -0.0906678
0.206559 0.172739 -0.0747545
0.185966 0.172739 -0.0628195
0.165373 0.172738 -0.0508845
0.14478 0.172738 -0.0389498
0.124187 0.172738 -0.0270149
0.0967304 0.172737 -0.0111019
0.0486811 0.172736 0.0167455
0.0315209 0.172736 0.0266911
0.0109285 0.172735 0.0386254
-0.00966382 0.172735 0.0505596
-0.030256 0.172735 0.0624939
-0.0508482 0.172734 0.0744278
-0.0680082 0.172734 0.0843727
-0.0886002 0.172733 0.0963066
-0.109192 0.172733 0.108241
-0.129784 0.172733 0.120175
-0.150375 0.172732 0.132108
-0.167535 0.172732 0.142053
-0.188127 0.172731 0.153987
-0.208718 0.172731 0.16592
-0.229309 0.17273 0.177854
-0.234814 0.185836 0.279938
0.145543 0.140587 -0.305841
0.233261 0.17274 -0.119521
0.206421 0.172739 -0.103966
0.18629 0.172739 -0.0922986
0.16616 0.172738 -0.0806319
0.14603 0.172738 -0.0689651
0.1259 0.172738 -0.0572985
0.10577 0.172737 -0.0456318
0.0856402 0.172737 -0.0339652
0.0655103 0.172737 -0.0222988
-0.13552 0.117895 -0.310292
0.0487357 0.172736 -0.0125765
0.031961 0.172736 -0.00285453
0.0118314 0.172736 0.00881189
-0.00829816 0.172735 0.020478
-0.0284277 0.172735 0.032144
-0.0485571 0.172734 0.0438099
-0.0686865 0.172734 0.0554758
-0.0888156 0.172734 0.0671417
-0.108945 0.172733 0.0788074
-0.129074 0.172733 0.0904731
-0.149203 0.172732 0.102139
-0.169331 0.172732 0.113805
-0.18946 0.172731 0.12547
-0.209589 0.172731 0.137135
-0.229717 0.172731 0.148801
-0.23477 0.185728 0.247607
0.232539 0.17274 -0.147106
0.206288 0.172739 -0.131893
0.186601 0.172739 -0.120482
0.166913 0.172739 -0.109072
0.147225 0.172738 -0.0976612
0.124256 0.172738 -0.0843491
0.104569 0.172737 -0.0729388
0.0848811 0.172737 -0.0615287
0.0553501 0.172736 -0.0444134
0.0356628 0.172736 -0.0330033
0.0159757 0.172736 -0.0215931
-0.00371134 0.172735 -0.0101831
-0.0233985 0.172735 0.00122654
-0.0430855 0.172735 0.0126363
-0.0627725 0.172734 0.0240459
-0.0857405 0.172734 0.0373569
-0.105427 0.172733 0.0487665
-0.125114 0.172733 0.0601758
-0.154644 0.172732 0.0772898
-0.17433 0.172732 0.0886992
-0.194016 0.172731 0.100108
-0.213703 0.172731 0.111518
-0.233389 0.172731 0.122927
-0.234728 0.185626 0.216731
0.231848 0.17274 -0.173505
0.212583 0.172739 -0.16234
0.186897 0.172739 -0.147453
0.164422 0.172739 -0.134427
0.135526 0.172738 -0.11768
0.116262 0.172738 -0.106515
0.0969974 0.172737 -0.0953498
0.0745227 0.172737 -0.0823241
0.0456268 0.172736 -0.0655769
0.0231524 0.172736 -0.0525513
-0.0025326 0.172735 -0.0376651
-0.0185856 0.172735 -0.0283611
-0.0378492 0.172735 -0.0171967
-0.0603236 0.172734 -0.00417173
-0.079587 0.172734 0.00699246
-0.0988504 0.172733 0.0181566
-0.118114 0.172733 0.0293208
-0.140588 0.172733 0.0423456
-0.159851 0.172732 0.0535098
-0.179114 0.172732 0.0646736
-0.198377 0.172731 0.0758376
-0.21764 0.172731 0.0870015
-0.234688 0.185527 0.187216
0.234329 0.17274 -0.200614
0.206041 0.172739 -0.184219
0.187182 0.172739 -0.173289
0.174609 0.172739 -0.166002
0.146321 0.172738 -0.149607
0.127462 0.172738 -0.138677
0.11489 0.172738 -0.13139
0.0771728 0.172737 -0.109531
0.0646005 0.172737 -0.102244
0.036313 0.172736 -0.0858491
0.00802565 0.172736 -0.0694546
-0.00768948 0.172735 -0.0603464
-0.0296905 0.172735 -0.0475951
-0.0485486 0.172735 -0.0366658
-0.0705497 0.172734 -0.023915
-0.0894075 0.172734 -0.0129856
-0.108265 0.172733 -0.00205648
-0.130266 0.172733 0.0106942
-0.149124 0.172733 0.0216232
-0.167981 0.172732 0.0325523
-0.19941 0.172732 0.0507673
-0.218268 0.172731 0.0616962
-0.23465 0.185433 0.158972
0.227473 0.17274 -0.221253
0.205925 0.17274 -0.208764
0.187454 0.172739 -0.198059
0.165906 0.172739 -0.18557
0.147436 0.172738 -0.174865
0.125888 0.172738 -0.162377
0.107418 0.172738 -0.151672
0.0858701 0.172737 -0.139183
0.0674006 0.172737 -0.128479
0.0458527 0.172737 -0.11599
0.0273832 0.172736 -0.105286
-0.00339901 0.172736 -0.0874448
-0.0341812 0.172735 -0.0696043
-0.0526504 0.172735 -0.0589002
-0.0741977 0.172734 -0.0464121
-0.0926668 0.172734 -0.0357081
-0.114214 0.172733 -0.0232201
-0.132683 0.172733 -0.0125163
-0.148074 0.172733 -0.00359654
-0.16962 0.172732 0.00889122
-0.188089 0.172732 0.019595
-0.209636 0.172731 0.0320826
-0.228104 0.172731 0.0427862
-0.234613 0.185343 0.13192
0.232959 0.17274 -0.24805
0.214862 0.17274 -0.237562
0.1847 0.172739 -0.22008
0.154538 0.172739 -0.202599
0.127393 0.172738 -0.186867
0.10628 0.172738 -0.17463
0.0851678 0.172737 -0.162394
0.0670713 0.172737 -0.151905
0.0459589 0.172737 -0.139669
0.0248464 0.172736 -0.127433
-0.0173781 0.172735 -0.10296
-0.0354742 0.172735 -0.092472
-0.0626183 0.172735 -0.07674
-0.0927784 0.172734 -0.0592604
-0.11389 0.172734 -0.0470248
-0.135002 0.172733 -0.0347891
-0.165162 0.172732 -0.0173098
-0.195321 0.172732 0.000169396
-0.22548 0.172731 0.0176486
-0.234578 0.185257 0.105986
0.232314 0.17274 -0.270359
0.211619 0.17274 -0.258365
0.154473 0.160337 -0.305856
0.190924 0.172739 -0.24637
0.16136 0.172739 -0.229235
0.140665 0.172738 -0.217241
0.11997 0.172738 -0.205247
0.102232 0.172738 -0.194966
0.0815369 0.172737 -0.182972
0.0608425 0.172737 -0.170977
0.040148 0.172737 -0.158983
0.02241 0.172736 -0.148703
0.00171578 0.172736 -0.136709
-0.0278472 0.172735 -0.119574
-0.0485412 0.172735 -0.10758
-0.0751478 0.172734 -0.0921601
-0.104711 0.172734 -0.0750264
-0.125404 0.172733 -0.0630331
-0.154967 0.172733 -0.0458998
-0.172704 0.172732 -0.0356197
-0.193397 0.172732 -0.0236266
-0.205222 0.172732 -0.0167733
-0.234436 0.172924 0.00141418
-0.234544 0.185174 0.0811016
0.234593 0.17274 -0.293482
0.205603 0.17274 -0.27668
0.165017 0.172739 -0.253156
0.144724 0.172739 -0.241395
0.0954409 0.172738 -0.212831
0.0751481 0.172737 -0.20107
0.0548555 0.172737 -0.189309
0.0171694 0.172736 -0.167466
-0.00312305 0.172736 -0.155705
-0.0234153 0.172735 -0.143944
-0.0379098 0.172735 -0.135543
-0.0697975 0.172735 -0.117062
-0.0900896 0.172734 -0.105301
-0.119078 0.172734 -0.0885002
-0.13937 0.172733 -0.0767398
-0.168358 0.172733 -0.059939
-0.18865 0.172732 -0.0481786
-0.208942 0.172732 -0.0364183
-0.229233 0.172731 -0.024658
-0.234511 0.185095 0.0572047
0.233942 0.17274 -0.314076
0.205504 0.17274 -0.297594
0.185597 0.172739 -0.286056
0.171378 0.172739 -0.277815
0.151472 0.172739 -0.266277
0.12019 0.172738 -0.248147
0.100284 0.172738 -0.236609
0.0803776 0.172737 -0.225072
0.0604714 0.172737 -0.213535
0.0320343 0.172737 -0.197053
0.0121284 0.172736 -0.185515
-0.0191523 0.172736 -0.167386
-0.138663 0.138799 -0.310288
-0.0589637 0.172735 -0.144312
-0.0902439 0.172734 -0.126182
-0.110149 0.172734 -0.114645
-0.138586 0.172733 -0.0981646
-0.158491 0.172733 -0.086628
-0.178396 0.172732 -0.0750915
-0.209676 0.172732 -0.0569628
-0.229581 0.172731 -0.0454264
-0.23448 0.185018 0.0342373
0.233315 0.17274 -0.3339
0.205409 0.17274 -0.317725
0.185874 0.172739 -0.306403
0.174711 0.172739 -0.299934
0.152386 0.172739 -0.286994
0.130061 0.172738 -0.274055
0.102155 0.172738 -0.257881
0.0602964 0.172737 -0.23362
0.0407624 0.172737 -0.222298
-0.00946748 0.172736 -0.193185
-0.0401633 0.172735 -0.175395
-0.0596969 0.172735 -0.164073
-0.0792304 0.172735 -0.152752
-0.109926 0.172734 -0.134961
-0.129459 0.172734 -0.12364
-0.160154 0.172733 -0.10585
-0.199221 0.172732 -0.0832085
-0.229915 0.172731 -0.0654186
0.232712 0.17274 -0.352996
0.205317 0.17274 -0.337119
0.186141 0.17274 -0.326004
0.125873 0.172738 -0.291074
0.114916 0.172738 -0.284723
0.0847822 0.172738 -0.267258
0.0573883 0.172737 -0.251381
0.0354734 0.172737 -0.238679
0.016298 0.172736 -0.227565
-0.00287747 0.172736 -0.216451
-0.0330101 0.172735 -0.198986
-0.0686211 0.172735 -0.178347
-0.0877961 0.172734 -0.167233
-0.10971 0.172734 -0.154532
-0.128885 0.172734 -0.143418
-0.14806 0.172733 -0.132305
-0.178192 0.172733 -0.114841
-0.200106 0.172732 -0.102141
-0.219281 0.172732 -0.0910274
0.23482 0.17274 -0.372964
0.205228 0.17274 -0.355813
0.164877 0.172739 -0.332426
0.127216 0.172738 -0.310598
0.105696 0.172738 -0.298124
0.0949355 0.172738 -0.291888
0.0572751 0.172737 -0.27006
0.035755 0.172737 -0.257587
0.0249951 0.172737 -0.251351
-0.0234246 0.172736 -0.223287
-0.0530142 0.172735 -0.206137
-0.114883 0.172734 -0.170279
-0.133712 0.172734 -0.159366
-0.152542 0.172733 -0.148453
-0.174061 0.172733 -0.13598
-0.19289 0.172732 -0.125068
-0.225169 0.172732 -0.10636
0.23421 0.172741 -0.390693
0.186646 0.17274 -0.363124
0.165506 0.172739 -0.350872
0.136439 0.172739 -0.334025
0.107372 0.172738 -0.317178
0.0650932 0.172737 -0.292673
0.0360267 0.172737 -0.275827
-0.003609 0.172736 -0.252854
-0.0247478 0.172736 -0.240602
-0.0432444 0.172735 -0.229881
-0.0749525 0.172735 -0.211503
-0.0881641 0.172735 -0.203846
-0.109303 0.172734 -0.191594
-0.127799 0.172734 -0.180874
-0.148937 0.172733 -0.168623
-0.170076 0.172733 -0.156371
-0.188572 0.172733 -0.145652
-0.20971 0.172732 -0.1334
0.210254 0.17274 -0.394261
0.192078 0.17274 -0.383726
0.171306 0.172739 -0.371687
0.150534 0.172739 -0.359647
0.132358 0.172739 -0.349113
0.111586 0.172738 -0.337073
0.0908145 0.172738 -0.325034
0.0700428 0.172738 -0.312995
0.0518677 0.172737 -0.302461
0.0207103 0.172737 -0.284402
-6.10352e-05 0.172736 -0.272363
-0.0182359 0.172736 -0.261829
-0.0390072 0.172736 -0.24979
-0.0597783 0.172735 -0.237751
-0.077953 0.172735 -0.227217
-0.0961276 0.172734 -0.216683
-0.212963 0.172732 -0.148967
-0.233733 0.172732 -0.136929
0.189668 0.17274 -0.399186
0.171803 0.172739 -0.388831
0.151386 0.172739 -0.376998
0.130969 0.172739 -0.365164
0.0722712 0.172738 -0.331143
0.0518546 0.172737 -0.319309
0.0314381 0.172737 -0.307476
0.0110216 0.172737 -0.295643
-0.0196027 0.172736 -0.277893
-0.0400189 0.172736 -0.26606
-0.0578829 0.172735 -0.255705
-0.124235 0.172734 -0.217248
-0.14465 0.172734 -0.205415
-0.162514 0.172733 -0.195062
-0.18293 0.172733 -0.183229
-0.203345 0.172732 -0.171397
0.112063 0.172738 -0.370495
0.0919889 0.172738 -0.358861
0.0719154 0.172738 -0.347226
0.051842 0.172737 -0.335592
-0.00837785 0.172736 -0.300688
-0.0786333 0.172735 -0.259968
-0.0987061 0.172735 -0.248334
-0.118779 0.172734 -0.2367
-0.138851 0.172734 -0.225066
-0.178997 0.172733 -0.201798
-0.199069 0.172733 -0.190164
-0.219141 0.172732 -0.178531
0.139945 0.17318 -0.400017
0.120926 0.172739 -0.391384
0.0320882 0.172737 -0.339893
0.0123467 0.172737 -0.328451
-0.00739467 0.172736 -0.317009
-0.034539 0.172736 -0.301276
-0.0542802 0.172735 -0.289834
-0.0740213 0.172735 -0.278392
-0.15792 0.172733 -0.229764
-0.177661 0.172733 -0.218323
-0.197402 0.172733 -0.206881
0.10037 0.172738 -0.394708
0.0809491 0.172738 -0.383452
0.0615283 0.172738 -0.372196
0.0421077 0.172737 -0.36094
-0.0282914 0.172736 -0.320136
-0.0477116 0.172736 -0.30888
-0.0695592 0.172735 -0.296217
-0.0889793 0.172735 -0.284961
-0.108399 0.172734 -0.273705
-0.127819 0.172734 -0.262449
-0.149667 0.172734 -0.249787
-0.217636 0.172732 -0.210392
0.0804715 0.172738 -0.397927
0.0613615 0.172738 -0.38685
0.0422516 0.172737 -0.375774
0.0207531 0.172737 -0.363314
0.00164342 0.172737 -0.352237
-0.0198549 0.172736 -0.339777
-0.0891267 0.172735 -0.299627
-0.108236 0.172734 -0.288551
-0.148014 0.164207 -0.310276
-0.172729 0.172733 -0.25117
-0.194227 0.172733 -0.23871
-0.213336 0.172732 -0.227635
-0.234214 0.182902 -0.162122
0.170481 0.185183 -0.400059
0.0212311 0.172737 -0.377877
0.00242227 0.172737 -0.366976
-0.0375462 0.172736 -0.34381
-0.0587057 0.172735 -0.331545
-0.0775142 0.172735 -0.320644
-0.129237 0.172734 -0.290665
-0.148045 0.172734 -0.279763
-0.169204 0.172733 -0.2675
-0.188013 0.172733 -0.256599
-0.22798 0.172732 -0.233434
0.0395174 0.173217 -0.39988
-0.0176547 0.172736 -0.369182
-0.0384864 0.172736 -0.357108
-0.0593179 0.172735 -0.345034
-0.0986662 0.172735 -0.322227
-0.119497 0.172734 -0.310153
-0.209766 0.172733 -0.257834
-0.228282 0.172732 -0.247102
0.118815 0.185053 -0.399989
0.0209035 0.173754 -0.399855
0.00162947 0.172737 -0.39378
-0.0781456 0.172735 -0.347542
-0.0986589 0.172735 -0.335652
-0.173874 0.172733 -0.292057
-0.194387 0.172733 -0.280168
-0.0178319 0.172736 -0.395518
-0.038037 0.172736 -0.383807
-0.0582421 0.172736 -0.372096
-0.118857 0.172734 -0.336963
-0.139061 0.172734 -0.325252
-0.168246 0.172734 -0.308336
-0.18845 0.172733 -0.296625
-0.208655 0.172733 -0.284915
-0.228859 0.172732 -0.273204
-0.0389282 0.172736 -0.395922
-0.0787396 0.172735 -0.372846
-0.0986451 0.172735 -0.361309
-0.158361 0.172734 -0.326697
-0.20923 0.172733 -0.297213
-0.229135 0.172732 -0.285676
-0.0594085 0.172736 -0.396314
-0.118253 0.172735 -0.362206
-0.137868 0.172734 -0.350837
-0.179277 0.172733 -0.326836
-0.198891 0.172733 -0.315467
-0.0792993 0.172735 -0.396694
-0.0986321 0.172735 -0.385489
-0.158778 0.172734 -0.350627
-0.218923 0.172733 -0.315767
-0.117684 0.172735 -0.386018
-0.13886 0.172734 -0.373744
-0.179094 0.172734 -0.350424
-0.198152 0.172733 -0.339377
-0.138291 0.172734 -0.385322
-0.159171 0.172734 -0.373219
-0.217634 0.172733 -0.339334
-0.178922 0.172734 -0.37271
-0.199513 0.172733 -0.360774
-0.157512 0.172734 -0.395759
-0.218446 0.172733 -0.360441
-0.178758 0.172734 -0.393799
-0.198797 0.172733 -0.382184
-0.219215 0.172733 -0.38043
-0.198925 0.173305 -0.399555
-0.219945 0.172733 -0.399387
