ply
format ascii 1.0
comment Created by Open3D
element vertex 1644
property double x
property double y
property double z
end_header
-0.0603986 0.204124 -0.0863943
0.204124 0.1603 0.00528189
-0.165538 -0.176275 0.0961956
-0.135588 -0.204124 -0.398722
-0.0855331 0.204124 -0.336904
0.158573 -0.192862 0.408248
0.204124 -0.122366 -0.382338
0.0297866 -0.168928 -0.408248
-0.204124 0.0793263 0.303246
-0.0101113 -0.140897 0.408248
-0.099659 0.204124 0.066742
-0.0304203 0.204124 -0.256485
-0.204124 -0.0241704 -0.170854
0.159146 -0.134976 0.408248
-0.204124 0.106698 0.0120905
-0.199608 -0.0894605 0.408248
0.204124 0.192146 0.337404
-0.110634 -0.0037291 -0.408248
0.131577 -0.176275 -0.241711
0.102183 0.204124 0.020966
0.204124 0.0353022 -0.0713965
-0.204124 -0.153767 0.0207115
-0.204124 -0.0912399 0.150726
0.054036 0.204124 0.166534
0.0192388 0.204124 0.39637
-0.0456191 -0.176275 0.336541
0.0960007 0.204124 -0.220572
-0.204124 -0.110419 0.137888
-0.000443866 -0.144055 0.408248
0.0292605 0.107392 -0.408248
0.0589621 -0.176275 0.200006
-0.204124 -0.017971 0.381498
-0.204124 -0.174464 -0.125644
0.204124 -0.0658518 -0.0694146
0.10964 0.204124 0.23731
0.204124 -0.0525998 -0.24507
0.203081 0.150157 0.408248
0.0995823 -0.176275 0.136388
-0.204124 -0.173846 -0.209407
0.110781 -0.176275 -0.137798
-0.0479142 0.204124 -0.0643129
0.192563 0.0612599 0.408248
-0.181065 -0.176275 0.331913
0.130428 -0.176275 0.387305
0.204124 -0.0745653 0.216604
-0.204124 0.0629165 0.152066
0.166393 -0.204124 0.406128
0.204124 0.203018 -0.330201
0.0897496 -0.176275 -0.209938
0.0402729 -0.0258527 -0.408248
-0.168869 0.204124 -0.201948
0.121725 -0.176275 0.143882
-0.19165 0.204124 0.227423
0.204124 0.102057 -0.143066
0.204124 0.16372 -0.088393
-0.044133 -0.176275 -0.0385772
-0.152696 0.04223 0.408248
0.0588914 0.204124 0.39112
-0.19187 -0.176275 0.361237
-0.204124 0.0970963 -0.178948
-0.204124 -0.0728627 -0.199372
-0.116093 -0.115769 -0.408248
-0.193181 0.0797299 -0.408248
0.131188 -0.204124 0.334569
-0.13441 -0.176275 0.0561982
-0.204124 0.187912 -0.332177
-0.130452 0.204124 0.342196
-0.137024 0.0933169 0.408248
0.204124 0.105859 0.0951925
-0.204124 -0.110394 -0.104134
-0.204124 -0.0273419 -0.335979
-0.0729718 0.204124 -0.396279
0.204124 -0.173196 0.2321
-0.137318 -0.176275 -0.280032
-0.204124 0.178881 0.174736
0.204124 0.15894 -0.133563
0.203175 0.204124 -0.143703
0.204124 0.170006 -0.0149408
-0.204124 -0.109711 0.0770697
-0.204124 0.175011 -0.328979
0.150835 0.0233271 0.408248
-0.0677345 0.204124 0.1578
-0.16572 -0.132334 0.408248
0.204124 0.151049 -0.344977
-0.19016 0.204124 -0.233059
-0.191491 -0.201188 -0.317331
-0.204124 0.0589344 0.142894
-0.204124 0.0358619 0.321632
0.122381 0.204124 -0.0409687
-0.184835 -0.204124 0.396089
0.204124 -0.118797 0.400687
0.204124 -0.020621 -0.209683
-0.0721763 0.155806 0.408248
-0.204124 0.0364156 -0.256915
0.08825 0.204124 0.298719
-0.0931888 0.204124 -0.271879
0.151523 0.204124 0.0830934
0.204124 -0.0723713 -0.384784
0.0925594 0.204124 -0.252379
0.106924 -0.147277 0.408248
-0.135235 0.204124 -0.0430348
-0.204124 0.138384 0.0710325
-0.204124 0.10808 -0.353085
-0.00400205 -0.176275 -0.0207855
-0.204124 0.126432 0.0103392
0.00791878 0.0413301 -0.408248
0.204124 -0.0918161 0.345721
-0.204124 0.075753 -0.0557168
0.204124 0.0761955 -0.213242
0.157856 0.126407 -0.408248
0.00417013 -0.176275 -0.0416388
-0.204124 0.0475196 0.0126384
0.0553586 0.0442645 -0.408248
0.0627328 0.204124 0.222512
0.0453449 -0.0164425 0.408248
-0.0317785 0.204124 0.365884
0.204124 -0.111052 0.139155
-0.204124 0.107532 0.394509
0.0898482 0.204124 -0.206125
-0.0869996 -0.176275 -0.396683
-0.0536898 -0.149759 -0.408248
0.164645 -0.176275 0.219341
-0.204124 -0.00421149 -0.120429
0.204124 0.142543 -0.103736
-0.171409 -0.204124 -0.336916
-0.204124 -0.146276 -0.358494
-0.119058 0.204124 0.179526
-0.0300128 -0.126487 -0.408248
0.128576 -0.176275 0.340774
-0.204124 0.0767509 -0.295552
0.184001 0.204124 -0.145539
0.0647666 -0.176275 -0.212338
-0.0555837 -0.176275 0.0982432
-0.204124 0.180336 0.306353
-0.143845 -0.0627758 0.408248
0.204124 -0.0763293 0.33246
0.204124 -0.067428 -0.155553
0.082525 0.0267415 -0.408248
-0.0719048 -0.142578 0.408248
-0.0511742 0.204124 -0.0557179
-0.0209637 0.10768 -0.408248
-0.135338 0.192689 0.408248
0.117433 -0.176275 0.048791
-0.051517 -0.141695 0.408248
-0.197679 0.0274116 -0.408248
-0.204124 -0.0165164 -0.100281
0.204124 -0.124156 0.149481
0.204124 -0.131656 0.135821
0.0429495 -0.135301 -0.408248
-0.204124 -0.0211792 0.165707
-0.204124 -0.151417 -0.110879
0.189901 0.204124 -0.126876
-0.204124 0.16935 -0.353509
0.204124 0.1835 0.342771
0.195106 -0.176275 0.140464
-0.165471 0.138851 -0.408248
-0.204124 -0.00269507 -0.359983
-0.204124 0.131386 -0.299568
-0.204124 -0.145293 -0.310613
0.0361271 0.204124 0.0728269
-0.191636 0.204124 -0.250594
-0.204124 -0.0190349 0.117549
0.103305 -0.176275 -0.0111123
-0.204124 -0.133308 0.283194
0.0694807 -0.0119366 -0.408248
-0.204124 0.0257509 -0.0960982
0.115728 -0.204124 0.40128
0.204124 -0.105777 0.0111397
0.204124 -0.132901 0.269985
-0.111042 0.204124 0.196607
0.0527113 -0.176275 -0.0282933
0.204124 0.0783975 0.168964
0.147953 -0.176275 -0.252198
0.0278399 -0.0293072 -0.408248
-0.122701 -0.176275 -0.253196
0.0940426 -0.173563 0.408248
0.0564456 0.204124 -0.184364
0.0586027 0.204124 -0.151183
0.204124 -0.156716 -0.372141
-0.134739 0.093145 -0.408248
-0.186034 0.204124 -0.312727
-0.0164214 0.00798235 0.408248
0.105938 -0.176275 0.331565
-0.204124 0.0881138 0.17487
0.191097 0.000358097 -0.408248
-0.0538117 -0.176275 0.360859
-0.204124 -0.136847 -0.407209
0.183827 0.204124 0.0246183
-0.204124 -0.148185 -0.0689803
-0.204124 0.160122 -0.0436139
0.204124 0.0263785 -0.197255
-0.0726414 0.204124 0.403559
-0.204124 0.195967 0.362187
-0.204124 -0.0951189 -0.0140098
0.0637844 0.204124 0.100677
-0.204124 -0.159728 0.406365
-0.0963778 0.204124 -0.28249
-0.204124 0.105282 -0.389566
-0.13951 -0.0795619 -0.408248
0.204124 -0.0246583 0.351279
0.204124 0.17258 -0.0143948
-0.204124 0.0578402 -0.374512
-0.149527 0.204124 0.265601
-0.0292365 0.204124 -0.125151
0.116369 -0.0489317 0.408248
0.204124 -0.0706807 0.295858
-0.0761281 -0.176275 0.0685714
-0.204124 0.0163646 0.36805
-0.13148 0.204124 -0.364482
0.204124 -0.00941512 -0.258117
-0.00139975 0.204124 -0.0440183
-0.204124 0.124888 0.0186703
0.0809545 -0.176275 0.203379
0.175494 0.125515 0.408248
0.204124 0.186201 0.291567
-0.200641 0.204124 0.14929
-0.041798 -0.176275 0.0792835
0.0475995 -0.110743 -0.408248
-0.139013 0.204124 0.0612085
-0.201786 -0.176275 -0.148253
-0.0660241 0.204124 0.347752
0.204124 -0.0692085 0.366865
-0.128634 0.204124 -0.190346
0.204124 0.0992192 0.27793
-0.0976904 0.204124 0.022998
-0.0674376 -0.176275 0.330056
0.204124 -0.197008 -0.340537
0.204124 0.133616 -0.15776
-0.204124 -0.00882278 0.219952
0.178536 0.204124 0.374035
0.143537 -0.176275 -0.166093
0.0377021 -0.176275 0.249935
-0.196745 -0.176275 0.332937
0.0986343 -0.0550993 0.408248
0.0445443 0.0303074 -0.408248
0.174733 -0.176275 -0.249182
0.204124 0.128304 -0.0971545
-0.204124 -0.0700706 -0.348061
0.0508871 0.204124 0.251403
0.115494 0.0213076 -0.408248
-0.124327 -0.0886594 -0.408248
-0.0872971 0.204124 0.407534
0.186948 0.175562 -0.408248
-0.204124 0.0255515 -0.0169427
0.204124 0.0989204 -0.0644395
0.124254 -0.176275 -0.358407
0.0345591 -0.176275 -0.0159798
-0.121125 0.204124 -0.134418
-0.204124 0.153399 0.387131
-0.204124 -0.192054 -0.338216
0.204124 -0.0641937 -0.160119
0.131489 -0.176275 0.259817
0.0789269 -0.176275 0.125381
0.197229 -0.176275 -0.208879
0.10666 -0.176275 -0.0322533
-0.204124 -0.0874461 0.343071
-0.204124 -0.0515883 0.137297
-0.193726 0.204124 0.037412
0.204124 -0.0536415 0.192872
0.204124 0.1464 -0.244473
-0.132457 -0.176275 0.0973998
-0.204124 0.0016605 0.0739804
-0.198088 0.204124 -0.117615
0.127224 -0.159668 -0.408248
-0.204124 -0.0478945 -0.210907
0.00823683 -0.176275 0.240841
0.204124 -0.13065 0.10521
0.204124 -0.115858 0.15377
0.140214 0.204124 0.0391463
0.0213467 -0.176275 -0.106062
-0.204124 0.180535 -0.325276
0.204124 -0.0993394 -0.185004
0.204124 -0.0300752 -0.360646
0.0587436 0.204124 -0.0594023
-0.0147219 -0.0755353 0.408248
-0.182019 0.204124 0.265158
0.204124 -0.125206 0.266311
-0.124538 -0.176275 0.0311838
0.0577418 0.196553 0.408248
-0.105818 -0.176275 -0.0539658
-0.0989057 0.204124 -0.102838
-0.15303 -0.0721764 -0.408248
0.204124 -0.0400982 -0.218736
-0.100331 -0.176275 -0.200341
-0.204124 -0.0346897 -0.0397024
0.0539928 -0.128768 0.408248
-0.204124 0.12911 0.352558
0.204124 0.121566 0.107161
-0.0257666 -0.176275 0.0374563
-0.132185 -0.0922589 -0.408248
-0.0621427 0.204124 -0.261892
0.204124 -0.102051 -0.374059
-0.110032 -0.181279 0.319626
0.0898097 -0.0699738 -0.408248
0.202067 0.0399582 -0.408248
-0.116865 -0.0965395 0.408248
-0.0454479 -0.154666 -0.408248
-0.204124 -0.0981757 -0.120023
-0.164737 -0.204124 0.406608
-0.115279 -0.176275 -0.365114
-0.204124 0.177568 -0.374435
-0.192743 0.204124 -0.0855106
-0.0761549 -0.176275 -0.082025
0.11827 -0.176275 -0.266349
0.0901205 -0.176275 -0.39679
0.204124 -0.010315 0.340531
-0.0814509 -0.176275 0.17779
-0.0712798 0.0812596 -0.408248
0.0823927 0.204124 -0.1401
0.204124 -0.153814 -0.3108
0.196084 0.204124 0.0879599
0.204124 0.195045 -0.135398
-0.159833 0.120068 0.408248
-0.062561 -0.176275 -0.053011
0.170808 0.122381 0.408248
0.204124 0.0965622 -0.266007
-0.204124 0.0312416 0.302052
0.188659 -0.176275 -0.275578
0.00175194 -0.176275 -0.245509
-0.115161 0.204124 -0.218349
-0.204124 0.188934 -0.318696
-0.204124 -0.118608 -0.168776
0.194621 -0.204124 -0.324133
-0.204124 0.18316 0.0490323
0.204124 -0.105166 -0.294464
0.0952717 0.204124 0.217453
0.204124 0.135856 0.018016
0.137334 0.204124 -0.251876
0.0497212 0.111463 -0.408248
0.204124 -0.155924 -0.303489
-0.159196 -0.176275 -0.136405
0.189406 -0.0277476 0.408248
0.0896557 0.204124 0.0953052
-0.204124 0.117351 -0.360212
0.124212 0.204124 0.399452
-0.0166546 0.00919229 -0.408248
0.120967 -0.176275 -0.0382412
0.204124 -0.0405495 -0.188118
-0.0791863 -0.176275 -0.368003
0.204124 -0.0612694 -0.0493453
-0.0393132 0.204124 0.274507
-0.204124 -0.0679861 -0.00507154
0.204124 0.193393 -0.1624
0.111291 0.00323644 0.408248
-0.10535 0.153434 0.408248
-0.204124 0.155131 -0.341125
-0.0648378 0.204124 -0.351748
-0.039643 0.204124 -0.331602
0.0166413 0.204124 -0.309582
0.204124 -0.0958838 0.391381
-0.204124 -0.0901055 -0.180769
0.0960875 0.204124 0.282234
0.110923 -0.0948963 0.408248
0.0778515 0.0676763 -0.408248
0.0962662 0.0166871 -0.408248
-0.0185199 0.204124 -0.387218
-0.204124 -0.145894 0.323659
0.0348924 0.204124 -0.0020346
-0.191436 -0.20389 -0.408248
0.204124 -0.0721938 -0.13598
0.204124 0.0716606 -0.189915
0.0944865 -0.176275 0.114506
-0.130184 -0.131655 0.408248
0.00769926 0.204124 0.0517373
0.17801 -0.204124 -0.40779
0.0754384 0.204124 -0.31197
-0.107374 0.204124 0.390992
-0.204124 0.157901 -0.0266746
0.0134319 0.0325792 0.408248
0.194809 0.204124 -0.0799135
0.204124 0.0825785 0.0783073
-0.110032 -0.198515 0.367045
0.162517 0.204124 -0.393095
-0.00574555 0.189897 -0.408248
-0.00407548 -0.176275 0.0819543
0.027157 -0.176275 0.22244
0.00641952 0.204124 0.328919
0.0552565 -0.176275 -0.306128
-0.0870635 -0.0673997 -0.408248
0.19305 -0.204124 0.390544
0.204124 0.122025 0.142187
0.204124 -0.161725 0.228471
-0.204124 -0.153127 0.176503
-0.0420918 0.204124 -0.334603
-0.204124 -0.159519 0.066689
0.0239639 -0.176275 0.345803
0.122301 0.204124 0.326725
0.127323 -0.0268091 0.408248
0.0239625 0.169684 0.408248
-0.185029 0.0963985 -0.408248
0.204124 -0.187345 0.317609
-0.0244611 0.167522 0.408248
0.204124 -0.0273865 -0.184039
-0.0831292 0.204124 -0.267578
0.204124 0.177561 -0.350946
-0.174961 -0.0379142 0.408248
0.044897 0.204124 0.282441
-0.128483 -0.176275 0.0973287
0.204124 -0.0105299 0.00316253
0.187291 0.204124 0.343539
0.02225 -0.176275 -0.371996
-0.0721855 -0.176275 -0.179604
0.0521553 0.204124 0.402835
-0.0867717 0.204124 -0.380969
0.204124 -0.0194313 -0.325653
0.204124 0.151537 -0.33311
0.204124 -0.0776961 -0.256133
-0.204124 -0.101337 0.0323148
0.160166 -0.144132 -0.408248
0.165271 0.204124 -0.165637
0.185706 0.112455 -0.408248
-0.0917335 -0.176275 0.237078
-0.204124 0.095144 -0.0927653
-0.204124 0.0182078 -0.154764
0.204124 0.110801 -0.0525575
0.185074 0.118884 0.408248
-0.204124 0.0898371 0.186435
0.204124 -0.1308 0.140528
0.198217 -0.198815 -0.408248
0.16394 0.204124 0.284481
-0.0328046 -0.176275 0.374664
0.0150885 -0.176275 -0.149688
0.204124 0.0104635 -0.292964
0.136859 0.204124 0.301392
-0.204124 0.0974763 0.121584
0.0712304 0.0564445 -0.408248
0.0807737 -0.176275 0.285995
-0.112893 -0.115188 0.408248
0.204124 0.19378 -0.381722
-0.104826 0.204124 -0.314592
-0.0197989 0.047487 -0.408248
-0.165687 -0.176275 -0.211182
-0.0551389 0.204124 0.290528
0.188185 0.10777 0.408248
0.204124 -0.0874932 0.309081
0.0868102 -0.176275 0.0385151
-0.204124 -0.153161 -0.260151
-0.17396 0.204124 -0.0897248
0.204124 -0.138214 -0.0265938
0.204124 -0.134444 -0.218631
-0.124591 -0.202001 0.317407
0.204124 -0.0947531 0.115983
-0.036417 0.204124 -0.264486
-0.0420113 -0.0401594 -0.408248
0.204124 -0.0909325 0.0764918
0.0712921 0.204124 -0.29513
0.00229642 -0.176275 0.371172
0.0927367 -0.176275 -0.214529
0.204124 -0.110581 0.269101
-0.168781 0.204124 0.291685
0.204124 -0.0678998 -0.383721
-0.0738832 0.204124 -0.0958894
0.130005 -0.176275 -0.111694
-0.204124 -0.150856 -0.321647
0.101762 -0.176275 0.341041
0.204124 0.160153 0.135687
-0.197144 -0.176275 -0.0713951
0.16233 0.204124 -0.345893
0.0288694 0.204124 -0.0949005
-0.192612 -0.176275 0.188878
0.0595103 -0.0480751 0.408248
-0.173489 -0.176275 0.0313899
0.108004 -0.178901 0.399127
0.106405 0.204124 -0.351478
0.0673349 -0.176275 0.345522
-0.0716787 -0.176275 0.104687
-0.204124 -0.0585412 -0.35146
-0.204124 -0.126389 0.277315
0.0391017 0.204124 -0.257238
0.180609 0.204124 0.0852181
0.143584 -0.176275 -0.360319
-0.0736202 0.204124 -0.338506
0.204124 -0.194887 0.349535
-0.063041 -0.0581623 -0.408248
-0.204124 -0.142861 0.392785
0.00707057 -0.176275 -0.375285
0.060025 0.15482 -0.408248
0.204124 0.158144 0.175652
0.16189 0.204124 -0.290029
-0.0867619 0.0907207 -0.408248
-0.0794971 -0.0371837 0.408248
-0.0420759 0.204124 0.389357
0.204124 -0.134639 0.3621
-0.0997594 0.11374 0.408248
-0.07702 0.204124 -0.138093
-0.180213 -0.176275 0.313186
0.167945 0.204124 -0.249494
0.17571 0.0831642 -0.408248
-0.039704 0.204124 0.159217
-0.0251285 -0.0632286 -0.408248
0.0467344 -0.176275 0.141782
0.16673 0.204124 0.231557
0.179126 0.204124 0.283074
0.0234784 0.204124 0.150321
-0.117793 -0.176275 -0.257184
-0.0286314 -0.104097 -0.408248
0.121276 -0.204124 0.389274
0.0233028 -0.176275 -0.257149
0.204124 -0.0672646 -0.0243504
-0.204124 0.109167 -0.208103
0.204124 -0.0167396 -0.242068
-0.204124 0.0814831 -0.00265881
-0.123763 -0.145166 0.408248
0.196894 -0.178654 0.408248
0.204124 0.0618333 -0.0342622
-0.185418 0.204124 -0.147392
-0.0798578 -0.176275 0.120335
0.204124 -0.165724 0.201359
-0.204124 0.0347983 0.00531721
0.163932 0.204124 -0.128624
0.204124 -0.173617 -0.39983
0.0156983 0.15868 -0.408248
-0.204124 -0.145138 -0.317527
0.153083 -0.194971 0.317407
0.204124 0.141783 -0.294408
-0.028949 -0.176275 -0.344804
0.204124 0.124271 0.398852
-0.202924 -0.204124 -0.376203
0.204124 -0.101839 -0.399885
-0.0820275 0.204124 0.406573
0.167623 -0.176275 0.258987
0.0185629 -0.176275 0.216393
0.00740114 0.204124 0.19207
-0.0789032 -0.176275 0.33156
-0.150489 0.204124 0.0108424
0.0797696 0.204124 -0.183966
-0.204124 0.0640721 -0.0637338
0.0476153 -0.119546 -0.408248
-0.0109433 0.0870304 -0.408248
-0.155367 -0.176275 -0.272762
-0.106147 -0.176275 -0.192498
0.122993 -0.176275 0.096632
-0.137865 0.204124 -0.231581
-0.168344 -0.176275 0.0687815
-0.204124 0.143871 0.0180853
0.137398 -0.115501 0.408248
-0.0909605 0.204124 -0.104516
0.1073 -0.176275 0.381776
0.204124 0.061881 -0.281244
-0.177882 0.204124 -0.00611129
-0.204124 0.161743 -0.0615305
0.204124 0.141874 0.0696588
-0.204124 -0.0528921 -0.380979
0.0243167 -0.153623 0.408248
0.095691 0.204124 0.0962504
0.112175 -0.176275 -0.0295261
-0.204124 0.14042 -0.216136
0.159648 0.204124 0.0472638
0.169839 -0.176275 -0.0389379
0.00390735 -0.176275 -0.224412
0.204124 0.110134 0.26086
0.204124 0.128884 0.35081
0.0353803 0.204124 -0.39971
0.0847534 -0.176275 0.177078
-0.143917 0.204124 -0.176983
-0.121946 0.204124 0.294757
-0.138416 -0.176275 -0.0160215
0.204124 -0.130448 -0.333812
-0.0491894 -0.15221 -0.408248
-0.204124 0.135038 0.0879885
0.151825 0.11536 0.408248
-0.169893 -0.176275 -0.260925
0.204124 0.126471 0.171354
-0.151932 -0.176275 0.332786
-0.204124 0.127565 -0.0567137
0.204124 0.0357381 -0.17675
0.204124 0.000160143 0.195766
-0.204124 0.0842051 -0.0895735
0.186673 -0.176275 -0.185902
-0.171037 0.00667959 -0.408248
-0.00980657 0.204124 -0.317379
-0.204124 0.11457 0.267499
-0.204124 0.0589683 -0.126349
-0.204124 -0.112035 0.29171
0.204124 0.0687343 0.0635697
0.204124 -0.155652 0.275993
0.0660565 -0.176275 -0.137671
0.106342 0.204124 -0.264982
-0.204124 0.113503 0.203429
-0.204124 -0.119776 -0.359907
0.204124 -0.00398055 -0.405575
0.142579 0.148794 -0.408248
0.0633873 0.204124 -0.24279
-0.204124 0.143732 0.327101
0.204124 -0.192651 0.332218
0.204124 0.00483975 0.295486
-0.121132 0.0227951 0.408248
0.12262 -0.0765243 0.408248
-0.162571 -0.176275 0.0389035
0.190282 0.204124 -0.234458
-0.108244 -0.108074 0.408248
0.204124 0.149147 -0.384086
-0.204124 0.0504669 -0.356958
0.204124 -0.0723149 0.221921
0.0377075 -0.176275 0.0966156
0.186408 -0.0130665 -0.408248
0.106896 -0.0085901 0.408248
-0.204124 -0.0873054 0.274855
0.147896 -0.0313406 0.408248
0.0404739 0.204124 -0.0444741
0.134937 0.118829 -0.408248
-0.194643 0.204124 -0.399306
-0.135611 0.0688017 0.408248
0.0895874 0.204124 -0.248997
0.0787617 -0.176275 -0.180417
-0.0823837 0.184831 -0.408248
0.204124 0.088086 -0.0227597
0.137045 -0.176275 -0.189304
0.0195074 0.204124 0.126672
-0.164197 -0.081942 0.408248
0.0614869 -0.145275 0.408248
0.185217 -0.204124 -0.384462
-0.00753799 -0.176275 0.352206
-0.204124 0.104316 0.350504
-0.079696 0.204124 0.0628332
0.119662 0.204124 -0.163936
0.065703 0.204124 -0.223505
0.09327 -0.176275 0.368273
0.022675 -0.176275 -0.395562
0.204124 -0.0329278 0.40199
0.139506 -0.176275 -0.191913
0.203452 0.204124 -0.0850697
-0.0247604 -0.124114 -0.408248
-0.204124 -0.196846 0.379828
0.0766986 -0.176275 -0.237002
0.0571582 0.204124 0.134039
-0.02875 -0.176275 0.332772
0.204124 -0.118003 -0.159232
0.0107565 0.204124 -0.28413
0.168949 -0.176275 -0.0423012
-0.0193858 0.204124 -0.335152
0.149164 -0.176275 -0.340657
0.204124 -0.00476412 -0.406885
-0.204124 0.048973 0.271492
-0.00860882 0.0885916 -0.408248
-0.184751 0.204124 -0.173625
-0.204124 0.147561 -0.0944767
0.204124 0.116504 0.237654
0.0365122 -0.176275 0.354325
-0.0230391 -0.100188 0.408248
0.204124 -0.192657 0.366528
-0.204124 -0.0933545 0.149697
-0.12801 -0.204124 -0.388674
0.204124 0.163396 0.0458623
-0.143468 0.204124 0.00836992
-0.204124 -0.140052 -0.146411
0.0461906 -0.176275 -0.154851
0.0778985 -0.176275 0.00537325
0.178224 0.204124 -0.291569
-0.167396 0.204124 -0.39034
-0.197079 0.0711086 0.408248
0.0872351 0.204124 -0.03903
0.0200811 0.201126 0.408248
-0.204124 0.0806962 -0.333489
-0.204124 0.0757108 0.0168897
0.204124 -0.165508 0.356019
0.204124 0.0242383 -0.247286
0.204124 -0.0971328 0.22634
-0.204124 -0.0202241 -0.272898
-0.204124 0.171688 -0.253732
0.204124 0.0105132 0.135233
-0.136597 -0.176275 -0.232981
-0.156155 -0.103961 0.408248
0.204124 -0.145043 -0.218986
-0.204124 -0.0171857 0.123041
0.204124 0.0161373 -0.325312
0.0246289 0.204124 0.357058
0.00739305 0.181644 -0.408248
-0.0256326 0.0687821 0.408248
-0.204124 0.161405 -0.178147
0.143985 0.0894285 0.408248
0.145868 0.204124 0.230657
-0.066606 0.204124 0.189196
-0.0396658 -0.176275 -0.188065
0.204124 0.182225 0.207822
0.0561951 0.204124 -0.153874
0.0380436 0.204124 -0.173803
0.204124 -0.0663071 -0.124386
-0.194436 0.204124 0.321709
-0.204124 -0.103525 -0.272312
0.192511 0.145175 0.408248
-0.145185 -0.204124 0.335692
-0.185403 -0.176275 0.0922299
-0.204124 -0.0568649 -0.276158
0.200102 -0.204124 0.369842
-0.204124 0.0629876 0.0966469
-0.0337626 0.204124 -0.348134
-0.0677667 -0.176275 0.185643
-0.204124 0.0318566 0.331921
-0.031846 -0.176275 0.0916814
-0.0398204 0.204124 -0.103289
0.204124 -0.150908 0.327665
0.198441 0.204124 0.00236824
-0.204124 0.0856025 -0.234672
-0.092509 -0.176275 -0.345059
-0.12131 0.156633 0.408248
0.202114 0.162074 -0.408248
0.204124 0.106886 0.236709
-0.055579 -0.176275 -0.108494
0.204124 0.173018 -0.180557
0.0779069 0.181622 0.408248
0.204124 -0.159491 0.136397
-0.204124 0.0214549 0.284576
-0.204124 -0.130158 0.17276
0.204124 0.0858316 -0.261133
-0.184077 0.204124 -0.206246
0.0702381 -0.176275 -0.340529
-0.204124 0.0529438 0.320031
0.204124 0.0433483 -0.348463
0.144564 0.0184699 0.408248
-0.204124 0.149564 0.28945
-0.0521806 -0.176275 -0.110795
0.204124 0.202982 -0.0554449
-0.204124 -0.170812 0.317233
0.154776 0.204124 0.0130993
-0.118199 -0.176275 0.379964
0.12918 0.204124 -0.117955
-0.0605895 -0.176275 -0.0479999
0.204124 -0.123772 0.404112
0.171157 -0.204124 0.332003
-0.110204 -0.150808 0.408248
-0.0639709 0.116842 0.408248
-0.203171 -0.203761 -0.408248
0.186995 -0.204124 -0.390423
-0.204124 0.0626883 0.371324
0.204124 0.087937 0.391231
0.0776667 0.204124 0.326203
-0.00841079 -0.176275 0.404788
-0.0185234 0.204124 -0.272874
-0.018604 0.204124 -0.00483596
0.0780145 -0.176275 -0.136727
0.203717 -0.176275 -0.224165
-0.194959 0.204124 0.27171
0.156684 -0.0531562 -0.408248
0.152974 -0.0378405 -0.408248
-0.169308 -0.110324 -0.408248
-0.104904 -0.146761 -0.408248
-0.167038 0.204124 -0.0443102
0.0275644 0.204124 -0.182513
-0.163274 -0.0879594 -0.408248
-0.0757743 -0.176275 0.0314894
0.152727 0.128934 -0.408248
-0.0497447 0.185855 -0.408248
-0.0619061 -0.176275 -0.156519
0.121482 -0.0171747 -0.408248
-0.0373145 0.204124 -0.226678
0.204124 -0.123385 0.214195
0.188989 -0.0336636 -0.408248
-0.183988 -0.176275 0.156639
0.138875 0.204124 0.220266
0.204124 -0.0865874 0.332897
0.204124 -0.106512 0.11951
-0.189542 -0.168232 -0.408248
0.0179353 0.000324595 0.408248
0.138174 -0.176275 0.0760269
0.0165725 0.0574796 -0.408248
0.0252123 0.131497 0.408248
0.204124 -0.0416983 0.351134
-0.204124 0.124203 -0.404313
0.135785 -0.176275 0.301535
-0.204124 -0.147592 0.0872197
-0.060681 0.142904 -0.408248
0.204124 -9.80645e-05 -0.386735
0.1077 0.204124 -0.0419144
0.200118 0.13411 -0.408248
0.204124 -0.105195 0.342804
-0.177618 0.0559123 -0.408248
-0.122689 0.0992898 -0.408248
0.115504 -0.176275 -0.0323248
0.130839 -0.176275 0.164664
-0.204124 -0.121031 0.17835
-0.18239 -0.176275 -0.0226525
-0.109582 0.204124 -0.368542
-0.0405229 0.204124 0.374431
0.169291 -0.176275 -0.284312
0.175702 0.204124 -0.200557
0.0990346 0.204124 -0.324615
-0.190551 -0.176275 0.366279
-0.145032 -0.106353 -0.408248
-0.0418828 0.204124 0.338641
-0.0820185 -0.176275 -0.0564678
-0.204124 0.0440459 -0.0474116
0.108874 -0.163902 -0.408248
-0.013083 0.204124 -0.0481925
-0.137834 -0.134606 -0.408248
-0.204124 0.0836728 -0.0448785
-0.143239 -0.0992179 -0.408248
-0.122299 0.204124 0.120965
-0.0399719 -0.176275 -0.143605
-0.204124 -0.129032 -0.0478203
0.203636 0.204124 -0.177072
0.0848873 -0.176275 -0.373375
-0.14339 -0.176275 0.0540508
-0.0699191 -0.176275 0.0386678
-0.117326 -0.122383 -0.408248
-0.130567 0.204124 0.281581
0.0727293 -0.141714 -0.408248
-0.204124 0.0577549 0.0906192
-0.204124 0.119849 0.360595
0.109669 0.0306547 0.408248
0.146631 0.204124 -0.00188759
-0.0694236 0.204124 0.379685
-0.162311 0.143684 -0.408248
-0.204124 0.0315688 0.407489
0.204124 0.103008 -0.327064
0.131434 -0.0565418 -0.408248
-0.112575 0.204124 0.134688
0.0503481 -0.176275 0.260208
0.113227 -0.176275 0.29607
0.145954 0.204124 0.197912
-0.142087 -0.204124 0.380954
-0.0400157 0.204124 -0.328605
0.0597192 0.204124 0.357523
-0.145984 0.204124 0.153963
-0.204124 0.13644 -0.332414
0.0544437 0.173686 0.408248
0.0560092 -0.176275 -0.153621
-0.204124 -0.151568 0.349944
-0.0996481 0.128895 0.408248
0.204124 -0.130265 0.336948
0.0343948 -0.176275 0.0712029
-0.204124 0.0806342 0.289023
-0.204124 0.113192 0.155261
0.124464 0.204124 -0.168558
-0.204124 -0.167138 -0.208602
-0.0643164 0.204124 0.131436
0.079641 0.0554716 -0.408248
-0.204124 0.0224294 -0.358605
-0.204124 -0.0118298 0.370617
-0.126102 0.113282 -0.408248
0.204124 0.0309921 0.13668
0.196468 -0.176275 -0.371549
-0.151708 -0.176275 -0.0402627
0.085827 -0.0420434 -0.408248
0.204124 0.0284556 0.0958192
0.199225 0.204124 -0.185116
0.199615 0.204124 0.0800871
-0.204124 -0.00389055 0.255834
-0.197343 -0.176275 0.205271
0.144963 -0.176275 0.134779
0.0136346 -0.176275 -0.392627
-0.123513 0.198396 0.408248
-0.166186 -0.0588307 -0.408248
-0.129913 0.204124 -0.023221
0.1763 0.0283707 -0.408248
0.197913 0.204124 -0.262453
-0.0141996 0.204124 0.0691393
-0.160674 0.204124 0.246243
-0.1585 -0.0538478 -0.408248
-0.144796 -0.133865 -0.408248
-0.204124 0.0967895 -0.22309
0.026936 0.137773 -0.408248
-0.0452551 -0.176275 -0.0034432
-0.204124 -0.160604 0.295792
0.163106 -0.176275 -0.35537
-0.204124 -0.0473252 -0.201028
-0.188785 0.0551802 -0.408248
-0.204124 0.144452 -0.15528
-0.204124 0.119136 0.120507
0.195339 0.204124 -0.298184
-0.204124 0.11579 0.209836
-0.0168463 0.204124 -0.24103
0.204124 -0.058752 -0.394267
-0.0769572 -0.176275 0.289629
0.000108816 0.196517 -0.408248
0.172158 0.204124 -0.345929
0.0688967 -0.176275 -0.335728
-0.133802 -0.176275 0.0449661
-0.044217 0.204124 -0.197772
0.137211 -0.204124 0.322959
0.129592 0.0961027 0.408248
-0.204124 -0.0979439 -0.310869
0.0281116 0.0538189 -0.408248
0.203391 0.204124 -0.297692
-0.0255829 -0.137751 0.408248
0.204124 -0.0658809 0.234007
-0.152681 -0.146782 -0.408248
0.0666765 0.063868 -0.408248
-0.204124 0.0890721 -0.302059
-0.204124 0.017802 -0.232782
0.204124 -0.000814065 0.281043
-0.204124 0.142649 -0.141199
-0.155042 -0.176275 0.0563241
0.104995 -0.0363268 -0.408248
0.116221 0.0208007 -0.408248
-0.0259984 0.0399397 0.408248
-0.204124 0.189104 0.199363
0.085322 -0.176275 -0.207319
0.130442 -0.188814 -0.408248
-0.204124 -0.107931 0.187622
0.204124 0.108357 -0.391058
-0.154395 0.188056 -0.408248
-0.0350506 0.204124 -0.264401
-0.204124 -0.174674 -0.396439
-0.0705522 -0.176275 0.201446
0.204124 0.117229 -0.101912
0.204124 -0.110225 -0.261581
0.204124 0.0453974 -0.0170744
-0.204124 0.0517303 -0.338939
0.0272359 -0.176275 0.341553
-0.0942757 0.204124 -0.204508
-0.0242666 -0.0847547 0.408248
0.204124 0.113129 0.278501
-0.132237 0.204124 0.0394783
-0.204124 0.163088 0.117579
0.15962 0.204124 -0.20602
0.104287 -0.0869698 0.408248
0.0637466 0.204124 0.0774582
-0.204124 0.1595 -0.247255
-0.0313461 -0.176275 0.0108401
0.0480818 -0.0707359 0.408248
0.204124 0.18215 0.32409
-0.204124 0.0876985 -0.134949
0.148956 0.204124 0.122207
0.204124 0.193726 0.0250725
-0.204124 0.154178 -0.102197
0.133138 -0.176275 0.0218214
-0.204124 -0.0822738 -0.397482
0.182301 -0.176275 0.0973944
0.0474217 0.202494 -0.408248
-0.0825567 0.204124 -0.149885
-0.204124 -0.0152499 0.0391057
-0.197118 -0.0781861 -0.408248
0.0836596 -0.176275 0.285914
-0.204124 -0.105026 0.342003
0.152483 0.204124 -0.216798
0.123121 -0.0635002 -0.408248
0.204124 0.104202 -0.148623
-0.200568 -0.0281546 0.408248
-0.096828 -0.176275 0.167419
-0.161141 -0.176275 -0.0633256
0.0235596 0.153884 -0.408248
-0.204124 -0.0380589 0.0350762
-0.204124 0.141399 0.200286
0.204124 0.201268 0.125326
0.187883 0.164387 -0.408248
-0.167056 -0.176275 0.301195
-0.0452033 0.204124 0.345352
0.0910383 0.0753598 -0.408248
-0.204124 -0.136319 -0.369107
-0.204124 0.198401 -0.119388
0.0894602 -0.176275 0.109685
-0.204124 0.195942 -0.000490372
-0.1358 -0.204124 0.371766
-0.204124 0.070951 -0.0494273
-0.204124 0.12566 -0.137076
0.169687 -0.176275 -0.154775
0.204124 -0.182998 -0.397912
-0.0985403 -0.117147 -0.408248
-0.102424 0.176205 0.408248
0.204124 0.0246583 0.363469
0.10415 -0.0334815 0.408248
-0.204124 -0.0929493 -0.341987
-0.204124 0.129261 -0.36574
0.0939037 -0.176275 -0.128813
0.0935962 -0.0575969 0.408248
0.204124 0.116379 -0.308025
-0.178672 0.204124 -0.0221972
-0.1836 -0.0615538 -0.408248
0.204124 0.0449434 -0.310427
-0.204124 -0.102523 0.0377494
-0.204124 -0.158504 -0.293768
-0.204124 0.0993391 -0.405453
-0.130075 0.204124 0.367689
-0.0505366 -0.176275 0.207975
0.0285204 -0.176275 -0.244558
-0.0554759 0.204124 -0.0397113
0.204124 -0.133969 -0.111454
-0.174292 0.204124 -0.244112
0.137205 -0.204124 0.373979
0.204124 -0.127632 0.0865769
0.155658 -0.184802 0.408248
0.204124 0.169928 -0.0171462
0.204124 -0.0865603 0.339757
0.108004 -0.198918 0.341186
0.0722163 0.204124 0.112605
-0.204124 -0.198933 -0.379578
-0.204124 -0.146188 -0.186576
-0.187755 -0.204124 -0.358819
-0.204124 0.167742 0.232184
0.18529 -0.176275 0.0778013
-0.0912061 -0.176275 0.199502
-0.204124 0.136641 -0.257098
0.204124 -0.105608 -0.219042
0.00983064 0.204124 -0.250159
0.187944 -0.0593963 0.408248
-0.127074 -0.176275 0.329271
-0.00719583 0.0971811 -0.408248
-0.1516 0.204124 -0.0889332
-0.183459 0.191764 0.408248
-0.204124 -0.0250741 -0.0704451
-0.0669178 0.204124 -0.121742
-0.204124 0.179228 -0.125398
0.204124 -0.0792283 0.261136
0.204124 -0.129206 0.365812
-0.0140092 0.204124 0.349037
-0.0880707 -0.176275 0.0594265
0.19646 0.183612 0.408248
0.204124 0.192938 0.0262825
-0.204124 0.194243 -0.102454
-0.0854814 0.204124 0.0374371
-0.0440717 -0.176275 -0.178793
-0.105383 -0.176275 0.37061
-0.204124 -0.0277972 0.348799
0.204124 0.12304 0.329718
0.00984113 0.138695 0.408248
-0.167215 0.204124 0.33452
-0.163765 0.204124 0.403167
-0.0642923 0.0391639 -0.408248
-0.204124 0.125521 -0.0848987
-0.128788 0.204124 -0.106145
-0.124682 -0.176275 0.0233253
0.161526 0.164806 0.408248
0.204124 -0.0973473 -0.339899
0.204124 -0.0792827 -0.0111368
0.0587996 0.204124 -0.176985
-0.0639405 -0.140713 0.408248
0.109821 -0.176275 0.218381
-0.204124 -0.0668028 0.144764
-0.133508 -0.176275 -0.341235
0.147917 -0.204124 0.362615
-0.204124 -0.16407 -0.392367
0.204124 0.182441 0.355358
0.04786 0.204124 0.301051
0.204124 0.0791147 -0.298229
0.0371987 -0.176275 -0.186409
-0.181634 0.0332203 -0.408248
0.0118355 0.204124 -0.15772
0.138208 0.204124 -0.0803075
0.204124 -0.122168 0.0332443
0.166343 -0.204124 -0.354798
-0.0131774 0.0144314 -0.408248
0.0657794 -0.176275 0.0531726
0.204124 0.140798 -0.185283
-0.109128 -0.176275 -0.203932
-0.204124 -0.0641774 0.30864
0.204124 0.140777 -0.316725
0.204124 -0.0474453 -0.102784
-0.128538 -0.176275 0.0504878
-0.204124 0.148492 -0.322439
0.204124 -0.098059 -0.0132263
0.204124 -0.0750622 -0.161816
0.204124 -0.0389857 -0.086602
0.00677893 0.204124 -0.0490542
0.204124 -0.0543332 0.0334466
-0.0942434 0.141347 -0.408248
-0.204124 -0.155861 0.369392
-0.130105 0.204124 0.313551
0.204124 0.0260328 -0.334542
-0.0345687 -0.176275 -0.396055
0.204124 -0.132901 0.353426
-0.0157054 -0.176275 -0.143399
-0.192067 0.0101427 -0.408248
0.204124 0.174302 0.29852
-0.13283 -0.204124 0.389597
-0.204124 -0.103479 0.180809
0.204124 0.0580861 0.228608
-0.129512 -0.184095 0.408248
0.0133069 -0.176275 0.186231
0.190477 -0.204124 -0.320887
-0.204124 -0.165861 0.207692
-0.180423 -0.176275 -0.0183068
0.0238105 0.204124 0.335533
0.190956 -0.176275 -0.378219
-0.204124 0.0118182 -0.061243
0.204124 0.0690566 0.257731
-0.204124 0.0310231 0.331135
-0.0481793 0.204124 0.157776
-0.193799 0.204124 -0.122636
0.0328852 -0.0954083 -0.408248
0.0268117 -0.176275 0.00268368
-0.186965 -0.204124 -0.367796
0.204124 -0.13796 0.0582976
-0.204124 -0.0290645 -0.0433253
-0.150057 0.204124 0.106118
-0.152737 -0.176275 0.392389
-0.130901 -0.176275 0.143905
-0.204124 0.0766053 -0.0856688
0.101244 -0.176275 -0.365963
0.0353932 -0.104133 0.408248
-0.204124 -0.15738 0.0900066
0.0575799 -0.176275 0.0381272
0.0265737 -0.176275 -0.188745
0.204124 0.042213 0.162393
0.169704 -0.176275 0.142219
0.204124 -0.0159994 -0.352312
-0.094676 -0.176275 0.346672
-0.204124 0.137277 -0.095836
-0.204124 -0.0361687 -0.00104953
-0.0141954 -0.176275 -0.305432
0.204124 -0.00225797 -0.187529
-0.181687 0.204124 0.208034
-0.158082 0.0579398 0.408248
-0.0558208 -0.176275 -0.176925
0.188469 -0.204124 -0.31893
-0.116141 0.20143 -0.408248
-0.128574 -0.0835676 -0.408248
-0.124919 -0.0161033 0.408248
-0.204124 0.108367 0.0590302
0.145997 0.204124 0.242732
-0.154893 0.204124 0.313436
-0.204124 0.101147 0.284257
0.204124 0.0948934 -0.0395592
0.179855 -0.204124 0.338141
-0.156102 -0.0183293 0.408248
0.204124 -0.00842752 -0.28676
0.150738 0.204124 0.38651
-0.00366785 0.145778 0.408248
0.110805 0.204124 0.325149
0.084157 -0.176275 -0.0739135
0.00232941 -0.176275 0.0866327
0.0102847 0.204124 -0.298992
-0.171997 0.168718 0.408248
0.0206096 0.204124 -0.109795
-0.062447 0.204124 -0.240326
0.204124 -0.123217 0.0302216
-0.174765 -0.176275 -0.195626
0.204124 -0.166756 0.404951
-0.204124 0.183603 -0.0328501
0.108004 -0.190306 0.371843
0.204124 0.191067 -0.136707
0.204124 -0.135143 0.0403867
-0.0878595 -0.176275 0.173773
0.204124 0.196216 -0.0671911
0.00522217 -0.176275 0.175794
0.204124 0.203248 0.0229147
-0.109129 0.0767867 -0.408248
-0.161485 0.204124 -0.315042
-0.160033 0.204124 -0.0841486
0.204124 -0.0396051 -0.272317
0.0140485 0.0509958 0.408248
-0.171002 0.204124 -0.253423
0.204124 0.0365642 -0.0669315
-0.204124 -0.195229 0.327194
-0.13729 -0.0293007 -0.408248
-0.00614722 -0.10698 0.408248
0.196044 0.00551882 0.408248
-0.0350089 -0.146588 -0.408248
0.115634 -0.176275 0.269744
0.204124 -0.162352 0.010841
0.204124 -0.026895 0.291546
0.111001 -0.00797693 0.408248
-0.204124 0.124309 -0.084942
0.0317265 -0.00769972 0.408248
-0.204124 0.0792377 0.243957
-0.100116 0.149842 0.408248
-0.204124 -0.0635162 0.315617
0.0876638 -0.176275 -0.357142
0.204124 0.00965121 0.100433
-0.170878 -0.176275 -0.0538777
0.204124 -0.193922 -0.406788
-0.204124 0.0229485 0.239347
0.0970691 0.204124 0.340418
-0.204124 0.0515254 -0.261681
-0.0834707 0.0197677 -0.408248
-0.171796 0.204124 -0.375592
0.0542388 -0.176275 0.388275
-0.204124 -0.030919 -0.16676
0.204124 0.199791 -0.205144
-0.204124 -0.0486474 -0.12728
-0.0206984 0.204124 0.266314
-0.204124 -0.142589 0.406322
-0.204124 -0.118679 0.223007
0.204124 0.127452 -0.297201
0.0285469 -0.176275 -0.153852
0.204124 -0.0808511 -0.126877
0.123591 0.204124 -0.392166
-0.0273394 0.204124 0.279759
-0.0470814 0.189434 -0.408248
-0.188832 0.0383803 -0.408248
-0.177949 0.204124 -0.240906
-0.0481404 -0.176275 0.277738
0.1156 -0.176275 -0.23507
0.204124 0.12224 -0.356113
-0.0965893 -0.176275 -0.195787
-0.204124 0.190693 0.031185
-0.0677032 0.204124 0.129109
0.204124 0.192359 0.196661
-0.168332 0.204124 0.331467
-0.204124 -0.102418 -0.157113
-0.0267981 0.204124 -0.315079
-0.190833 -0.204124 0.322809
0.152187 -0.176275 -0.106075
0.204124 0.162138 -0.387013
-0.0877479 0.0856529 -0.408248
-0.146194 0.204124 -0.191425
0.187183 0.204124 0.0356331
0.204124 0.0205779 -0.402228
-0.160967 -0.176275 0.130253
0.161123 0.104214 0.408248
-0.188042 -0.087711 -0.408248
-0.157053 0.204124 0.382037
0.204124 0.104122 0.126029
-0.109237 0.0429359 -0.408248
0.0198286 -0.099018 -0.408248
0.120506 -0.176275 -0.0707994
0.204124 -0.119772 0.0966918
0.136475 -0.093121 -0.408248
0.0177175 -0.176275 0.18655
0.202762 0.10527 0.408248
0.204124 -0.13407 0.136576
0.0707213 -0.176275 -0.224873
-0.204124 0.110918 -0.034062
-0.204124 0.105945 -0.274334
-0.117096 -0.0156739 -0.408248
-0.124254 0.204124 0.0630175
-0.0533639 -0.176275 -0.360296
-0.0604037 -0.176275 0.258247
0.204124 -0.111277 -0.334303
0.12176 0.107308 -0.408248
-0.185181 -0.176275 0.272007
0.204124 0.0146329 0.0148068
-0.0492822 0.204124 -0.407335
-0.035021 -0.176275 0.27133
0.204124 0.124847 -0.366579
-0.139708 -0.00162477 -0.408248
-0.204124 -0.142438 0.236183
0.139943 0.204124 0.0481741
0.204124 -0.00901042 0.200208
0.187543 -0.176275 -0.0251721
0.0199412 0.204124 0.350558
-0.0858833 0.204124 -0.0421516
0.088975 0.204124 0.0330442
0.123528 0.204124 0.259607
0.204124 -0.0693862 -0.369642
-0.204124 -0.0424125 -0.116612
-0.157149 -0.144627 0.408248
-0.204124 -0.150231 0.377805
-0.19245 -0.204124 -0.375982
-0.204124 -0.0247708 0.317372
0.136919 -0.176275 -0.317571
0.204124 0.072701 -0.204438
0.178031 0.204124 0.127569
0.204124 0.0866241 0.401036
0.204124 0.091889 0.171352
0.118784 0.204124 0.0992001
0.204124 0.161374 -0.314396
0.104274 0.204124 -0.168867
-0.120079 -0.204124 -0.346483
0.193631 0.204124 0.325266
0.204124 -0.0223187 0.08734
0.204124 -0.105025 0.390904
0.0346649 0.204124 -0.381633
0.0523791 -0.176275 -0.379832
-0.052193 -0.133213 -0.408248
0.0393361 -0.176275 0.193587
0.102653 0.204124 -0.377999
0.0340421 0.204124 -0.335215
-0.0223297 0.00838469 0.408248
-0.204124 0.0191107 0.0699336
-0.0428637 -0.176275 0.252112
-0.204124 -0.0483113 -0.00519401
-0.0356063 0.10911 -0.408248
-0.195321 -0.176275 -0.128552
-0.111319 0.134483 -0.408248
-0.0564825 -0.176275 0.392682
0.0500662 0.204124 -0.117317
0.0337499 0.204124 0.253915
0.204124 -0.0779461 0.395315
-0.204124 0.161882 -0.0989129
-0.0710934 0.204124 -0.16796
0.204124 0.013349 0.207785
-0.204124 0.0897996 0.325891
0.0766288 0.204124 -0.0348318
-0.01226 0.204124 -0.292494
0.0596473 -0.176275 0.038673
0.204124 -0.0503411 0.288296
0.204124 -0.0374804 0.0800318
0.204124 0.0769232 0.160663
-0.18495 -0.110986 0.408248
0.111886 -0.176275 0.217467
0.190732 -0.176275 -0.0349032
0.0618799 0.204124 -0.127796
0.204124 0.0146711 -0.0731046
-0.0123935 -0.0183531 -0.408248
0.00589091 0.204124 -0.191167
-0.0367848 -0.0850897 -0.408248
0.204124 -0.0348571 0.071709
0.204124 0.0947588 0.371738
0.0831822 -0.0364982 0.408248
0.167452 -0.176275 -0.111346
0.204124 0.0926106 0.327185
-0.204124 0.0196672 -0.267069
0.162482 -0.176275 0.239446
0.171841 -0.176275 -0.266248
-0.176649 0.108814 -0.408248
0.142861 -0.176275 0.328943
-0.166533 -0.140662 0.408248
0.204124 -0.059686 -0.254567
0.112129 0.204124 0.27729
-0.178042 0.0972476 0.408248
0.0488013 0.204124 0.138898
-0.160273 -0.176275 0.187555
0.152721 0.204124 0.182894
0.204124 -0.0204908 -0.275544
0.204124 0.168581 0.136792
-0.204124 -0.0689111 0.00462291
0.204124 0.0127941 0.175833
-0.157289 0.204124 0.0851445
-0.0941958 -0.176275 0.0586263
0.0400973 0.204124 0.0264225
-0.19999 -0.176275 0.174291
-0.128312 -0.204124 -0.383634
0.204124 -0.1163 0.0255584
-0.0309393 -0.176275 0.277958
0.148147 -0.176275 0.0500829
-0.204124 -0.125183 -0.363007
0.015955 -0.176275 0.227647
-0.108898 0.204124 -0.283732
0.160021 -0.176275 -0.0251434
-0.204124 -0.126794 0.184448
-0.204124 -0.0848392 0.223495
-0.204124 -0.113024 0.158636
-0.204124 -0.161666 0.387053
0.18117 0.121826 -0.408248
-0.0887687 -0.131727 -0.408248
0.196324 -0.0571864 0.408248
0.00294963 -0.176275 0.174159
0.0272029 0.204124 -0.0856162
0.14293 -0.204124 0.34916
-0.196958 -0.176275 -0.0931935
-0.0903865 -0.0949356 0.408248
0.0102748 0.204124 0.164229
0.204124 0.0701884 -0.029131
0.0853034 -0.176275 0.401935
-0.0820034 0.14462 -0.408248
0.0104576 -0.110315 0.408248
0.204124 -0.16117 0.147685
-0.204124 0.176218 0.186349
-0.00117545 0.204124 -0.0908245
0.0719153 -0.176275 0.123331
0.0770711 -0.176275 0.0273916
-0.204124 0.089114 -0.255441
0.0815797 -0.176275 0.00165302
0.204124 0.0430153 0.0654169
0.204124 -0.0874172 0.21616
0.00651938 0.204124 -0.152701
0.204124 -0.202035 -0.350848
-0.0529497 0.204124 0.215812
-0.0665192 0.0991063 -0.408248
-0.0607238 0.204124 -0.105058
-0.172039 -0.176275 0.181907
-0.204124 0.124401 0.307756
0.167038 0.204124 -0.0290136
-0.204124 0.0446182 -0.0229201
0.0460262 -0.0108108 0.408248
-0.161852 0.204124 0.180039
-0.126903 -0.204124 -0.343943
-0.164542 0.204124 0.353323
0.099641 -0.158151 0.408248
-0.204124 -0.169853 -0.348924
0.0265168 -0.176275 -0.0770544
0.204124 0.0849841 0.0694287
-0.137619 -0.176275 0.265104
0.204124 0.158691 -0.105001
-0.0983001 0.0572864 -0.408248
-0.104939 0.204124 -0.0395787
-0.00170442 0.129453 0.408248
0.0145443 0.079552 0.408248
0.204124 -0.124122 0.236267
0.0462803 0.183438 0.408248
0.204124 -0.0795679 -0.243395
0.204124 -0.0534438 0.0918595
-0.0782134 -0.106392 0.408248
-0.132498 0.204124 -0.16259
0.204124 0.114044 -0.343051
0.204124 -0.0153608 -0.106703
0.0863078 0.17906 0.408248
0.112984 -0.160608 -0.408248
0.156464 0.00567705 -0.408248
-0.119518 0.204124 -0.0523218
0.0177773 -0.176275 0.0918133
0.0486916 0.204124 0.316832
-0.204124 -0.0650947 -0.155601
-0.089255 -0.176275 0.0786718
-0.204124 0.169245 0.00766508
-0.0982818 -0.080322 0.408248
0.0863419 0.0958858 0.408248
-0.204124 0.170175 -0.118912
0.102027 -0.176275 0.268702
-0.151716 -0.176275 0.194459
-0.091368 0.204124 0.0263204
-0.204124 0.190273 -0.287944
-0.135045 0.204124 0.178989
-0.00518209 -0.176275 -0.269462
-0.204124 -0.0485915 -0.0560345
0.0434491 -0.176275 0.108891
-0.204124 0.107375 -0.180325
-0.0569477 0.118245 0.408248
0.177753 -0.179897 0.317407
-0.204124 0.0379756 0.393555
-0.186713 0.146951 0.408248
0.184149 0.204124 -0.0689476
-0.116617 -0.204124 -0.323864
0.140278 0.141889 0.408248
0.105841 0.204124 -0.337862
0.204124 -0.167975 0.245504
-0.13557 0.204124 -0.359906
-0.204124 0.0840856 -0.262323
-0.204124 -0.182944 0.322373
-0.113781 -0.153444 0.408248
-0.00765684 -0.176275 -0.313499
-0.198936 -0.0675061 0.408248
0.172096 -0.176275 -0.378414
0.0571536 0.204124 -0.328833
-0.133513 -0.124602 0.408248
0.103807 0.0366963 0.408248
0.204124 -0.0770161 0.131288
-0.204124 0.131572 0.12175
0.204124 -0.11348 0.267503
0.13217 -0.176275 -0.206416
-0.204124 -0.0441963 0.373568
0.169323 -0.176275 0.0461753
0.204124 0.0754034 0.302862
0.118131 -0.176275 -0.000496097
-0.204124 0.159205 0.366224
-0.110032 -0.191637 0.332084
-0.204124 -0.0295969 -0.155835
-0.0540116 0.00472927 0.408248
-0.134067 -0.176275 0.252494
-0.00694473 0.0540016 0.408248
-0.164812 -0.176275 0.201901
0.121926 0.13567 -0.408248
0.0874967 0.0582465 -0.408248
0.204124 0.00973149 -0.346453
-0.119556 0.0129386 -0.408248
-0.204124 -0.137477 0.144197
0.204124 0.0706064 0.209976
0.0468849 -0.176275 -0.0423292
-0.0130825 0.0237401 0.408248
-0.0670932 0.204124 -0.332934
-0.204124 -0.00490351 0.131748
0.00453446 -0.176275 -0.333512
0.153375 0.204124 -0.105334
0.204124 -0.0712763 -0.0599518
0.204124 -0.0581163 0.0277474
-0.204124 0.179004 0.0512073
0.163976 -0.200249 0.317407
0.165779 0.0601112 -0.408248
0.00328447 0.204124 -0.0763766
-0.184026 -0.187916 0.408248
-0.204124 -0.0693981 0.268948
0.204124 0.14892 -0.208233
-0.204124 0.13187 0.0554966
0.204124 -0.125766 -0.159689
0.109696 -0.159987 0.408248
-0.157853 0.204124 0.163416
0.0484344 0.083822 -0.408248
0.204124 -0.101986 0.00180617
-0.0410569 0.0512134 0.408248
0.204124 0.189304 -0.404894
-0.17757 -0.176275 0.110636
0.0911837 0.204124 0.225964
0.204124 0.0358735 0.0895121
-0.149026 0.204124 0.156659
0.0925829 -0.176275 -0.188655
0.0745321 0.0359993 -0.408248
0.204124 0.103824 0.143813
-0.117861 -0.176275 -0.159081
-0.204124 -0.0119019 0.259844
-0.0685743 -0.176275 0.242428
-0.204124 -0.04809 0.078993
-0.146979 -0.204124 -0.351743
0.0652127 0.117338 -0.408248
0.204124 0.060414 -0.0931039
-0.115735 0.204124 -0.155833
-0.057927 -0.176275 -0.126001
0.204124 0.0913583 -0.0870136
0.134096 -0.157555 0.408248
0.175382 -0.176275 -0.176821
0.0486424 -0.176275 -0.157405
0.185377 0.204124 0.213289
-0.204124 0.180097 0.161993
-0.0491868 0.204124 -0.3314
-0.134677 -0.176275 -0.0566085
0.168637 -0.176275 0.301297
-0.0958966 0.204124 -0.0566571
0.204124 0.0454835 -0.322748
0.177898 -0.204124 0.320086
0.155561 0.00345389 -0.408248
0.149327 -0.204124 -0.362437
-0.0590684 -0.176275 -0.407583
-0.0436812 -0.0346855 -0.408248
-0.0490663 -0.176275 -0.28644
0.198395 0.204124 -0.235588
0.204124 -0.16386 -0.0345796
0.204124 0.0950195 0.0684182
-0.166201 -0.176275 0.0738808
-0.204124 -0.126733 0.0160371
-0.0106892 -0.0484515 0.408248
-0.173556 0.13187 0.408248
0.16612 0.204124 -0.281957
0.204124 0.120132 -0.392594
0.204124 0.160708 0.178413
-0.185402 0.204124 0.109886
-0.0010823 0.204124 -0.327611
-0.204124 -0.107201 0.053049
0.159184 -0.176275 0.279889
0.204124 0.076448 0.063875
-0.165499 0.204124 0.323167
-0.163364 0.204124 0.0302737
-0.0234553 0.178337 -0.408248
0.204124 0.0810858 0.384005
-0.204124 0.0920794 0.346522
0.204124 0.173601 0.0593714
-0.139185 -0.163403 0.408248
0.128608 -0.0160207 -0.408248
-0.204124 0.18002 0.290052
-0.125074 0.204124 -0.0575281
-0.0941313 0.204124 -0.0146466
-0.204124 0.153248 0.338408
-0.029269 -0.155185 0.408248
0.0658262 0.204124 0.0789627
-0.123239 0.204124 0.244725
0.197544 0.204124 -0.316421
0.204124 -0.159028 -0.294803
0.107981 0.204124 -0.220625
0.204124 0.168804 -0.215337
0.0797579 -0.176275 -0.0549524
-0.204124 -0.130374 -0.407206
0.204124 -0.161214 -0.39297
0.101001 0.101369 0.408248
-0.204124 0.179663 0.255657
-0.0967387 -0.0444252 -0.408248
0.0777141 0.0310198 -0.408248
0.0728967 -0.176275 0.404754
0.204124 0.2016 0.246685
-0.204124 -0.112424 -0.0164685
-0.204124 0.0994043 0.390723
0.00166894 0.204124 -0.375026
-0.203647 0.204124 -0.0833655
-0.106672 0.195101 -0.408248
-0.134137 0.204124 -0.0284547
-0.102855 0.204124 0.381497
0.204124 0.117336 0.163337
-0.018016 -0.176275 -0.185532
-0.0244278 -0.176275 0.112481
-0.204124 -0.163828 0.0232244
0.204124 -0.0609422 0.164226
-0.0413778 0.204124 -0.261298
0.0399685 0.204124 0.116756
0.0532993 0.204124 0.0553238
-0.204124 -0.000859872 -0.315068
0.204124 -0.127833 -0.0718503
-0.071795 -0.176275 0.203409
-0.204124 0.0488283 -0.151767
0.0670933 -0.176275 0.294577
-0.00839419 -0.176275 -0.391368
0.204124 0.0783451 0.0446931
0.0602291 -0.176275 0.380767
0.150293 -0.07767 -0.408248
-0.198537 0.204124 0.136042
-0.204124 -0.110089 0.363698
-0.107123 0.114117 -0.408248
0.199563 -0.176275 0.332093
-0.0137554 0.204124 -0.130714
-0.204124 -0.0170445 -0.277466
-0.137436 0.204124 -0.30037
0.141047 -0.176275 -0.158916
-0.175044 -0.176275 -0.301126
0.157271 0.204124 -0.346458
-0.13246 -0.176275 0.203688
0.116902 -0.176275 0.202306
-0.0718719 -0.176275 0.355428
-0.204124 0.0276049 0.0165531
-0.204124 -0.146265 0.229181
0.204124 0.0351513 -0.0225069
-0.204124 0.107432 -0.234567
-0.204124 0.132246 0.329045
-0.204124 0.176477 0.227168
0.0637421 -0.176275 0.390921
0.157264 0.11363 -0.408248
-0.204124 0.156514 0.364011
0.111709 0.204124 0.06554
-0.0809556 -0.176275 0.00693553
0.0331662 -0.176275 0.242099
0.0474707 -0.125253 0.408248
0.204124 0.0791003 0.135732
0.0671365 -0.131746 0.408248
0.137913 -0.176275 -0.268521
-0.160489 0.204124 -0.149591
-0.151082 0.204124 0.12105
-0.0648584 0.108497 0.408248
-0.117028 -0.204124 -0.389792
-0.150205 0.0630174 -0.408248
-0.0486116 0.204124 -0.241216
0.169386 -0.176275 -0.264159
0.204124 0.155132 -0.384201
0.159946 -0.176275 0.359208
-0.204124 0.184035 0.364551
-0.00781512 0.0391103 0.408248
-0.092762 0.204124 -0.136642
0.204124 -0.147897 -0.0744263
-0.0494196 0.0915629 0.408248
0.204124 0.153531 -0.399367
0.204124 0.0803992 0.23727
0.00908706 0.204124 -0.363995
0.185206 -0.176275 -0.378584
0.204124 -0.0999037 0.0265678
0.0113126 -0.176275 -0.321542
0.140138 -0.176275 0.204822
0.170341 -0.0857142 0.408248
-0.166645 -0.176275 0.307317
0.204124 0.105744 -0.149191
0.204124 0.0569778 -0.104529
-0.129385 0.204124 -0.203276
-0.00842303 0.204124 0.398108
-0.204124 -0.118981 0.369485
0.00848845 -0.176275 -0.394108
0.103831 -0.0556457 -0.408248
-0.0343056 -0.116806 0.408248
-0.117789 -0.176275 0.238745
-0.137691 -0.176275 0.0422548
-0.0105863 -0.176275 -0.0949401
-0.0277099 0.204124 0.142672
0.196169 -0.176275 0.189741
-0.204124 0.0144959 -0.0443188
-0.00794399 -0.153243 -0.408248
0.0305131 0.0657556 0.408248
0.204124 -0.113549 -0.26634
-0.204124 0.0338219 -0.221893
0.204124 0.0568291 -0.159659
-0.0657461 -0.155693 -0.408248
0.204124 -0.127116 0.131058
0.163711 -0.0338377 0.408248
0.204124 0.063934 -0.374553
-0.128378 0.0827792 0.408248
0.204124 0.0466499 -0.00428183
-0.0884 0.204124 0.279142
0.204124 -0.174034 -0.0923936
-0.204124 0.0732643 0.207976
0.189645 0.0906079 -0.408248
-0.0559213 0.0160972 -0.408248
-0.0499436 0.204124 0.190811
0.204124 -0.0720105 0.0468044
-0.204124 0.10304 -0.310954
-0.191528 -0.176275 -0.159167
0.123302 0.204124 0.171399
0.165512 -0.000667021 -0.408248
0.204124 0.010051 0.149189
0.204124 0.0948336 0.140687
-0.204124 0.132413 0.111189
-0.0474472 0.126238 0.408248
-0.204124 0.0024539 0.232075
