ply
format ascii 1.0
comment Created by Open3D
element vertex 931
property double x
property double y
property double z
end_header
0.203878 -0.204576 -0.372894
0.203914 -0.203725 -0.349574
0.202488 -0.177483 -0.378347
0.203893 -0.17719 -0.363025
0.186853 -0.161178 -0.379834
0.203908 -0.157354 -0.352969
-0.187991 -0.204798 -0.364612
-0.188009 -0.203219 -0.375724
0.198808 -0.144234 -0.33512
0.168736 -0.143495 -0.370086
0.198842 -0.144261 -0.313706
0.203894 -0.137222 -0.363026
0.194405 -0.135953 -0.382077
0.149994 -0.143133 -0.370115
0.198877 -0.144288 -0.291435
0.13061 -0.142758 -0.370145
-0.187966 -0.184966 -0.349524
0.198914 -0.144317 -0.268256
0.11055 -0.14237 -0.370177
0.198945 -0.143848 -0.248204
0.0897777 -0.141969 -0.370209
0.0682556 -0.144533 -0.370243
-0.188011 -0.174445 -0.375724
0.198985 -0.143868 -0.223208
0.0459417 -0.144157 -0.370278
0.199026 -0.143889 -0.197128
0.203865 -0.121612 -0.382582
0.0344741 -0.142432 -0.370296
0.205034 -0.204607 0.365475
0.194462 -0.203851 0.348552
0.199069 -0.143912 -0.169894
0.164109 -0.124879 -0.370093
0.0048514 -0.14268 -0.370343
0.199113 -0.143935 -0.141427
-0.0262129 -0.14294 -0.370391
0.19916 -0.143959 -0.111642
0.203914 -0.117378 -0.349575
-0.045588 -0.141798 -0.370422
-0.0723327 -0.144656 -0.370464
0.19921 -0.143985 -0.0804434
0.164282 -0.123758 -0.303493
0.12474 -0.123758 -0.342109
0.115623 -0.121708 -0.370164
-0.0931095 -0.1435 -0.370496
-0.187966 -0.155664 -0.349524
0.199261 -0.144012 -0.0477291
0.19893 -0.122241 -0.256306
0.192023 -0.118714 -0.296791
0.163644 -0.123758 -0.276257
0.101839 -0.123759 -0.33662
0.0897697 -0.12148 -0.370204
0.0571935 -0.124801 -0.370256
-0.107319 -0.141572 -0.370519
-0.129192 -0.143802 -0.370553
-0.199789 -0.149871 -0.381453
0.199313 -0.14404 -0.0133849
0.199296 -0.142855 -0.0250214
0.199018 -0.124873 -0.201552
0.198969 -0.121806 -0.231655
0.162976 -0.123758 -0.247676
0.141141 -0.123758 -0.269008
0.0909122 -0.123758 -0.318064
0.066884 -0.12376 -0.341522
-0.159451 -0.143347 -0.3706
0.205048 -0.178571 0.374985
0.194462 -0.176969 0.348552
0.199369 -0.14407 0.0227128
0.199068 -0.124935 -0.169894
0.164512 -0.123759 -0.215461
0.135407 -0.123758 -0.243894
0.117497 -0.123758 -0.261391
0.0727135 -0.123759 -0.305128
0.0503165 -0.12376 -0.326993
0.0344629 -0.120992 -0.370289
-0.175076 -0.141324 -0.370623
0.199427 -0.144102 0.0607019
0.199398 -0.142239 0.0414618
0.163831 -0.123759 -0.183816
0.147752 -0.123759 -0.199524
0.13397 -0.123759 -0.212988
0.117892 -0.123758 -0.228696
0.101813 -0.123758 -0.244404
0.203871 -0.101 -0.379374
0.0535693 -0.123759 -0.29152
0.037484 -0.12376 -0.307223
0.0213986 -0.12376 -0.322926
0.00531304 -0.123761 -0.33863
-0.0326201 -0.124274 -0.370395
0.199489 -0.144135 0.100734
0.199128 -0.122216 -0.131649
0.163114 -0.12376 -0.150483
0.14189 -0.123759 -0.171218
0.125382 -0.123759 -0.187345
0.111233 -0.123759 -0.201168
0.0876511 -0.123758 -0.224206
0.0735022 -0.123758 -0.238029
0.0334039 -0.123759 -0.277186
0.00745279 -0.12376 -0.30252
-0.0137804 -0.123761 -0.323249
-0.0302953 -0.123762 -0.339371
-0.0456026 -0.122242 -0.370414
-0.0723465 -0.124706 -0.370456
0.205033 -0.164136 0.365476
0.194462 -0.163529 0.348552
0.199555 -0.14417 0.142979
0.199522 -0.142204 0.121568
0.199176 -0.121734 -0.101404
0.16478 -0.12376 -0.112957
0.14782 -0.12376 -0.129526
0.133283 -0.12376 -0.143728
0.118746 -0.123759 -0.157929
0.101786 -0.123759 -0.174498
0.082404 -0.123759 -0.193434
0.0654446 -0.123758 -0.210002
0.203895 -0.0972545 -0.363026
0.0121337 -0.123759 -0.262067
-0.00483322 -0.12376 -0.27863
-0.0242244 -0.123761 -0.29756
-0.0411918 -0.123762 -0.314124
-0.0557354 -0.123762 -0.328321
-0.204583 -0.132103 -0.383
0.199625 -0.144206 0.187626
0.199601 -0.142853 0.172464
0.199227 -0.121228 -0.0697126
0.164049 -0.123761 -0.0757493
0.136647 -0.12376 -0.10252
0.119209 -0.12376 -0.119555
0.104263 -0.12376 -0.134158
0.0893166 -0.123759 -0.148759
0.0743703 -0.123759 -0.163361
0.059424 -0.123759 -0.177963
0.0444779 -0.123759 -0.192565
0.0270408 -0.123758 -0.2096
-0.0103351 -0.123759 -0.246096
-0.0277801 -0.12376 -0.263126
-0.0477176 -0.123761 -0.282589
-0.0651632 -0.123762 -0.299619
-0.0875935 -0.123763 -0.321515
-0.102547 -0.123764 -0.336113
-0.107338 -0.121106 -0.370509
0.199699 -0.144245 0.234886
0.199661 -0.142165 0.210915
0.199278 -0.120698 -0.036468
0.163303 -0.123756 -0.036418
0.135079 -0.123761 -0.0639312
0.119699 -0.123761 -0.0789567
0.10432 -0.12376 -0.0939822
0.08894 -0.12376 -0.109007
0.0735604 -0.12376 -0.124033
0.0581809 -0.123759 -0.139058
0.0428014 -0.123759 -0.154083
0.0274221 -0.123759 -0.169108
0.0069164 -0.123758 -0.189141
-0.0341064 -0.123759 -0.229199
-0.0546218 -0.12376 -0.249226
-0.072573 -0.123761 -0.266749
-0.0879599 -0.123762 -0.28177
-0.103347 -0.123763 -0.29679
-0.118734 -0.123764 -0.311811
-0.134122 -0.123764 -0.326832
-0.149509 -0.123765 -0.341853
-0.144184 -0.120818 -0.370565
-0.183033 -0.12411 -0.370627
0.199777 -0.144286 0.284996
0.199737 -0.142144 0.259569
0.199417 -0.124842 0.0542327
0.199341 -0.120646 0.00443643
0.16513 -0.123756 0.00786626
0.149287 -0.123756 -0.00760186
0.133444 -0.123757 -0.0230702
0.117602 -0.123757 -0.0385386
0.101759 -0.123758 -0.0540072
0.0806216 -0.12376 -0.0746186
0.0621431 -0.12376 -0.0926715
0.041025 -0.12376 -0.113303
0.0199069 -0.123759 -0.133935
0.00406855 -0.123759 -0.149408
-0.019689 -0.123759 -0.172619
-0.059297 -0.12376 -0.211293
-0.0830659 -0.123761 -0.234496
-0.101553 -0.123762 -0.252542
-0.1174 -0.123762 -0.268011
-0.143811 -0.123764 -0.293793
-0.16494 -0.123765 -0.314418
-0.180787 -0.123766 -0.329888
0.199845 -0.143586 0.329121
0.199818 -0.142122 0.311201
0.199489 -0.124917 0.100734
0.164347 -0.123755 0.052218
0.139852 -0.123756 0.0283021
0.123522 -0.123756 0.0123581
0.0963047 -0.123757 -0.0142157
0.0772526 -0.123758 -0.0328177
0.0554783 -0.123758 -0.0540771
0.0391392 -0.12376 -0.0700137
0.0200922 -0.12376 -0.088622
0.00376648 -0.12376 -0.104572
-0.0125592 -0.123759 -0.120522
-0.028885 -0.123759 -0.136472
-0.0452106 -0.123759 -0.152421
-0.0860378 -0.12376 -0.192285
-0.0996493 -0.123761 -0.205572
-0.118705 -0.123761 -0.224174
-0.137762 -0.123762 -0.242776
-0.159541 -0.123763 -0.264035
-0.175876 -0.123764 -0.27998
-0.191182 -0.123303 -0.300564
-0.191259 -0.11943 -0.347941
0.205046 -0.142405 0.374989
0.199566 -0.124996 0.150248
0.199245 -0.11898 0.0741101
0.163479 -0.123761 0.0994363
0.146634 -0.123761 0.0829806
0.129785 -0.123762 0.0665293
0.112974 -0.123755 0.0500295
0.0905044 -0.123757 0.028102
0.0736557 -0.123757 0.0116515
0.0483819 -0.123758 -0.0130242
0.0315326 -0.123759 -0.029475
0.00625843 -0.123759 -0.0541513
-0.00497693 -0.12376 -0.0651165
-0.0246283 -0.12376 -0.0843155
-0.0442797 -0.123759 -0.103514
-0.0611236 -0.123759 -0.119971
0.203866 -0.0823824 -0.382583
-0.114476 -0.12376 -0.172071
-0.12852 -0.123761 -0.185779
-0.150991 -0.123762 -0.207713
-0.167844 -0.123763 -0.224164
-0.179079 -0.123763 -0.235131
-0.191124 -0.122488 -0.262962
-0.197981 -0.118713 -0.317237
0.199636 -0.124486 0.195316
0.162582 -0.123763 0.149714
0.142288 -0.123762 0.129882
0.124893 -0.123761 0.112882
0.101691 -0.123762 0.0902283
0.0755883 -0.123763 0.0647421
0.0553319 -0.123756 0.0448664
0.0350251 -0.123757 0.0250511
0.0147179 -0.123759 0.00523531
-0.00268412 -0.123759 -0.0117546
-0.0200861 -0.12376 -0.0287449
-0.0432891 -0.12376 -0.0513988
-0.0577847 -0.12376 -0.0655633
-0.0751808 -0.12376 -0.0825592
-0.0925769 -0.123759 -0.099555
-0.147681 -0.12376 -0.153362
-0.167988 -0.123761 -0.173183
-0.188294 -0.123762 -0.193004
-0.191033 -0.12303 -0.205217
-0.200685 -0.109963 -0.384714
0.199873 -0.13169 0.347417
0.199698 -0.12334 0.234888
0.164621 -0.123764 0.206332
0.149634 -0.123764 0.191685
0.134646 -0.123763 0.177038
0.119659 -0.123762 0.162391
0.101674 -0.123762 0.144815
0.0776887 -0.123762 0.12139
0.0626958 -0.123762 0.106751
0.0477027 -0.123763 0.0921119
0.0327097 -0.123763 0.0774729
0.0147769 -0.123754 0.0598398
-0.00321919 -0.123756 0.04228
-0.0152169 -0.123757 0.0305732
-0.0332137 -0.123758 0.0130128
-0.0482112 -0.123759 -0.00162148
-0.0632091 -0.12376 -0.0162557
-0.0782042 -0.123761 -0.030893
-0.0931979 -0.123761 -0.0455318
-0.108192 -0.123762 -0.0601707
-0.132158 -0.123759 -0.0836124
-0.180138 -0.123761 -0.130457
-0.190942 -0.123245 -0.147948
-0.190981 -0.121438 -0.172299
0.199736 -0.120929 0.259572
0.163701 -0.123766 0.263892
0.141982 -0.123765 0.242666
0.120263 -0.123764 0.22144
0.101647 -0.123763 0.203247
0.079929 -0.123763 0.182022
0.0644162 -0.123762 0.166861
0.0488986 -0.123762 0.151707
0.0333795 -0.123763 0.136555
0.0178603 -0.123763 0.121402
0.00234103 -0.123763 0.10625
-0.0131783 -0.123764 0.0910971
-0.0286979 -0.123764 0.0759442
-0.0503559 -0.123755 0.0546588
-0.0689842 -0.123756 0.0364827
-0.087613 -0.123758 0.0183061
-0.103137 -0.123759 0.00315863
-0.118662 -0.12376 -0.0119891
-0.134187 -0.123761 -0.0271369
-0.149712 -0.123762 -0.0422853
-0.165234 -0.123763 -0.057436
0.203909 -0.0766594 -0.35297
0.205032 -0.123664 0.36548
0.199816 -0.120257 0.311204
0.192242 -0.118709 0.281463
0.162714 -0.123767 0.325639
0.146636 -0.123767 0.309926
0.127343 -0.123766 0.29107
0.111265 -0.123765 0.275357
0.091972 -0.123765 0.256502
0.0694638 -0.123764 0.234505
0.0501713 -0.123763 0.21565
0.0308791 -0.123762 0.196795
0.0115813 -0.123762 0.177948
-0.00450218 -0.123763 0.162245
-0.020586 -0.123763 0.146542
-0.0398866 -0.123764 0.127697
-0.0624043 -0.123764 0.105712
-0.0784885 -0.123765 0.0900086
-0.0977896 -0.123765 0.0711639
-0.123444 -0.123755 0.0459615
-0.14275 -0.123757 0.0271241
-0.155622 -0.123758 0.0145658
-0.184583 -0.12376 -0.0136914
-0.190745 -0.12333 -0.0259144
-0.187973 -0.100461 -0.353325
0.177538 -0.120736 0.362119
0.157567 -0.122036 0.362087
0.137161 -0.123364 0.362054
0.124946 -0.123768 0.356174
0.104924 -0.123767 0.336607
0.0849031 -0.123766 0.317039
0.0648821 -0.123765 0.297472
0.0481982 -0.123765 0.281166
0.0315143 -0.123764 0.264861
0.011494 -0.123763 0.245294
-0.00852609 -0.123763 0.225728
-0.0285527 -0.123763 0.20617
-0.0485817 -0.123763 0.186615
-0.0686106 -0.123764 0.16706
-0.08864 -0.123764 0.147505
-0.105331 -0.123765 0.131209
-0.125361 -0.123765 0.111653
-0.145391 -0.123766 0.0920971
-0.165421 -0.123767 0.0725411
-0.188691 -0.123755 0.0496395
-0.190663 -0.122363 0.0268669
-0.19068 -0.121564 0.0148683
0.0949852 -0.121351 0.36199
0.0731863 -0.122716 0.361955
0.0495378 -0.123767 0.355212
0.0321993 -0.123766 0.338267
0.0148613 -0.123765 0.321321
-0.00594437 -0.123765 0.300987
-0.0302172 -0.123764 0.277264
-0.0475546 -0.123763 0.260319
-0.0683658 -0.123763 0.239993
-0.0891802 -0.123764 0.219671
-0.109995 -0.123764 0.199349
-0.127341 -0.123765 0.182414
-0.155094 -0.123765 0.155318
-0.17591 -0.123766 0.134995
-0.190538 -0.123006 0.108871
-0.190568 -0.121751 0.0893031
-0.188013 -0.0917187 -0.375723
0.0280808 -0.120619 0.361886
0.010627 -0.121669 0.361858
-0.0131231 -0.123098 0.36182
-0.0356339 -0.123766 0.350645
-0.0608973 -0.123765 0.325953
-0.0753335 -0.123764 0.311843
-0.0933784 -0.123763 0.294206
-0.107818 -0.123763 0.280102
-0.125872 -0.123764 0.262476
-0.143926 -0.123764 0.24485
-0.16198 -0.123765 0.227224
-0.180034 -0.123765 0.209597
-0.190412 -0.123265 0.191349
-0.190455 -0.121523 0.163079
-0.0623409 -0.120915 0.361745
-0.0814126 -0.122016 0.361714
-0.100835 -0.123138 0.361683
-0.12429 -0.123765 0.349366
-0.13934 -0.123764 0.334656
-0.165686 -0.123764 0.308924
-0.184508 -0.123765 0.290548
-0.190297 -0.122628 0.2657
-0.190321 -0.121723 0.250392
0.203881 -0.0620324 -0.372896
0.20506 -0.102262 0.3846
0.193018 -0.101042 0.351315
-0.147575 -0.120481 0.361612
-0.168239 -0.121623 0.361579
-0.18687 -0.122013 0.350249
-0.1902 -0.121009 0.329284
-0.187973 -0.0821955 -0.353325
0.205018 -0.0961739 0.35607
-0.186842 -0.117963 0.375624
0.194111 -0.0564382 -0.388253
-0.202597 -0.073861 -0.38752
0.205032 -0.0831922 0.36548
-0.186842 -0.101503 0.375624
-0.18732 -0.100367 0.350782
0.196941 -0.0784967 0.353073
-0.18798 -0.0601198 -0.357107
-0.188381 -0.0841805 0.352037
0.203895 -0.0412998 -0.363027
0.203866 -0.0405373 -0.382583
0.205018 -0.0648614 0.35607
-0.186842 -0.0795561 0.375624
-0.188013 -0.0521538 -0.375723
0.20506 -0.0613571 0.384599
-0.186829 -0.0633447 0.384211
-0.189798 -0.0625452 0.353714
-0.187979 -0.0419017 -0.357107
0.205061 -0.0386322 0.384599
0.195321 -0.0382277 0.356197
0.203881 -0.0224372 -0.372896
-0.188013 -0.0305729 -0.375723
-0.186828 -0.0413117 0.384211
-0.198328 -0.0409791 0.355374
0.193965 -0.0170149 -0.391315
0.205032 -0.0247328 0.365479
0.194599 -0.020262 0.357591
-0.186851 -0.0245933 0.3671
-0.187986 -0.0163537 -0.360869
-0.188031 -0.0124925 -0.386665
0.205061 -0.0022725 0.384598
0.193874 -0.002254 0.358989
-0.186851 -0.00273261 0.3671
0.203901 -0.00133645 -0.359696
0.203872 -0.0013117 -0.379375
-0.187999 -0.00180771 -0.368334
-0.186812 0.00276501 0.392861
-0.188037 0.00890053 -0.390276
0.205078 0.0159928 0.394307
0.205032 0.015739 0.365479
0.192966 0.0203158 0.36074
-0.186811 0.0248849 0.392861
-0.186851 0.0245933 0.3671
-0.187999 0.0198847 -0.368334
-0.186811 0.0359448 0.39286
-0.186851 0.0355237 0.3671
0.203896 0.0199838 -0.363028
0.203866 0.0196148 -0.382583
0.205061 0.0386322 0.384598
0.197091 0.0383181 0.362144
-0.188042 0.030185 -0.393868
-0.186827 0.0578363 0.384209
-0.197668 0.0575561 0.363026
-0.187992 0.0380599 -0.364611
0.205032 0.0562109 0.365479
0.19496 0.0325691 -0.395164
-0.188012 0.0485569 -0.375723
0.205078 0.066256 0.394307
-0.186827 0.0798692 0.384209
-0.199113 0.0795963 0.364736
0.203896 0.0386352 -0.363028
0.203866 0.037922 -0.382583
-0.205076 0.0519745 -0.397297
-0.187992 0.0598084 -0.364611
0.205046 0.0791139 0.374989
-0.18681 0.0967745 0.392859
-0.186851 0.0956407 0.3671
0.203844 0.0477953 -0.395222
-0.188018 0.069958 -0.379389
-0.193587 0.0692803 -0.398624
0.205079 0.0936722 0.394306
0.204415 0.0967813 0.366697
-0.186793 0.119366 0.401578
-0.186842 0.117963 0.375624
0.203892 0.0597638 -0.366338
-0.187998 0.088577 -0.368335
0.205079 0.116519 0.394306
-0.186793 0.141573 0.401578
-0.186842 0.139909 0.375624
-0.188035 0.0907852 -0.390276
0.205046 0.119801 0.374989
0.193827 0.120099 0.368492
0.203844 0.0684635 -0.395222
-0.205036 0.0983203 -0.400896
-0.186825 0.156984 0.384207
-0.111309 0.157652 0.392828
-0.132309 0.158615 0.385285
-0.152735 0.160096 0.385253
-0.166566 0.161098 0.385231
-0.191638 0.161365 0.364335
-0.191676 0.159503 0.339244
-0.191716 0.157684 0.314729
0.203892 0.078357 -0.366339
0.205096 0.140119 0.404119
0.205062 0.138621 0.384596
0.193096 0.138391 0.369911
-0.040464 0.157649 0.392434
-0.0605391 0.158615 0.385398
-0.0860863 0.160529 0.385358
-0.191753 0.161191 0.290764
-0.191789 0.159393 0.267333
-0.191813 0.158217 0.252002
-0.187998 0.110269 -0.368335
-0.188035 0.108586 -0.390276
0.0258642 0.15765 0.392091
0.0125729 0.158158 0.385514
-0.00522774 0.159535 0.385486
-0.191848 0.161616 0.229423
-0.191882 0.159866 0.207334
-0.191904 0.15872 0.192872
0.0880994 0.157653 0.391789
0.0697498 0.158614 0.385604
0.0472669 0.160409 0.385569
-0.150058 0.17448 0.3647
-0.16924 0.17448 0.345962
-0.191948 0.161444 0.16456
-0.191991 0.159194 0.137038
-0.192012 0.158093 0.123562
0.146622 0.157656 0.391505
0.134277 0.158184 0.385706
0.113238 0.159916 0.385673
-0.0841926 0.174481 0.365429
-0.0953582 0.174481 0.354522
-0.125133 0.17448 0.325436
-0.14002 0.17448 0.310893
-0.158629 0.17448 0.292714
-0.192042 0.161283 0.103695
-0.192073 0.159643 0.084232
-0.193054 0.157656 0.059723
0.205096 0.158495 0.404119
0.179986 0.159032 0.385778
-0.0185308 0.174482 0.369646
-0.0366008 0.174482 0.351994
-0.0546708 0.174481 0.334342
-0.0691268 0.174481 0.32022
-0.0908106 0.174481 0.299038
-0.10888 0.174481 0.281386
-0.130564 0.174481 0.260204
-0.14502 0.174481 0.246083
-0.16309 0.17448 0.228431
-0.19215 0.160068 0.0342141
-0.192187 0.157983 0.0101824
0.203844 0.0891317 -0.395222
0.205062 0.161346 0.384596
0.199898 0.159301 0.356686
0.196696 0.157651 0.335102
0.0364081 0.174483 0.366763
0.0153348 0.174482 0.346177
0.00479788 0.174482 0.335885
-0.0127631 0.174482 0.31873
-0.0303242 0.174482 0.301575
-0.0478852 0.174482 0.28442
-0.0654462 0.174482 0.267266
-0.0830071 0.174481 0.250111
-0.10408 0.174481 0.229526
-0.121641 0.174481 0.212371
-0.139202 0.174481 0.195216
-0.149738 0.174481 0.184924
-0.170811 0.174481 0.164338
-0.192223 0.160471 -0.0132312
-0.192258 0.158434 -0.0360503
-0.188005 0.128016 -0.372039
0.199841 0.160429 0.320097
0.199813 0.158801 0.30236
0.19188 0.157652 0.282114
0.0917531 0.174484 0.367376
0.0712569 0.174483 0.347354
0.0507608 0.174483 0.327332
0.0302646 0.174483 0.30731
0.00976855 0.174483 0.287288
-0.0107274 0.174483 0.267267
-0.0278074 0.174482 0.250582
-0.0483034 0.174482 0.23056
-0.0687992 0.174482 0.210539
-0.089295 0.174482 0.190517
-0.109791 0.174481 0.170495
-0.130287 0.174481 0.150474
-0.150782 0.174481 0.130453
-0.174694 0.174481 0.107094
-0.188035 0.129947 -0.390276
0.199746 0.159114 0.259553
0.196339 0.157652 0.240746
0.124197 0.174484 0.348467
0.100922 0.174484 0.325731
0.0809727 0.174484 0.306243
0.0610229 0.174484 0.286755
0.0410734 0.174483 0.267267
0.0244488 0.174483 0.251028
0.00449932 0.174483 0.23154
-0.0154502 0.174483 0.212052
-0.0353997 0.174483 0.192564
-0.0586739 0.174482 0.169828
-0.0786232 0.174482 0.150341
-0.0985724 0.174482 0.130853
-0.118522 0.174482 0.111366
-0.138471 0.174481 0.0918782
-0.15842 0.174481 0.0723907
0.203892 0.0996063 -0.366339
-0.194216 0.15765 -0.140741
0.205079 0.175921 0.394305
0.19967 0.158646 0.210901
0.191785 0.157652 0.192955
0.122564 0.174486 0.298915
0.0998915 0.174486 0.276772
0.0804582 0.174486 0.257792
0.0642638 0.174486 0.241976
0.0448304 0.174487 0.222996
0.022158 0.174487 0.200853
0.00272459 0.174487 0.181873
-0.0231869 0.174487 0.156566
-0.0426205 0.174487 0.137586
-0.0588151 0.174488 0.12177
-0.0782487 0.174488 0.10279
-0.10416 0.174488 0.0774828
-0.120355 0.174488 0.0616662
-0.139789 0.174488 0.042686
-0.162427 0.174482 0.020512
-0.192303 0.169138 -0.0637693
-0.192457 0.15966 -0.161652
-0.192487 0.157798 -0.180878
0.205046 0.178571 0.374989
0.19961 0.158946 0.17245
0.124173 0.174487 0.254948
0.0957613 0.174487 0.227199
0.0799769 0.174487 0.211782
0.0641923 0.174487 0.196366
0.0452508 0.174487 0.177867
0.029466 0.174488 0.162451
0.0136816 0.174488 0.147034
-0.00210303 0.174488 0.131618
-0.0178877 0.174488 0.116202
-0.0336725 0.174488 0.100786
-0.052614 0.174488 0.082286
-0.065242 0.174488 0.069953
-0.0841837 0.174488 0.0514535
-0.1031 0.174484 0.0329294
-0.118882 0.174484 0.0175118
-0.134665 0.174483 0.00209427
-0.150447 0.174483 -0.0133232
-0.169386 0.174483 -0.0318243
-0.192516 0.160031 -0.19966
-0.192545 0.158207 -0.218014
0.199872 0.180795 0.347419
0.199845 0.178931 0.329122
0.199575 0.160707 0.150235
0.19953 0.157786 0.121556
0.122625 0.174488 0.210144
0.097993 0.174488 0.186087
0.0825981 0.174488 0.171052
0.0579664 0.174488 0.146995
0.0425715 0.174488 0.131959
0.0148606 0.174488 0.104895
-0.0128505 0.174489 0.0778308
-0.0282454 0.174489 0.062795
-0.0497985 0.174489 0.041745
-0.0651732 0.174485 0.0266894
-0.0805662 0.174485 0.0116523
-0.0959593 0.174485 -0.00338477
-0.111352 0.174484 -0.0184218
-0.126744 0.174484 -0.0334597
-0.142166 0.174489 -0.0484725
-0.157558 0.174489 -0.063511
-0.17295 0.174488 -0.0785497
-0.19258 0.159934 -0.240376
-0.192607 0.158158 -0.257819
0.199816 0.181479 0.311203
0.199778 0.178743 0.284994
0.199497 0.159507 0.100722
0.193013 0.157654 0.0766625
0.124155 0.174488 0.170434
0.106127 0.174488 0.152826
0.0911028 0.174489 0.138153
0.0760788 0.174489 0.12348
0.0580501 0.174489 0.105871
0.0430261 0.174489 0.0911982
0.0219925 0.174489 0.0706553
-0.00204605 0.174489 0.0471777
-0.0170563 0.174486 0.0324898
-0.035083 0.174486 0.0148799
-0.0651246 0.174485 -0.0144724
-0.0831523 0.174485 -0.0320809
-0.0981988 0.17449 -0.0467345
-0.122233 0.174489 -0.0702162
-0.137254 0.174489 -0.0848922
0.203856 0.107872 -0.388941
-0.19264 0.159843 -0.279085
-0.192673 0.157683 -0.299777
-0.188005 0.149652 -0.372039
-0.188035 0.147748 -0.390277
0.199738 0.180332 0.259567
0.199702 0.177692 0.23488
0.199425 0.15838 0.0542222
0.12268 0.174489 0.129727
0.102141 0.174489 0.109668
0.0786685 0.174489 0.0867427
0.063998 0.174489 0.0724145
0.037591 0.17449 0.0466237
0.0229295 0.174488 0.0322855
-0.00347447 0.174487 0.00649196
-0.0152057 0.174486 -0.0049755
-0.0328095 0.174486 -0.0221698
-0.0504331 0.17449 -0.0393459
-0.0680347 0.17449 -0.0565429
-0.0915033 0.174489 -0.079472
-0.109105 0.174489 -0.0966688
-0.126705 0.174488 -0.113866
-0.170706 0.174487 -0.156858
-0.192704 0.15933 -0.319916
-0.195408 0.157653 -0.338221
0.205097 0.199841 0.404119
0.205063 0.197705 0.384595
0.199665 0.179251 0.21091
0.199375 0.158658 0.0227041
0.124139 0.17449 0.0936911
0.0954726 0.17449 0.0656936
0.0754059 0.17449 0.0460951
0.0610775 0.174489 0.0320905
0.0438792 0.174489 0.0152901
0.0266854 0.174487 -0.00151491
0.0123526 0.174487 -0.0155141
-0.0105957 0.174491 -0.0378975
-0.0277926 0.17449 -0.0546992
-0.0449896 0.17449 -0.0715009
-0.0621865 0.174489 -0.0883024
-0.0793833 0.174489 -0.105104
-0.099446 0.174488 -0.124705
-0.148167 0.174487 -0.17231
-0.165363 0.174486 -0.189111
-0.203071 0.154834 -0.405283
0.199617 0.179912 0.180002
0.199328 0.158925 -0.00750107
0.19156 0.157651 -0.0264474
0.12273 0.17449 0.0565377
0.105917 0.17449 0.0401165
0.0919075 0.17449 0.02643
0.0722986 0.174488 0.00726408
0.0498816 0.174488 -0.0146316
0.0302667 0.174489 -0.0337902
0.0134427 0.174491 -0.0502009
-0.00336778 0.17449 -0.0666252
-0.0201784 0.17449 -0.0830492
-0.0369889 0.174489 -0.0994732
-0.0594029 0.174489 -0.121372
-0.0762132 0.174488 -0.137795
0.203888 0.117831 -0.369629
-0.126642 0.174487 -0.187067
-0.149054 0.174486 -0.208966
-0.168664 0.174485 -0.228126
0.199582 0.181389 0.157578
0.19955 0.178892 0.135767
0.199265 0.157892 -0.0477343
0.124129 0.17449 0.0236879
0.104945 0.17449 0.00495017
0.0747989 0.17449 -0.0244949
0.0556062 0.174492 -0.0432234
0.0391649 0.174491 -0.0592867
0.0172431 0.17449 -0.0807042
0.000801861 0.17449 -0.0967671
-0.0211195 0.174489 -0.118184
-0.0375605 0.174489 -0.134247
-0.0567415 0.174488 -0.152987
-0.106062 0.174487 -0.201176
-0.122502 0.174486 -0.217238
-0.138942 0.174485 -0.233301
-0.158121 0.174485 -0.252041
-0.174561 0.174484 -0.268103
-0.146446 0.157649 -0.387521
0.199527 0.181162 0.12156
0.199497 0.178725 0.100722
0.19923 0.158791 -0.0697171
0.191501 0.15765 -0.0870034
0.12278 0.17449 -0.0103607
0.101326 0.17449 -0.0313148
0.085231 0.174492 -0.0470244
0.0691431 0.174491 -0.0627422
0.0530552 0.174491 -0.0784599
0.0262423 0.17449 -0.104656
0.0101548 0.17449 -0.120373
-0.008614 0.174489 -0.13871
-0.0300639 0.174488 -0.159667
-0.0890486 0.174486 -0.217297
-0.113178 0.174486 -0.240873
-0.129264 0.174485 -0.25659
-0.150713 0.174484 -0.277546
-0.166798 0.174484 -0.293263
-0.116191 0.157649 -0.387549
-0.201154 0.165199 -0.406085
0.199455 0.179352 0.0737996
0.197389 0.157653 -0.109561
0.124108 0.174492 -0.0404073
0.105734 0.174492 -0.0583588
0.0873597 0.174491 -0.07631
0.0716106 0.174491 -0.0916969
0.0558614 0.17449 -0.107084
0.0401124 0.17449 -0.12247
0.0269883 0.17449 -0.135292
0.0112393 0.174489 -0.150679
-0.00450933 0.174489 -0.166065
-0.0176333 0.174488 -0.178887
-0.070127 0.174486 -0.230175
-0.0884992 0.174486 -0.248126
-0.109496 0.174485 -0.268641
-0.127868 0.174484 -0.286591
-0.151489 0.174484 -0.30967
-0.167237 0.174483 -0.325056
-0.0872102 0.157649 -0.387577
-0.178907 0.167563 -0.39429
0.199425 0.18074 0.0542222
0.199385 0.17765 0.0289
0.199133 0.158065 -0.131655
0.115108 0.174492 -0.0792722
0.0919715 0.174491 -0.101876
0.076547 0.17449 -0.116946
0.0611226 0.17449 -0.132015
0.0456983 0.17449 -0.147084
0.0302742 0.174489 -0.162154
-0.0031448 0.174488 -0.194803
-0.0519856 0.174486 -0.242522
-0.0674089 0.174486 -0.257591
-0.0931138 0.174485 -0.282706
-0.113678 0.174484 -0.302798
-0.134241 0.174483 -0.322889
-0.0594246 0.157649 -0.387603
0.199346 0.178267 0.00442857
0.199103 0.158907 -0.151063
0.192557 0.157649 -0.167546
0.124104 0.174491 -0.0993405
0.101434 0.174491 -0.121488
0.0863215 0.17449 -0.136253
0.0712087 0.17449 -0.151018
0.0560961 0.174489 -0.165783
0.0409834 0.174489 -0.180547
0.0258709 0.174488 -0.195312
0.0107585 0.174488 -0.210077
0.203856 0.128666 -0.388941
-0.0345772 0.174486 -0.254371
-0.0547261 0.174486 -0.274057
-0.0748747 0.174485 -0.293743
-0.0925046 0.174484 -0.310968
-0.107616 0.174484 -0.325732
-0.0327617 0.157649 -0.387629
0.199309 0.178862 -0.0192338
0.195844 0.157652 -0.189349
0.122867 0.174491 -0.128263
0.0907711 0.17449 -0.15962
0.0611442 0.174489 -0.188564
0.0315176 0.174488 -0.217509
-0.0178583 0.174486 -0.26575
-0.0425455 0.174486 -0.28987
-0.0598266 0.174485 -0.306754
-0.0820448 0.174484 -0.328462
-0.00715476 0.157649 -0.387653
0.199273 0.179439 -0.0421258
0.19901 0.157653 -0.210313
0.1241 0.17449 -0.153696
0.109574 0.17449 -0.167887
0.0926269 0.174489 -0.184444
0.078101 0.174489 -0.198635
0.0635754 0.174489 -0.212826
0.0466287 0.174488 -0.229383
-0.00178856 0.174486 -0.276687
-0.0187342 0.174486 -0.293243
-0.0381006 0.174485 -0.312164
-0.0526252 0.174485 -0.326355
0.0196397 0.15765 -0.385536
-0.147254 0.177669 -0.39424
0.199246 0.18072 -0.0588118
0.199212 0.177863 -0.0804467
0.198976 0.157895 -0.231662
0.115786 0.17449 -0.187441
0.101536 0.174489 -0.201362
0.0872874 0.174489 -0.215283
0.0706635 0.174488 -0.231524
0.0564144 0.174488 -0.245444
0.203888 0.139014 -0.369629
-0.00295389 0.174486 -0.303448
-0.0195768 0.174485 -0.319689
0.0432719 0.15765 -0.385599
-0.124415 0.178173 -0.394204
-0.188023 0.187866 -0.383038
0.199179 0.178431 -0.101407
0.19895 0.158676 -0.248209
0.117104 0.174489 -0.210817
0.0868084 0.174488 -0.240415
0.0285485 0.174486 -0.297334
0.000584662 0.174485 -0.324655
0.0660208 0.15765 -0.385659
-0.0950924 0.177713 -0.394158
-0.188057 0.188552 -0.404537
0.199146 0.178981 -0.121724
0.198919 0.158893 -0.268261
0.12295 0.174489 -0.228865
0.0909224 0.174488 -0.260155
0.0268692 0.174486 -0.322734
0.0879349 0.15765 -0.385717
-0.0739049 0.178198 -0.394125
0.199114 0.179514 -0.141428
0.198888 0.159103 -0.287641
0.124092 0.174489 -0.250652
0.0903952 0.174488 -0.283573
0.0566993 0.174486 -0.316494
0.109059 0.15765 -0.385773
-0.0466664 0.177754 -0.394083
0.199084 0.180032 -0.160547
0.198853 0.158784 -0.31006
0.122987 0.174488 -0.273824
0.10754 0.174488 -0.288915
0.129436 0.157651 -0.385827
-0.0269584 0.178222 -0.394052
0.199054 0.180534 -0.179105
0.198825 0.158988 -0.328079
0.203845 0.148553 -0.395222
0.0828915 0.174486 -0.33432
0.149104 0.157651 -0.385879
-0.00158918 0.177792 -0.394012
0.199018 0.180371 -0.201552
0.198991 0.177813 -0.218939
0.198792 0.158683 -0.348949
0.0167893 0.178243 -0.393983
0.198958 0.177702 -0.239988
0.0404752 0.177828 -0.393946
0.198926 0.177596 -0.260317
0.203884 0.1597 -0.372898
0.0576543 0.178264 -0.393919
0.0798191 0.177862 -0.393885
0.198893 0.180379 -0.279961
0.165549 0.167591 -0.393753
0.0959123 0.178283 -0.39386
0.198863 0.180231 -0.298955
0.116698 0.177893 -0.393827
0.198828 0.179504 -0.320935
0.136756 0.177516 -0.393798
0.1988 0.179375 -0.338607
0.203845 0.169221 -0.395222
0.198768 0.178689 -0.359083
0.203867 0.179149 -0.382584
0.203845 0.189889 -0.395222
0.203879 0.198678 -0.376147
