ply
format ascii 1.0
comment Created by Open3D
element vertex 1594
property double x
property double y
property double z
end_header
0.187115 -0.0684347 -0.272945
0.182185 -0.0684332 -0.283874
0.145402 -0.0704456 -0.316514
0.0689623 -0.0764067 -0.341348
0.0602072 -0.0771274 -0.343278
0.0512854 -0.0778617 -0.345244
0.279434 -0.0771953 0.21057
0.29118 -0.0755375 0.195004
0.309911 -0.0724338 0.158658
0.323822 -0.0701287 0.131664
0.336202 -0.0674172 0.0911099
0.311607 -0.0684349 0.0622548
0.306477 -0.0684354 0.0509344
0.302352 -0.0684383 0.0418942
0.297256 -0.0684349 0.0305482
0.293159 -0.0684346 0.021487
0.289057 -0.0684348 0.0124291
0.28393 -0.068435 0.00110665
0.279828 -0.0684352 -0.00795138
0.274688 -0.0684369 -0.019266
0.270584 -0.0684373 -0.0283229
0.265455 -0.0684377 -0.0396453
0.261352 -0.068438 -0.0487033
0.257249 -0.0684383 -0.0577612
0.252121 -0.0684386 -0.0690843
0.248022 -0.0684384 -0.0781447
0.242899 -0.0684381 -0.0894702
0.2388 -0.068438 -0.0985305
0.234702 -0.0684378 -0.107591
0.229578 -0.0684375 -0.118916
0.22548 -0.0684374 -0.127976
0.220357 -0.0684371 -0.139301
0.216258 -0.0684369 -0.148361
0.211126 -0.0684377 -0.159683
0.207021 -0.0684381 -0.168741
0.202917 -0.0684385 -0.177799
0.197786 -0.0684391 -0.189122
0.193681 -0.0684395 -0.198181
0.188551 -0.06844 -0.209504
0.184446 -0.0684404 -0.218562
0.180358 -0.0684392 -0.227625
0.175244 -0.0684381 -0.238952
0.171152 -0.0684372 -0.248014
0.166034 -0.0684365 -0.259339
0.161946 -0.0684354 -0.268401
0.156838 -0.0684338 -0.279728
0.152747 -0.0684329 -0.288788
0.148649 -0.0684326 -0.297847
0.110393 -0.0704353 -0.332216
0.0859908 -0.0723734 -0.337595
0.0421927 -0.0758518 -0.347249
0.295053 -0.0721722 0.187488
0.313571 -0.0684377 0.131345
0.334493 -0.0654136 0.0989743
0.291255 -0.068435 0.0819695
0.285939 -0.0684348 0.0702167
0.281686 -0.0684346 0.0608144
0.277428 -0.0684349 0.0514152
0.273147 -0.0684378 0.0420334
0.267854 -0.068435 0.0302639
0.263603 -0.0684346 0.0208605
0.259346 -0.0684348 0.0114608
0.255089 -0.068435 0.0020611
0.249768 -0.0684353 -0.00968876
0.245502 -0.0684365 -0.0190828
0.241239 -0.0684374 -0.0284793
0.236981 -0.0684377 -0.037879
0.231658 -0.068438 -0.0496287
0.227397 -0.0684387 -0.0590269
0.223142 -0.0684387 -0.0684282
0.218888 -0.0684385 -0.0778306
0.213572 -0.0684383 -0.0895835
0.209319 -0.0684381 -0.0989857
0.205065 -0.0684379 -0.108388
0.200812 -0.0684377 -0.11779
0.195496 -0.0684375 -0.129543
0.191243 -0.0684373 -0.138945
0.18699 -0.0684371 -0.148347
0.182728 -0.0684378 -0.157746
0.177403 -0.0684384 -0.169495
0.173143 -0.0684388 -0.178895
0.168884 -0.0684392 -0.188295
0.164624 -0.0684397 -0.197696
0.159299 -0.0684402 -0.209446
0.155039 -0.0684407 -0.218847
0.150803 -0.0684388 -0.228253
0.146558 -0.0684379 -0.237657
0.141251 -0.0684368 -0.249411
0.137001 -0.0684364 -0.258813
0.132757 -0.0684354 -0.268216
0.128517 -0.068434 -0.277619
0.123209 -0.0684331 -0.289372
0.118956 -0.0684329 -0.298773
0.114706 -0.0684325 -0.308174
0.110457 -0.068432 -0.317575
0.0512859 -0.0723977 -0.345244
0.232094 -0.0773815 0.262635
0.298053 -0.0684347 0.166729
0.293625 -0.0684355 0.156965
0.289197 -0.0684362 0.147202
0.338721 -0.0618788 0.079515
0.340373 -0.0614622 0.0719146
0.342809 -0.0608479 0.0607039
0.336097 -0.0609393 0.0483437
0.268207 -0.0684347 0.100784
0.263783 -0.0684349 0.0910161
0.259363 -0.0684348 0.0812457
0.254943 -0.0684346 0.0714747
0.250523 -0.0684344 0.0617038
0.246099 -0.0684346 0.0519358
0.241652 -0.0684373 0.0421835
0.237241 -0.0684362 0.0324065
0.231728 -0.0684347 0.0201849
0.227304 -0.0684349 0.0104166
0.22288 -0.0684351 0.00064823
0.218451 -0.0684359 -0.00911668
0.214027 -0.0684362 -0.0188851
0.209592 -0.0684374 -0.028648
0.205167 -0.0684378 -0.0384163
0.200742 -0.0684381 -0.0481847
0.196313 -0.0684388 -0.0579514
0.191889 -0.0684389 -0.0677207
0.186365 -0.0684387 -0.0799346
0.181945 -0.0684385 -0.0897056
0.177525 -0.0684383 -0.0994766
0.173105 -0.0684381 -0.109248
0.168685 -0.0684379 -0.119018
0.164265 -0.0684377 -0.128789
0.159843 -0.0684377 -0.138559
0.155425 -0.0684373 -0.148331
0.150996 -0.068438 -0.158098
0.146568 -0.0684386 -0.167866
0.142141 -0.068439 -0.177635
0.136607 -0.0684396 -0.189846
0.13218 -0.06844 -0.199615
0.127753 -0.0684405 -0.209384
0.123326 -0.068441 -0.219153
0.118931 -0.0684385 -0.22893
0.11452 -0.0684376 -0.238702
0.110108 -0.0684366 -0.248474
0.10569 -0.0684363 -0.258245
0.101278 -0.0684354 -0.268016
0.0968726 -0.068434 -0.277788
0.0924597 -0.0684333 -0.287559
0.0869327 -0.0684333 -0.299771
0.0825167 -0.0684328 -0.309541
0.0781007 -0.0684323 -0.319311
0.10211 -0.0661983 -0.3266
0.102409 -0.0659007 -0.333977
0.280114 -0.0684321 0.202462
0.275509 -0.0684325 0.192296
0.2709 -0.0684332 0.182135
0.266291 -0.0684339 0.171973
0.244398 -0.0684375 0.123701
0.240946 -0.0684376 0.116075
0.236363 -0.0684355 0.10589
0.23177 -0.0684345 0.0957148
0.227167 -0.0684346 0.0855477
0.222566 -0.0684344 0.0753779
0.217966 -0.0684342 0.0652081
0.213366 -0.068434 0.0550385
0.209904 -0.0684351 0.0474195
0.205269 -0.0684384 0.037272
0.200704 -0.0684346 0.0270795
0.1961 -0.0684348 0.0169125
0.191496 -0.068435 0.00674531
0.186891 -0.0684352 -0.00342178
0.182293 -0.0684348 -0.0135925
0.177665 -0.0684374 -0.0237468
0.173059 -0.0684377 -0.0339139
0.168453 -0.068438 -0.044081
0.163846 -0.0684384 -0.0542477
0.159236 -0.0684392 -0.0644128
0.154636 -0.068439 -0.0745829
0.150035 -0.0684388 -0.0847528
0.145435 -0.0684386 -0.0949227
0.141985 -0.0684384 -0.10255
0.137385 -0.0684382 -0.11272
0.132785 -0.068438 -0.12289
0.128185 -0.0684378 -0.133059
0.123589 -0.0684372 -0.14323
0.118979 -0.0684379 -0.153396
0.114368 -0.0684386 -0.163563
0.10976 -0.0684391 -0.17373
0.105152 -0.0684396 -0.183897
0.100544 -0.0684401 -0.194065
0.0959359 -0.0684405 -0.204233
0.091328 -0.068441 -0.214401
0.0867441 -0.0684394 -0.224574
0.0821619 -0.0684377 -0.234747
0.0775709 -0.0684367 -0.244918
0.0741254 -0.0684361 -0.252546
0.0695229 -0.0684362 -0.262715
0.0649378 -0.0684347 -0.272886
0.0603508 -0.0684334 -0.283056
0.0557476 -0.0684335 -0.293224
0.051146 -0.0684335 -0.303393
0.0465502 -0.068433 -0.313561
0.0689626 -0.065683 -0.341348
0.0602097 -0.0663023 -0.343278
0.0315796 -0.0684341 -0.346607
0.256994 -0.0684356 0.23334
0.253403 -0.0684348 0.225381
0.249811 -0.068434 0.217424
0.245023 -0.0684329 0.206813
0.240237 -0.0684317 0.196202
0.218612 -0.0684352 0.148527
0.215008 -0.0684358 0.140581
0.210203 -0.0684366 0.129986
0.2066 -0.068437 0.122038
0.201801 -0.0684371 0.111437
0.19703 -0.0684343 0.100816
0.192233 -0.0684342 0.0902143
0.188634 -0.0684343 0.0822638
0.183838 -0.0684341 0.0716614
0.179042 -0.0684338 0.0610589
0.174238 -0.0684344 0.0504618
0.169414 -0.068437 0.0398772
0.16582 -0.0684365 0.0319234
0.16104 -0.0684348 0.0213112
0.15624 -0.068435 0.0107115
0.151439 -0.0684352 0.000111729
0.147859 -0.0684335 -0.00784859
0.143035 -0.0684359 -0.0184363
0.138219 -0.0684376 -0.0290284
0.133417 -0.068438 -0.0396281
0.129815 -0.0684382 -0.0475779
0.125004 -0.0684394 -0.0581736
0.120206 -0.0684393 -0.0687757
0.11541 -0.0684391 -0.0793785
0.110614 -0.0684389 -0.0899811
0.107017 -0.0684387 -0.0979331
0.102221 -0.0684385 -0.108536
0.0974255 -0.0684383 -0.119138
0.0926299 -0.0684381 -0.129741
0.089039 -0.0684374 -0.137694
0.0842363 -0.0684378 -0.148294
0.0794295 -0.0684385 -0.158893
0.0746226 -0.0684392 -0.169493
0.0698184 -0.0684397 -0.180093
0.0662151 -0.0684401 -0.188043
0.0614108 -0.0684406 -0.198643
0.0566064 -0.0684411 -0.209244
0.0518151 -0.0684405 -0.219848
0.0482434 -0.0684383 -0.227805
0.0434607 -0.068437 -0.238409
0.0386745 -0.068436 -0.249013
0.0338756 -0.0684361 -0.259614
0.0302845 -0.0684355 -0.267566
0.0255052 -0.068434 -0.27817
0.0207099 -0.0684337 -0.288771
0.0159107 -0.0684338 -0.299372
0.0111158 -0.0684336 -0.309973
0.0859917 -0.0618463 -0.337595
-0.00446117 -0.0684323 -0.344427
0.226848 -0.0684347 0.255849
0.221829 -0.0684356 0.244785
0.218065 -0.0684362 0.236486
0.213063 -0.0684352 0.225404
0.209313 -0.0684343 0.217093
0.336198 -0.05516 0.0911142
0.189282 -0.0684329 0.172793
0.186772 -0.0684334 0.16726
0.181753 -0.0684342 0.156195
0.176733 -0.068435 0.145129
0.172968 -0.0684356 0.13683
0.167949 -0.0684363 0.125763
0.16419 -0.0684364 0.117459
0.159177 -0.0684365 0.106388
0.154202 -0.0684331 0.0952902
0.150435 -0.0684339 0.0869924
0.145424 -0.0684338 0.0759197
0.140416 -0.0684336 0.0648461
0.136659 -0.0684334 0.056541
0.131632 -0.0684349 0.0454782
0.127848 -0.0684372 0.0371892
0.122864 -0.0684347 0.0261009
0.11785 -0.068435 0.0150301
0.11409 -0.0684351 0.00672698
0.109077 -0.0684353 -0.00434422
0.105325 -0.0684346 -0.0126522
0.10028 -0.0684376 -0.023708
0.0952656 -0.0684379 -0.0347793
0.0915039 -0.0684382 -0.0430824
0.0864828 -0.068439 -0.0541511
0.0814632 -0.0684397 -0.0652206
0.0777068 -0.0684395 -0.0735263
0.0726976 -0.0684393 -0.0846002
0.068941 -0.0684391 -0.0929057
0.0639321 -0.0684389 -0.10398
0.0589232 -0.0684386 -0.115053
0.0551666 -0.0684385 -0.123359
0.0501609 -0.068438 -0.134433
0.0464061 -0.0684377 -0.142739
0.0413854 -0.0684384 -0.153809
0.0363643 -0.0684392 -0.164879
0.0325985 -0.0684398 -0.173182
0.0275804 -0.0684403 -0.184253
0.0238166 -0.0684407 -0.192557
0.0187986 -0.0684412 -0.203629
0.0137802 -0.0684417 -0.214701
0.0100509 -0.0684394 -0.223012
0.00506872 -0.0684371 -0.23409
7.08103e-05 -0.068436 -0.245165
-0.00368637 -0.0684359 -0.25347
-0.00869775 -0.0684359 -0.264542
-0.0124407 -0.0684347 -0.272848
-0.0174422 -0.068434 -0.283922
-0.022455 -0.0684341 -0.294994
-0.0262144 -0.0684341 -0.303298
0.0512968 -0.0614689 -0.345245
-0.0437092 -0.0684308 -0.342053
0.196491 -0.0684369 0.286276
0.191267 -0.0684348 0.274668
0.187333 -0.0684349 0.265979
0.183393 -0.0684356 0.257295
0.17814 -0.0684364 0.245715
0.338718 -0.0521726 0.0795175
0.34037 -0.0518213 0.0719165
0.342807 -0.0513033 0.0607051
0.336305 -0.0515475 0.0541599
0.157202 -0.0684326 0.199332
0.153282 -0.0684314 0.190631
0.149345 -0.0684317 0.181945
0.144092 -0.0684326 0.170365
0.140152 -0.0684332 0.16168
0.134898 -0.0684341 0.1501
0.130958 -0.0684347 0.141415
0.125704 -0.0684356 0.129834
0.121769 -0.0684357 0.121145
0.117835 -0.0684358 0.112455
0.112589 -0.0684359 0.100868
0.108691 -0.0684328 0.092155
0.103437 -0.0684336 0.0805742
0.0995064 -0.0684334 0.0718827
0.0942649 -0.0684332 0.0602941
0.0903248 -0.0684338 0.0516078
0.0850587 -0.0684357 0.0400328
0.0811102 -0.068437 0.0313505
0.0758895 -0.0684349 0.0197506
0.0719541 -0.0684351 0.0110612
0.0680185 -0.0684353 0.00237188
0.0627908 -0.0684339 -0.00922334
0.0588342 -0.0684358 -0.0179028
0.0535659 -0.0684378 -0.0294796
0.049629 -0.0684381 -0.0381688
0.0443775 -0.0684387 -0.0497538
0.0404264 -0.0684401 -0.0584375
0.0351849 -0.0684398 -0.0700269
0.0312538 -0.0684396 -0.0787188
0.0260118 -0.0684394 -0.0903079
0.0220805 -0.0684392 -0.0989996
0.0181492 -0.0684391 -0.107691
0.0129076 -0.0684388 -0.11928
0.00897616 -0.0684386 -0.127972
0.00374317 -0.0684377 -0.139563
-0.000198007 -0.0684383 -0.148252
-0.00545299 -0.0684391 -0.159837
-0.00939423 -0.0684397 -0.168526
-0.0146487 -0.0684405 -0.180111
-0.0185876 -0.0684409 -0.188801
-0.0238396 -0.0684414 -0.200388
-0.0277786 -0.0684418 -0.209078
-0.031696 -0.0684406 -0.217773
-0.036897 -0.0684373 -0.229369
-0.040817 -0.0684363 -0.238062
-0.0460536 -0.0684357 -0.24965
-0.0499876 -0.0684358 -0.258341
-0.0552231 -0.0684351 -0.269929
-0.059144 -0.0684342 -0.278622
-0.0643898 -0.0684343 -0.290208
-0.0683242 -0.0684344 -0.298899
-0.0722585 -0.0684345 -0.307589
0.0924853 -0.056428 -0.328205
-0.0853344 -0.068432 -0.336559
0.159026 -0.068441 0.310577
0.154918 -0.0684394 0.301445
0.150809 -0.0684377 0.292314
0.145332 -0.0684356 0.28014
0.141216 -0.0684347 0.271017
0.121947 -0.0684364 0.228498
0.119204 -0.0684358 0.222417
0.113717 -0.0684346 0.210253
0.109606 -0.0684333 0.201128
0.105497 -0.0684319 0.192002
0.100004 -0.0684313 0.179845
0.0958711 -0.068432 0.170736
0.0917383 -0.0684326 0.161628
0.086228 -0.0684335 0.149483
0.0820951 -0.0684342 0.140374
0.0779622 -0.0684349 0.131265
0.0738356 -0.068435 0.122152
0.0683338 -0.0684351 0.11
0.0642072 -0.0684352 0.100887
0.0601027 -0.0684335 0.09176
0.0546061 -0.0684332 0.0796058
0.0504834 -0.068433 0.0704904
0.0463606 -0.0684328 0.0613751
0.0422287 -0.0684334 0.0522647
0.0367083 -0.0684351 0.0401231
0.0325567 -0.0684372 0.0310221
0.0284592 -0.068435 0.0218938
0.0229558 -0.0684352 0.00974283
0.0187948 -0.0684381 0.000645041
0.0147239 -0.0684338 -0.00849429
0.0105729 -0.0684358 -0.0175971
0.00504506 -0.0684379 -0.0297381
0.000916004 -0.0684382 -0.0388513
-0.00321615 -0.0684388 -0.0479634
-0.00873727 -0.0684403 -0.0601087
-0.01286 -0.0684401 -0.0692248
-0.0169828 -0.0684399 -0.0783407
-0.0224802 -0.0684397 -0.0904952
-0.0266032 -0.0684395 -0.0996109
-0.0307261 -0.0684393 -0.108727
-0.0348491 -0.0684391 -0.117842
-0.0403398 -0.0684384 -0.129998
-0.04446 -0.068438 -0.139115
-0.0485939 -0.0684386 -0.148227
-0.0541058 -0.0684395 -0.160377
-0.0582399 -0.0684401 -0.16949
-0.0623739 -0.0684407 -0.178603
-0.0665064 -0.0684412 -0.187717
-0.072015 -0.0684418 -0.199869
-0.0761464 -0.0684422 -0.208983
-0.0802436 -0.0684402 -0.218103
-0.0856959 -0.0684368 -0.230265
-0.0898072 -0.0684358 -0.239382
-0.0939294 -0.0684356 -0.248497
-0.0980552 -0.0684356 -0.257611
-0.103549 -0.0684351 -0.269765
-0.107665 -0.0684345 -0.27888
-0.111792 -0.0684346 -0.287994
-0.117293 -0.0684347 -0.300147
0.0689664 -0.054959 -0.341348
0.0602133 -0.0554772 -0.343278
0.113453 -0.0684387 0.327718
0.110523 -0.0684421 0.321365
0.106198 -0.068441 0.311771
0.0831079 -0.0684375 0.26063
0.0787628 -0.0684382 0.251055
0.0744209 -0.0684386 0.241477
0.0700994 -0.0684373 0.231882
0.0657743 -0.0684363 0.222291
0.0600083 -0.0684349 0.209503
0.0556887 -0.0684335 0.199909
0.051369 -0.0684321 0.190315
0.0470496 -0.0684307 0.180722
0.0427056 -0.0684313 0.171146
0.0383605 -0.068432 0.161571
0.0340154 -0.0684327 0.151995
0.0296702 -0.0684334 0.142419
0.0238792 -0.0684341 0.129649
0.0195411 -0.0684342 0.120068
0.0152028 -0.0684344 0.110488
0.0108649 -0.0684345 0.100907
0.00652909 -0.0684344 0.0913246
0.00221431 -0.0684327 0.081731
-0.00212228 -0.0684327 0.0721495
-0.00790089 -0.0684324 0.0593725
-0.012251 -0.0684334 0.0497979
-0.0166046 -0.0684347 0.0402247
-0.0209733 -0.0684372 0.0306582
-0.0252822 -0.0684351 0.0210633
-0.0296215 -0.0684353 0.0114826
-0.0339274 -0.0684329 0.00188738
-0.0382727 -0.0684336 -0.00769034
-0.0440936 -0.0684365 -0.0204499
-0.0484523 -0.0684381 -0.0300232
-0.0527933 -0.0684384 -0.0396038
-0.0571429 -0.0684393 -0.0491813
-0.0614992 -0.0684407 -0.0587567
-0.0658332 -0.0684405 -0.0683403
-0.0701674 -0.0684403 -0.0779238
-0.0745016 -0.0684401 -0.0875072
-0.0802807 -0.0684398 -0.100285
-0.0846149 -0.0684396 -0.109868
-0.0889471 -0.0684393 -0.119452
-0.0932683 -0.0684382 -0.129039
-0.0976077 -0.0684384 -0.13862
-0.101954 -0.068439 -0.1482
-0.106301 -0.0684397 -0.15778
-0.112096 -0.0684405 -0.170554
-0.116443 -0.0684412 -0.180134
-0.120788 -0.0684418 -0.189715
-0.125132 -0.0684422 -0.199296
-0.129473 -0.0684425 -0.208878
-0.13377 -0.0684398 -0.218468
-0.138067 -0.0684371 -0.228057
-0.14238 -0.0684355 -0.237643
-0.148161 -0.0684354 -0.250419
-0.152499 -0.0684355 -0.260001
-0.156831 -0.0684352 -0.269583
-0.161164 -0.0684349 -0.279165
-0.165502 -0.068435 -0.288747
-0.16984 -0.0684351 -0.298328
0.0859913 -0.0513193 -0.337595
0.0614783 -0.0684322 0.343301
0.336198 -0.0453538 0.0911142
0.0400759 -0.068438 0.296231
0.0355266 -0.0684362 0.286112
0.0309683 -0.0684352 0.276002
0.0263622 -0.068438 0.26593
0.0217777 -0.0684391 0.25584
0.0171971 -0.0684398 0.245746
0.0126432 -0.0684384 0.235633
0.0080874 -0.0684372 0.225522
0.00352895 -0.0684362 0.215413
-0.00102401 -0.0684348 0.2053
-0.00557584 -0.0684333 0.195188
-0.0101275 -0.0684318 0.185076
-0.0146793 -0.0684303 0.174964
-0.0192597 -0.068431 0.164871
-0.0238404 -0.0684318 0.154778
-0.0284212 -0.0684325 0.144685
-0.0330008 -0.0684332 0.134591
-0.0375735 -0.0684333 0.124492
-0.0421461 -0.0684334 0.114394
-0.0467188 -0.0684335 0.104295
-0.0512915 -0.0684337 0.0941966
-0.0543399 -0.0684337 0.0874642
-0.0588899 -0.0684322 0.077354
-0.0634596 -0.0684321 0.0672542
-0.0680304 -0.0684321 0.0571548
-0.0726203 -0.0684335 0.0470645
-0.0772105 -0.0684348 0.0369737
-0.0818015 -0.0684363 0.0268828
-0.0863584 -0.0684352 0.0167768
-0.0909662 -0.0684378 0.00669238
-0.0954642 -0.0684327 -0.00343737
-0.100068 -0.0684349 -0.013524
-0.104671 -0.0684372 -0.0236113
-0.109259 -0.0684383 -0.0337053
-0.113839 -0.068439 -0.0438022
-0.118436 -0.0684407 -0.0538937
-0.123011 -0.068441 -0.063993
-0.127579 -0.0684407 -0.0740946
-0.132148 -0.0684405 -0.0841962
-0.136716 -0.0684403 -0.0942976
-0.141284 -0.0684401 -0.104399
-0.145851 -0.0684397 -0.114501
-0.15041 -0.0684389 -0.124605
-0.154974 -0.0684385 -0.134707
-0.159556 -0.0684392 -0.144804
-0.164138 -0.0684398 -0.154902
-0.16872 -0.0684405 -0.165
-0.173302 -0.0684412 -0.175098
-0.177885 -0.0684419 -0.185197
-0.182466 -0.0684426 -0.195296
-0.187045 -0.068443 -0.205395
-0.191573 -0.0684403 -0.215503
-0.1961 -0.0684374 -0.225611
-0.200636 -0.0684352 -0.235716
-0.205207 -0.0684352 -0.245816
-0.208255 -0.0684352 -0.252549
-0.212827 -0.0684353 -0.262649
-0.217398 -0.0684352 -0.272748
0.338718 -0.042466 0.0795175
0.34037 -0.0421801 0.0719165
0.342807 -0.0417585 0.0607051
0.336305 -0.0419572 0.0541599
-0.00790626 -0.0684411 0.335926
-0.0127583 -0.0684425 0.325264
-0.0175648 -0.0684405 0.314565
-0.020774 -0.0684396 0.307437
-0.025584 -0.0684379 0.296742
-0.0303912 -0.0684359 0.286045
-0.0352301 -0.0684364 0.275373
-0.0401024 -0.0684394 0.264725
-0.0449505 -0.0684405 0.254058
-0.0481731 -0.0684406 0.24694
-0.0529857 -0.0684391 0.236249
-0.0578003 -0.0684378 0.22556
-0.0626168 -0.0684366 0.214872
-0.0674276 -0.0684351 0.204181
-0.0706345 -0.068434 0.197054
-0.0754448 -0.0684324 0.186364
-0.080255 -0.0684309 0.175674
-0.0850778 -0.0684302 0.164993
-0.0899208 -0.068431 0.154323
-0.0931497 -0.0684315 0.14721
-0.0979908 -0.0684322 0.136538
-0.102825 -0.0684323 0.125863
-0.107659 -0.0684324 0.115188
-0.112493 -0.0684325 0.104512
-0.115715 -0.0684326 0.0973952
-0.120549 -0.0684327 0.0867196
-0.125362 -0.0684314 0.0760337
-0.130197 -0.0684316 0.0653588
-0.135035 -0.068432 0.0546856
-0.139889 -0.0684335 0.0440186
-0.143125 -0.0684345 0.0369071
-0.147988 -0.0684365 0.0262429
-0.152803 -0.0684353 0.015559
-0.157567 -0.0684308 0.00485545
-0.162435 -0.0684332 -0.00580695
-0.165681 -0.0684348 -0.0129157
-0.17055 -0.0684372 -0.0235793
-0.175403 -0.0684385 -0.0342497
-0.180252 -0.0684396 -0.0449214
-0.185115 -0.0684415 -0.0555892
-0.188334 -0.0684414 -0.0627085
-0.193163 -0.0684411 -0.0733874
-0.197992 -0.0684409 -0.0840664
-0.202821 -0.0684407 -0.094745
-0.20765 -0.0684404 -0.105424
-0.210867 -0.0684401 -0.112544
-0.215677 -0.0684387 -0.123227
-0.220512 -0.0684388 -0.133904
-0.225356 -0.0684395 -0.144578
-0.230201 -0.0684403 -0.155253
-0.235046 -0.068441 -0.165928
-0.238276 -0.0684415 -0.173045
-0.24312 -0.0684422 -0.183721
-0.247965 -0.068443 -0.194397
-0.252795 -0.0684428 -0.205075
-0.257578 -0.0684398 -0.215761
-0.260766 -0.0684378 -0.222885
0.0913624 -0.0459953 -0.328106
0.0689659 -0.0469162 -0.341348
0.0602124 -0.0473586 -0.343278
-0.04354 -0.0666385 0.345199
-0.0452731 -0.0665238 0.336581
-0.0551748 -0.0669957 0.3344
-0.0652145 -0.067474 0.332186
-0.0753989 -0.0679593 0.32994
-0.0856072 -0.0684428 0.327568
-0.0889941 -0.0684407 0.319995
-0.0923969 -0.0684397 0.312435
-0.0975006 -0.0684382 0.301095
-0.1026 -0.0684363 0.289752
-0.106009 -0.0684358 0.282197
-0.111179 -0.0684389 0.270903
-0.116345 -0.0684417 0.259606
-0.119768 -0.0684421 0.252059
-0.124871 -0.0684405 0.24072
-0.129973 -0.0684389 0.229381
-0.133379 -0.0684381 0.221824
-0.138481 -0.0684366 0.210485
-0.143581 -0.0684349 0.199146
-0.146981 -0.0684338 0.191588
-0.152081 -0.0684321 0.18025
-0.157181 -0.0684304 0.168913
-0.160584 -0.0684296 0.161357
-0.165722 -0.0684304 0.15004
-0.169147 -0.068431 0.142496
-0.174274 -0.0684311 0.131174
-0.179401 -0.0684313 0.119852
-0.182819 -0.0684313 0.112304
-0.187946 -0.0684315 0.100981
-0.193073 -0.0684316 0.0896591
-0.196491 -0.0684317 0.0821107
-0.201605 -0.068431 0.0707826
-0.206729 -0.068431 0.0594592
-0.210162 -0.068432 0.0519171
-0.215312 -0.0684335 0.0406036
-0.220462 -0.0684351 0.0292895
-0.223883 -0.0684353 0.021742
-0.228917 -0.0684297 0.0103844
-0.234081 -0.0684321 -0.000924468
-0.237526 -0.0684338 -0.00846371
-0.242692 -0.0684364 -0.0197734
-0.247853 -0.0684385 -0.0310859
-0.251281 -0.0684392 -0.0386321
-0.256439 -0.0684411 -0.0499469
-0.261576 -0.0684418 -0.0612683
-0.264991 -0.0684417 -0.0688191
-0.270112 -0.0684414 -0.0801452
-0.273526 -0.0684412 -0.087696
-0.278647 -0.0684409 -0.0990223
-0.283787 -0.0684418 -0.110344
-0.287165 -0.0684395 -0.117903
-0.292282 -0.068439 -0.12923
-0.29742 -0.0684398 -0.140551
-0.300846 -0.0684403 -0.148099
-0.305986 -0.068441 -0.159421
-0.184124 -0.0684366 0.293935
-0.187754 -0.0684361 0.285893
-0.193262 -0.0684395 0.273872
-0.196935 -0.0684417 0.265856
-0.202414 -0.0684431 0.253815
-0.206035 -0.0684421 0.245767
-0.211465 -0.0684404 0.233696
-0.215085 -0.0684393 0.22565
-0.220514 -0.0684377 0.213579
-0.224133 -0.0684365 0.205532
-0.227751 -0.0684353 0.197486
-0.233178 -0.0684335 0.185416
-0.236796 -0.0684323 0.17737
-0.242222 -0.0684306 0.165301
-0.24584 -0.0684294 0.157256
-0.251301 -0.0684297 0.145205
-0.25494 -0.0684298 0.13717
-0.260398 -0.06843 0.125118
-0.264036 -0.0684301 0.117083
-0.269494 -0.0684302 0.10503
-0.273133 -0.0684303 0.0969951
-0.278591 -0.0684304 0.0849426
-0.282229 -0.0684305 0.0769075
-0.287681 -0.0684303 0.0648525
-0.291327 -0.0684308 0.0568202
-0.296811 -0.0684325 0.044777
-0.300467 -0.0684336 0.0367479
-0.305951 -0.0684352 0.0247038
-0.309665 -0.0684396 0.0166942
-0.314969 -0.0684309 0.00458783
-0.318638 -0.0684327 -0.00343749
-0.324141 -0.0684355 -0.0154765
-0.32781 -0.0684373 -0.023503
-0.333304 -0.0684394 -0.0355467
-0.336529 -0.0684162 -0.0437037
-0.334426 -0.0680941 -0.0533671
-0.332346 -0.0677753 -0.0629389
-0.329265 -0.0673027 -0.0771295
-0.327234 -0.0669912 -0.0864803
-0.325219 -0.0666826 -0.0957457
-0.327665 -0.0666219 -0.103844
0.0859905 -0.0407923 -0.337594
0.336198 -0.0355475 0.0911142
-0.0753989 -0.0597218 0.32994
-0.0857307 -0.0601544 0.327661
0.341188 -0.0324298 0.0681543
0.342807 -0.0322137 0.0607051
0.336305 -0.032367 0.0541599
-0.0549885 -0.0550006 0.3443
-0.0551748 -0.0548146 0.3344
-0.0652145 -0.055206 0.332186
-0.334427 -0.0593078 -0.0533667
-0.332348 -0.0590302 -0.0629384
0.0913624 -0.0354821 -0.328106
0.0689648 -0.0361926 -0.341348
0.0602115 -0.0365338 -0.343278
0.338718 -0.0303329 0.0795175
-0.0753989 -0.0514843 0.32994
-0.0857307 -0.0518573 0.327661
-0.329265 -0.0542764 -0.0771295
-0.327234 -0.0540252 -0.0864803
-0.333621 -0.0541514 -0.0936379
-0.0549885 -0.0468524 0.3443
-0.0551748 -0.046694 0.3344
-0.0652145 -0.0470274 0.332186
-0.333383 -0.0504029 -0.0581643
0.0859895 -0.0302653 -0.337594
0.336198 -0.0257413 0.0911142
-0.331314 -0.0458051 -0.0676911
-0.328247 -0.0454864 -0.0818157
-0.326225 -0.0452764 -0.0911234
-0.333621 -0.0454872 -0.0936379
0.0930061 -0.0274265 -0.335669
-0.0753989 -0.0391281 0.32994
-0.0857307 -0.0394115 0.327661
-0.333383 -0.0416372 -0.0581643
0.0689639 -0.0254689 -0.341348
0.0602105 -0.025709 -0.343278
0.338718 -0.0206264 0.0795175
0.34037 -0.0204875 0.0719165
0.342807 -0.0202827 0.0607051
0.336305 -0.0203792 0.0541599
-0.0549885 -0.03463 0.3443
-0.0551748 -0.0345129 0.3344
-0.0652145 -0.0347593 0.332186
-0.331314 -0.0370803 -0.0676911
-0.328247 -0.0368223 -0.0818157
-0.326225 -0.0366523 -0.0911234
-0.333621 -0.036823 -0.0936379
0.0859888 -0.02237 -0.337594
-0.0753989 -0.0308906 0.32994
-0.0857307 -0.0311144 0.327661
0.336198 -0.0159351 0.0911142
-0.0549885 -0.0264818 0.3443
-0.0551748 -0.0263922 0.3344
-0.0652145 -0.0265807 0.332186
-0.333383 -0.0284886 -0.0581643
0.0913624 -0.017084 -0.328106
0.0689632 -0.0174261 -0.341348
-0.331314 -0.0239931 -0.0676911
-0.328247 -0.0238262 -0.0818157
-0.326225 -0.0237162 -0.0911234
-0.333621 -0.0238266 -0.0936379
0.0602097 -0.0148842 -0.343278
0.338718 -0.0109198 0.0795175
0.34037 -0.0108463 0.0719165
0.342807 -0.0107379 0.0607051
0.336305 -0.010789 0.0541599
-0.0753989 -0.0185344 0.32994
-0.0857307 -0.0186686 0.327661
-0.333383 -0.0197229 -0.0581643
0.0859879 -0.011843 -0.337594
-0.0549885 -0.0142594 0.3443
-0.0551748 -0.0142112 0.3344
-0.0652145 -0.0143127 0.332186
-0.331314 -0.0152684 -0.0676911
-0.328247 -0.0151621 -0.0818157
-0.326225 -0.0150921 -0.0911234
-0.333621 -0.0151624 -0.0936379
0.336198 -0.00612889 0.0911142
-0.0753989 -0.0102969 0.32994
-0.0857307 -0.0103715 0.327661
-0.333383 -0.0109572 -0.0581643
0.0913624 -0.00657077 -0.328106
0.0689622 -0.00670235 -0.341348
0.0602097 -0.00676554 -0.343278
-0.0549885 -0.00611119 0.3443
-0.0551748 -0.00609052 0.3344
-0.0652145 -0.00613401 0.332186
-0.331314 -0.00654359 -0.0676911
-0.328247 -0.00649807 -0.0818157
-0.326225 -0.00646807 -0.0911234
-0.333621 -0.00649818 -0.0936379
0.338718 -0.00121332 0.0795175
0.34037 -0.00120516 0.0719166
0.342807 -0.00119311 0.0607051
0.336305 -0.00119879 0.0541599
-0.0753989 -0.00205939 0.32994
-0.0857307 -0.0020743 0.327661
-0.333383 -0.00219144 -0.0581643
0.0859874 -0.00131589 -0.337594
0.336198 0.00367732 0.0911142
-0.0549885 0.00611116 0.3443
-0.0551748 0.0060905 0.3344
-0.0652145 0.00613398 0.332186
-0.331314 0.00654356 -0.0676911
-0.328247 0.00649804 -0.0818157
-0.326225 0.00646804 -0.0911234
-0.333621 0.00649815 -0.0936379
0.0913624 0.00394244 -0.328106
0.0689613 0.0040214 -0.341348
0.0602097 0.00405931 -0.343278
-0.0753989 0.0102969 0.32994
-0.0857307 0.0103715 0.327661
-0.333383 0.0109572 -0.0581643
0.338718 0.00849319 0.0795175
0.34037 0.00843602 0.0719166
0.342807 0.00835168 0.0607051
0.336305 0.00839143 0.0541599
-0.0549885 0.0142594 0.3443
-0.0551748 0.0142112 0.3344
-0.0652145 0.0143126 0.332186
-0.331314 0.0152683 -0.0676911
-0.328247 0.0151621 -0.0818157
-0.326225 0.0150921 -0.0911234
-0.333621 0.0151624 -0.0936379
0.0859874 0.00921118 -0.337594
-0.0753989 0.0185344 0.32994
-0.0857307 0.0186686 0.327661
-0.333383 0.0197229 -0.0581643
0.336198 0.0134836 0.0911142
-0.331314 0.0239932 -0.0676911
-0.328247 0.0238262 -0.0818157
-0.326225 0.0237162 -0.0911234
-0.333621 0.0238267 -0.0936379
0.0913624 0.0144557 -0.328106
0.0689602 0.0147452 -0.341348
0.0602097 0.0148842 -0.343278
-0.0549885 0.0264818 0.3443
-0.0551748 0.0263922 0.3344
-0.0652145 0.0265807 0.332186
-0.333383 0.0284886 -0.0581643
0.338718 0.0181997 0.0795175
0.34037 0.0180772 0.0719166
0.342807 0.0178965 0.0607051
0.336305 0.0179817 0.0541599
-0.0753989 0.0308906 0.32994
-0.0857307 0.0311144 0.327661
-0.331314 0.0327179 -0.0676911
0.0859874 0.0197383 -0.337594
-0.0549885 0.03463 0.3443
-0.0551748 0.0345129 0.3344
-0.0652145 0.0347593 0.332186
-0.328247 0.0368223 -0.0818157
-0.326225 0.0366523 -0.0911234
-0.333621 0.036823 -0.0936379
0.0689595 0.022788 -0.341348
0.0602097 0.0230028 -0.343278
0.336198 0.0232898 0.0911142
-0.0753989 0.0391281 0.32994
-0.0857307 0.0394115 0.327661
-0.333383 0.0416372 -0.0581643
0.0913624 0.0249689 -0.328106
-0.0549885 0.0427782 0.3443
-0.0551748 0.0426336 0.3344
-0.0652145 0.042938 0.332186
-0.331314 0.0458051 -0.0676911
-0.328247 0.0454864 -0.0818157
-0.326225 0.0452764 -0.0911234
-0.333621 0.0454872 -0.0936379
0.0859874 0.0276336 -0.337594
0.338718 0.0279063 0.0795175
0.34037 0.0277184 0.0719166
0.336305 0.0275719 0.0541599
-0.0805461 0.0475365 0.328804
-0.0909529 0.0478821 0.326509
-0.333383 0.0504029 -0.0581643
0.342807 0.0298275 0.0607051
-0.331314 0.0545298 -0.0676911
-0.328247 0.0541505 -0.0818157
-0.326225 0.0539005 -0.0911234
-0.333621 0.0541514 -0.0936379
0.0913624 0.0328538 -0.328106
0.0689585 0.0335119 -0.341348
0.0602097 0.0338277 -0.343278
0.336198 0.033096 0.0911142
-0.0549885 0.0550006 0.3443
-0.0551748 0.0548146 0.3344
-0.0652145 0.055206 0.332186
-0.334427 0.0593078 -0.0533667
-0.0753989 0.0597218 0.32994
-0.0857307 0.0601545 0.327661
-0.33235 0.0634029 -0.0629378
-0.329265 0.0629606 -0.0771292
-0.327233 0.0626692 -0.0864807
0.0859874 0.0381607 -0.337594
0.338718 0.0376128 0.0795175
-0.0470598 0.0627255 0.343008
-0.0459793 0.0625398 0.337142
-0.0551748 0.0629353 0.3344
-0.0652145 0.0633847 0.332186
-0.0962137 0.0647723 0.325349
-0.184124 0.0684366 0.293935
-0.187748 0.0684357 0.28589
-0.193216 0.0684365 0.273843
-0.196861 0.068437 0.265811
-0.20233 0.0684378 0.253764
-0.205975 0.0684383 0.245732
-0.211444 0.0684391 0.233684
-0.215083 0.0684392 0.225648
-0.220514 0.0684377 0.213579
-0.224133 0.0684365 0.205532
-0.227751 0.0684353 0.197486
-0.233178 0.0684335 0.185416
-0.236796 0.0684323 0.17737
-0.242222 0.0684306 0.165301
-0.24584 0.0684294 0.157256
-0.251301 0.0684297 0.145205
-0.25494 0.0684298 0.13717
-0.260398 0.06843 0.125118
-0.264036 0.0684301 0.117083
-0.269494 0.0684302 0.10503
-0.273133 0.0684303 0.0969951
-0.278591 0.0684304 0.0849426
-0.282229 0.0684305 0.0769075
-0.287681 0.0684303 0.0648525
-0.291324 0.0684307 0.0568189
-0.296799 0.0684318 0.0447726
-0.300449 0.0684326 0.0367415
-0.305925 0.0684337 0.0246945
-0.309575 0.0684344 0.0166629
-0.315051 0.0684356 0.00461522
-0.318701 0.0684363 -0.00341681
-0.324177 0.0684375 -0.0154653
-0.327828 0.0684382 -0.0234976
-0.333304 0.0684394 -0.0355467
-0.336529 0.0684162 -0.0437035
-0.334429 0.0680943 -0.0533661
-0.325217 0.0666824 -0.0957462
-0.327665 0.0666219 -0.103844
0.34037 0.0397699 0.0719166
0.342807 0.0393723 0.0607051
0.336305 0.0395597 0.0541599
-0.0753989 0.0679593 0.32994
-0.0856072 0.0684429 0.327568
-0.0906954 0.0684402 0.316215
-0.0957993 0.0684387 0.304875
-0.0992019 0.0684377 0.297315
-0.104299 0.0684357 0.28597
-0.109427 0.0684359 0.274649
-0.112851 0.0684364 0.267104
-0.117987 0.0684371 0.255787
-0.123123 0.0684378 0.244469
-0.126545 0.0684382 0.236923
-0.131669 0.0684381 0.225598
-0.13678 0.0684371 0.214265
-0.140181 0.068436 0.206706
-0.145281 0.0684344 0.195367
-0.150381 0.0684327 0.184029
-0.153781 0.0684316 0.176471
-0.158881 0.0684299 0.165134
-0.164009 0.0684302 0.153813
-0.167434 0.0684307 0.146268
-0.172565 0.0684311 0.134948
-0.175983 0.0684312 0.1274
-0.18111 0.0684313 0.116078
-0.186237 0.0684315 0.104756
-0.189655 0.0684315 0.0972073
-0.194782 0.0684317 0.0858849
-0.199909 0.0684318 0.0745626
-0.203314 0.0684311 0.0670086
-0.208443 0.0684313 0.055687
-0.213585 0.0684324 0.0443707
-0.217013 0.0684331 0.0368261
-0.222155 0.0684342 0.0255092
-0.227298 0.0684352 0.0141919
-0.230726 0.0684359 0.00664675
-0.235869 0.068437 -0.00467113
-0.241011 0.0684381 -0.0159895
-0.24443 0.0684382 -0.0235383
-0.249564 0.0684387 -0.0348599
-0.254718 0.0684404 -0.0461757
-0.258159 0.0684419 -0.0537183
-0.263284 0.0684418 -0.0650437
-0.266698 0.0684416 -0.0725945
-0.271819 0.0684414 -0.0839206
-0.276941 0.0684411 -0.0952467
-0.280352 0.0684408 -0.102798
-0.285476 0.0684407 -0.114123
-0.290569 0.0684387 -0.125456
-0.293995 0.0684393 -0.133003
-0.299133 0.06844 -0.144325
-0.304273 0.0684408 -0.155647
0.0913624 0.043367 -0.328106
0.0689576 0.0442357 -0.341348
0.0602097 0.0446526 -0.343278
0.336198 0.0429022 0.0911142
-0.00790626 0.0684411 0.335926
-0.0127583 0.0684425 0.325264
-0.0175648 0.0684405 0.314565
-0.020774 0.0684396 0.307437
-0.025584 0.0684379 0.296742
-0.0303912 0.0684359 0.286045
-0.0352153 0.0684353 0.275362
-0.0400567 0.068436 0.264692
-0.0448983 0.0684367 0.254022
-0.0481262 0.0684371 0.246908
-0.0529588 0.0684372 0.236231
-0.0577898 0.068437 0.225553
-0.0626168 0.0684366 0.214872
-0.0674276 0.0684351 0.204181
-0.0706345 0.068434 0.197054
-0.0754448 0.0684324 0.186364
-0.080255 0.0684309 0.175674
-0.0850778 0.0684302 0.164993
-0.0899208 0.068431 0.154323
-0.0931497 0.0684315 0.14721
-0.0979908 0.0684322 0.136538
-0.102825 0.0684323 0.125863
-0.107659 0.0684324 0.115188
-0.112493 0.0684325 0.104512
-0.115715 0.0684326 0.0973952
-0.120549 0.0684327 0.0867196
-0.125362 0.0684314 0.0760337
-0.130197 0.0684316 0.0653588
-0.135033 0.0684318 0.0546843
-0.13988 0.0684329 0.0440146
-0.143111 0.0684335 0.0369012
-0.147959 0.0684345 0.0262308
-0.152806 0.0684355 0.0155602
-0.157654 0.0684365 0.00488916
-0.162501 0.0684375 -0.00578213
-0.165732 0.0684381 -0.012897
-0.170562 0.068438 -0.0235752
-0.175402 0.0684384 -0.03425
-0.180252 0.0684396 -0.0449214
-0.185115 0.0684415 -0.0555892
-0.188334 0.0684414 -0.0627085
-0.193163 0.0684411 -0.0733874
-0.197992 0.0684409 -0.0840664
-0.202821 0.0684407 -0.094745
-0.20765 0.0684404 -0.105424
-0.210867 0.0684401 -0.112544
-0.215677 0.0684387 -0.123227
-0.220512 0.0684388 -0.133904
-0.225356 0.0684395 -0.144578
-0.230201 0.0684403 -0.155253
-0.235046 0.068441 -0.165928
-0.238276 0.0684415 -0.173045
-0.24312 0.0684422 -0.183721
-0.247965 0.068443 -0.194397
-0.252801 0.0684431 -0.205074
-0.257612 0.0684418 -0.215756
-0.260819 0.068441 -0.222877
0.0614783 0.0684322 0.343301
0.0400759 0.068438 0.296231
0.0355266 0.0684362 0.286112
0.0309727 0.0684348 0.275999
0.0263936 0.0684355 0.265905
0.0218143 0.0684361 0.255812
0.01724 0.0684364 0.245714
0.0126702 0.0684363 0.235613
0.00810033 0.0684362 0.225513
0.00353062 0.068436 0.215412
-0.00102401 0.0684348 0.2053
-0.00557584 0.0684333 0.195188
-0.0101275 0.0684318 0.185076
-0.0146793 0.0684303 0.174964
-0.0192597 0.068431 0.164871
-0.0238404 0.0684318 0.154778
-0.0284212 0.0684325 0.144685
-0.0330008 0.0684332 0.134591
-0.0375735 0.0684333 0.124492
-0.0421461 0.0684334 0.114394
-0.0467187 0.0684335 0.104295
-0.0512915 0.0684337 0.0941966
-0.0543399 0.0684337 0.0874642
-0.0588899 0.0684322 0.077354
-0.0634596 0.0684321 0.0672542
-0.0680296 0.0684321 0.0571544
-0.0726137 0.068433 0.0470614
-0.077198 0.068434 0.036968
-0.0817825 0.0684349 0.0268744
-0.0863671 0.0684359 0.0167806
-0.0909517 0.0684368 0.00668633
-0.0955511 0.0684388 -0.0034022
-0.100102 0.0684374 -0.0135103
-0.10468 0.0684378 -0.023608
-0.109258 0.0684382 -0.0337058
-0.113839 0.068439 -0.0438022
-0.118436 0.0684407 -0.0538937
-0.123011 0.068441 -0.063993
-0.127579 0.0684407 -0.0740946
-0.132148 0.0684405 -0.0841962
-0.136716 0.0684403 -0.0942976
-0.141284 0.0684401 -0.104399
-0.145851 0.0684397 -0.114501
-0.15041 0.0684389 -0.124605
-0.154974 0.0684385 -0.134707
-0.159556 0.0684392 -0.144804
-0.164138 0.0684398 -0.154902
-0.16872 0.0684405 -0.165
-0.173302 0.0684412 -0.175098
-0.177885 0.0684419 -0.185197
-0.182466 0.0684426 -0.195296
-0.187045 0.068443 -0.205395
-0.191598 0.0684418 -0.215499
-0.19615 0.0684406 -0.225603
-0.200702 0.0684393 -0.235706
-0.205253 0.0684381 -0.245809
-0.208288 0.0684373 -0.252545
-0.212839 0.068436 -0.262647
-0.217398 0.0684353 -0.272748
0.0859874 0.0486878 -0.337594
0.113453 0.0684386 0.327718
0.110523 0.068442 0.321365
0.106198 0.068441 0.311771
0.0831318 0.0684354 0.26061
0.0787925 0.0684356 0.251031
0.074457 0.0684355 0.241448
0.0701214 0.0684354 0.231865
0.0657858 0.0684353 0.222282
0.0600083 0.0684349 0.209503
0.0556887 0.0684335 0.199909
0.051369 0.0684321 0.190315
0.0470496 0.0684307 0.180722
0.0427056 0.0684313 0.171146
0.0383605 0.068432 0.161571
0.0340154 0.0684327 0.151995
0.0296702 0.0684334 0.142419
0.0238792 0.0684341 0.129649
0.0195411 0.0684342 0.120068
0.0152028 0.0684343 0.110488
0.0108649 0.0684344 0.100907
0.00652909 0.0684344 0.0913246
0.00221443 0.0684326 0.0817309
-0.00212228 0.0684326 0.0721495
-0.00790089 0.0684324 0.0593725
-0.0122467 0.0684331 0.0497958
-0.016595 0.068434 0.04022
-0.0209435 0.0684349 0.0306441
-0.0252921 0.0684358 0.0210678
-0.029641 0.0684367 0.0114914
-0.0340044 0.0684387 0.00192109
-0.0383177 0.0684369 -0.00767121
-0.0441078 0.0684375 -0.0204441
-0.0484502 0.0684379 -0.0300241
-0.0527928 0.0684383 -0.039604
-0.0571429 0.0684393 -0.0491813
-0.0614992 0.0684407 -0.0587567
-0.0658332 0.0684405 -0.0683403
-0.0701674 0.0684403 -0.0779238
-0.0745016 0.0684401 -0.0875072
-0.0802807 0.0684398 -0.100285
-0.0846149 0.0684396 -0.109868
-0.0889471 0.0684392 -0.119452
-0.0932683 0.0684381 -0.129039
-0.0976077 0.0684383 -0.13862
-0.101954 0.068439 -0.1482
-0.106301 0.0684396 -0.15778
-0.112096 0.0684405 -0.170554
-0.116443 0.0684412 -0.180134
-0.120788 0.0684418 -0.189715
-0.125132 0.0684422 -0.199296
-0.129474 0.0684425 -0.208878
-0.133794 0.0684414 -0.218464
-0.138114 0.0684402 -0.22805
-0.142433 0.068439 -0.237635
-0.148192 0.0684374 -0.250415
-0.152511 0.0684363 -0.259999
-0.15683 0.0684351 -0.269583
-0.161164 0.0684349 -0.279165
-0.165502 0.068435 -0.288747
-0.16984 0.0684351 -0.298328
0.0602097 0.0527712 -0.343278
0.159026 0.068441 0.310577
0.154918 0.0684394 0.301445
0.150809 0.0684377 0.292314
0.145332 0.0684356 0.28014
0.14122 0.0684344 0.271013
0.338718 0.0497459 0.0795175
0.34037 0.049411 0.0719166
0.342807 0.0489171 0.0607051
0.336305 0.0491499 0.0541599
0.121966 0.0684346 0.228483
0.119217 0.0684346 0.222406
0.113718 0.0684344 0.210252
0.109606 0.0684333 0.201128
0.105497 0.0684319 0.192002
0.100004 0.0684313 0.179845
0.0958711 0.068432 0.170736
0.0917383 0.0684326 0.161628
0.086228 0.0684335 0.149483
0.0820951 0.0684342 0.140374
0.0779622 0.0684349 0.131265
0.0738356 0.068435 0.122152
0.0683338 0.0684351 0.11
0.0642072 0.0684352 0.100887
0.0601027 0.0684335 0.09176
0.0546061 0.0684332 0.0796058
0.0504834 0.068433 0.0704904
0.0463606 0.0684328 0.0613751
0.0422312 0.0684332 0.0522633
0.036717 0.0684344 0.0401186
0.0325813 0.0684352 0.0310096
0.0284454 0.0684361 0.0219006
0.0229141 0.0684385 0.00976267
0.0188151 0.0684364 0.000635594
0.0146849 0.0684368 -0.00847673
0.0105547 0.0684372 -0.0175891
0.0050475 0.0684378 -0.0297391
0.000917017 0.0684382 -0.0388517
-0.00321591 0.0684387 -0.0479635
-0.00873727 0.0684403 -0.0601087
-0.01286 0.0684401 -0.0692248
-0.0169828 0.0684399 -0.0783407
-0.0224802 0.0684397 -0.0904952
-0.0266032 0.0684395 -0.0996109
-0.0307261 0.0684393 -0.108727
-0.0348491 0.0684391 -0.117842
-0.0403398 0.0684384 -0.129998
-0.04446 0.068438 -0.139115
-0.0485939 0.0684386 -0.148227
-0.0541058 0.0684395 -0.160377
-0.0582399 0.0684401 -0.16949
-0.0623739 0.0684407 -0.178603
-0.0665064 0.0684412 -0.187717
-0.072015 0.0684418 -0.199869
-0.0761464 0.0684422 -0.208983
-0.0802603 0.0684414 -0.2181
-0.08574 0.0684399 -0.230258
-0.0898494 0.0684388 -0.239375
-0.093959 0.0684377 -0.248492
-0.0980682 0.0684365 -0.257609
-0.103547 0.0684351 -0.269765
-0.107665 0.0684345 -0.27888
-0.111792 0.0684346 -0.287994
-0.117293 0.0684347 -0.300147
0.0913624 0.0538803 -0.328106
0.0689576 0.0549596 -0.341348
0.196491 0.0684368 0.286276
0.191267 0.0684348 0.274668
0.187339 0.0684343 0.265973
0.183406 0.0684343 0.257282
0.178163 0.0684341 0.245694
0.336198 0.0527084 0.0911142
0.157202 0.0684326 0.199332
0.153282 0.0684313 0.190631
0.149345 0.0684317 0.181945
0.144092 0.0684326 0.170365
0.140152 0.0684332 0.16168
0.134898 0.0684341 0.1501
0.130958 0.0684347 0.141415
0.125704 0.0684355 0.129834
0.121769 0.0684357 0.121145
0.117835 0.0684358 0.112455
0.112589 0.0684359 0.100868
0.108691 0.0684327 0.092155
0.103438 0.0684336 0.0805741
0.0995064 0.0684334 0.0718827
0.0942649 0.0684332 0.0602941
0.0903272 0.0684335 0.0516064
0.0850703 0.0684346 0.0400265
0.0811275 0.0684354 0.0313412
0.075864 0.0684371 0.0197638
0.0719195 0.068438 0.0110787
0.0680075 0.0684362 0.00237736
0.0627568 0.0684367 -0.00920719
0.058819 0.0684371 -0.0178958
0.0535683 0.0684376 -0.0294806
0.0496303 0.068438 -0.0381694
0.0443775 0.0684386 -0.0497538
0.0404264 0.0684401 -0.0584375
0.0351849 0.0684398 -0.0700269
0.0312538 0.0684396 -0.0787188
0.0260118 0.0684394 -0.0903079
0.0220805 0.0684392 -0.0989996
0.0181492 0.068439 -0.107691
0.0129076 0.0684388 -0.11928
0.00897616 0.0684386 -0.127972
0.00374317 0.0684377 -0.139563
-0.000198007 0.0684383 -0.148252
-0.00545299 0.0684391 -0.159837
-0.00939423 0.0684397 -0.168526
-0.0146487 0.0684404 -0.180111
-0.0185876 0.0684408 -0.188801
-0.0238396 0.0684414 -0.200388
-0.0277786 0.0684418 -0.209078
-0.0317065 0.0684414 -0.21777
-0.0369322 0.0684399 -0.229362
-0.0408514 0.0684388 -0.238056
-0.0460768 0.0684374 -0.249647
-0.049996 0.0684364 -0.25834
-0.0552212 0.068435 -0.26993
-0.059144 0.0684342 -0.278622
-0.0643899 0.0684343 -0.290208
-0.0683242 0.0684344 -0.298899
-0.0722585 0.0684345 -0.307589
-0.0853344 0.068432 -0.336559
0.230616 0.0684338 0.264144
0.226858 0.0684337 0.255839
0.221848 0.0684336 0.244766
0.218091 0.0684335 0.236461
0.213081 0.0684333 0.225388
0.209323 0.0684333 0.217083
0.189282 0.0684329 0.172793
0.186772 0.0684334 0.16726
0.181753 0.0684342 0.156195
0.176733 0.068435 0.145129
0.172968 0.0684356 0.13683
0.167949 0.0684363 0.125763
0.16419 0.0684364 0.117459
0.159177 0.0684365 0.106388
0.154202 0.0684331 0.0952902
0.150435 0.0684339 0.0869924
0.145424 0.0684338 0.0759197
0.140416 0.0684336 0.0648461
0.136659 0.0684334 0.056541
0.131637 0.0684344 0.0454753
0.12787 0.0684352 0.0371762
0.122843 0.0684366 0.0261128
0.117819 0.0684378 0.0150471
0.114081 0.0684359 0.00673172
0.109064 0.0684364 -0.00433791
0.105302 0.0684368 -0.0126403
0.100285 0.0684372 -0.0237102
0.0952676 0.0684377 -0.0347802
0.0915048 0.0684381 -0.0430829
0.0864828 0.068439 -0.0541511
0.0814632 0.0684397 -0.0652206
0.0777068 0.0684395 -0.0735263
0.0726978 0.0684393 -0.0846003
0.0689411 0.0684391 -0.0929057
0.0639321 0.0684389 -0.10398
0.0589232 0.0684386 -0.115053
0.0551666 0.0684385 -0.123359
0.0501609 0.068438 -0.134433
0.0464061 0.0684377 -0.142739
0.0413854 0.0684384 -0.153809
0.0363643 0.0684392 -0.164879
0.0325985 0.0684398 -0.173182
0.0275804 0.0684403 -0.184253
0.0238166 0.0684407 -0.192557
0.0187986 0.0684412 -0.203629
0.0137802 0.0684417 -0.214701
0.0100341 0.0684407 -0.223008
0.00503993 0.0684393 -0.234085
4.57764e-05 0.068438 -0.245161
-0.00369978 0.0684369 -0.253467
-0.00869387 0.0684356 -0.264542
-0.0124393 0.0684346 -0.272849
-0.0174425 0.068434 -0.283922
-0.022455 0.0684341 -0.294994
-0.0262145 0.0684342 -0.303298
0.0859874 0.0592148 -0.337594
0.0512952 0.061469 -0.345245
-0.0437092 0.0684308 -0.342053
0.257018 0.0684329 0.233315
0.253421 0.0684328 0.225363
0.249823 0.0684327 0.217412
0.245026 0.0684326 0.20681
0.240237 0.0684317 0.196202
0.218612 0.0684352 0.148527
0.215008 0.0684358 0.140581
0.210203 0.0684366 0.129986
0.2066 0.068437 0.122038
0.201801 0.0684371 0.111437
0.19703 0.0684343 0.100816
0.192233 0.0684343 0.0902143
0.188634 0.0684343 0.0822638
0.183838 0.0684341 0.0716614
0.179042 0.0684339 0.0610589
0.174241 0.0684342 0.0504603
0.169432 0.0684352 0.0398659
0.165823 0.0684362 0.0319214
0.161001 0.0684385 0.0213343
0.156233 0.0684357 0.0107154
0.15143 0.0684361 0.000116915
0.147828 0.0684365 -0.00783208
0.143024 0.0684369 -0.0184309
0.138221 0.0684374 -0.0290298
0.133418 0.0684378 -0.0396288
0.129816 0.0684382 -0.0475782
0.125004 0.0684394 -0.0581736
0.120206 0.0684394 -0.0687757
0.11541 0.0684391 -0.0793785
0.110614 0.0684389 -0.0899811
0.107017 0.0684388 -0.0979331
0.102221 0.0684385 -0.108536
0.0974255 0.0684383 -0.119138
0.0926299 0.0684381 -0.129741
0.0890391 0.0684374 -0.137694
0.0842363 0.0684378 -0.148294
0.0794295 0.0684385 -0.158893
0.0746226 0.0684393 -0.169493
0.0698184 0.0684398 -0.180093
0.0662151 0.0684401 -0.188043
0.0614108 0.0684406 -0.198643
0.0566064 0.0684411 -0.209244
0.0518087 0.0684411 -0.219846
0.0482218 0.0684401 -0.2278
0.0434393 0.0684388 -0.238405
0.0386568 0.0684375 -0.24901
0.0338745 0.0684362 -0.259614
0.0302879 0.0684352 -0.267566
0.0255058 0.0684339 -0.27817
0.0207099 0.0684338 -0.288771
0.0159107 0.0684339 -0.299372
0.0111158 0.0684336 -0.309973
0.0975356 0.0612811 -0.328653
0.0689576 0.0630024 -0.341348
0.0602097 0.0635961 -0.343278
-0.00446117 0.0684324 -0.344427
0.279434 0.068774 0.21057
0.280115 0.068432 0.202461
0.275509 0.0684325 0.192296
0.2709 0.0684332 0.182135
0.266291 0.0684339 0.171973
0.334491 0.0604769 0.0989763
0.338719 0.0594524 0.079517
0.340371 0.0590522 0.0719162
0.342808 0.0584618 0.0607047
0.341984 0.0582314 0.0524083
0.244398 0.0684375 0.123701
0.240946 0.0684376 0.116075
0.236363 0.0684355 0.10589
0.23177 0.0684345 0.0957148
0.227167 0.0684346 0.0855477
0.222566 0.0684344 0.0753779
0.217966 0.0684342 0.0652081
0.213366 0.068434 0.0550385
0.209907 0.0684347 0.047417
0.205294 0.0684358 0.0372557
0.200661 0.068439 0.0271069
0.196095 0.0684353 0.0169154
0.191489 0.0684357 0.00674948
0.186882 0.0684361 -0.00341645
0.182275 0.0684366 -0.0135826
0.177668 0.068437 -0.0237488
0.173061 0.0684375 -0.0339151
0.168454 0.0684379 -0.0440816
0.163846 0.0684384 -0.0542477
0.159236 0.0684392 -0.0644128
0.154636 0.068439 -0.0745829
0.150035 0.0684388 -0.0847528
0.145435 0.0684386 -0.0949227
0.141985 0.0684384 -0.10255
0.137385 0.0684382 -0.11272
0.132785 0.068438 -0.12289
0.128185 0.0684378 -0.133059
0.123589 0.0684372 -0.14323
0.118979 0.0684379 -0.153396
0.114368 0.0684386 -0.163563
0.10976 0.0684391 -0.17373
0.105152 0.0684396 -0.183897
0.100544 0.0684401 -0.194065
0.0959359 0.0684405 -0.204233
0.091328 0.068441 -0.214401
0.0867324 0.0684404 -0.224572
0.0821444 0.0684392 -0.234744
0.0775565 0.0684379 -0.244916
0.0741155 0.068437 -0.252544
0.0695277 0.0684358 -0.262715
0.0649401 0.0684345 -0.272886
0.0603508 0.0684334 -0.283056
0.0557475 0.0684335 -0.293224
0.051146 0.0684335 -0.303393
0.0465502 0.068433 -0.313561
0.0315796 0.0684341 -0.346607
0.29118 0.0700439 0.195004
0.295053 0.0694487 0.187488
0.301374 0.0684342 0.174052
0.298053 0.0684348 0.166729
0.293625 0.0684355 0.156965
0.289197 0.0684362 0.147202
0.3362 0.0625144 0.0911118
0.268207 0.0684347 0.100784
0.263783 0.0684349 0.0910161
0.259363 0.0684348 0.0812457
0.254943 0.0684346 0.0714747
0.250523 0.0684344 0.0617038
0.2461 0.0684345 0.051935
0.241669 0.0684355 0.0421717
0.237219 0.0684385 0.0324211
0.231723 0.0684351 0.0201878
0.227299 0.0684355 0.0104201
0.222873 0.0684359 0.00065282
0.218447 0.0684363 -0.00911453
0.214021 0.0684367 -0.018882
0.209595 0.0684372 -0.0286496
0.205169 0.0684376 -0.0384173
0.200743 0.068438 -0.0481851
0.196313 0.0684388 -0.0579514
0.191889 0.0684389 -0.0677207
0.186365 0.0684387 -0.0799346
0.181945 0.0684385 -0.0897056
0.177525 0.0684383 -0.0994766
0.173105 0.0684381 -0.109248
0.168685 0.0684379 -0.119018
0.164265 0.0684377 -0.128789
0.159843 0.0684377 -0.138559
0.155425 0.0684373 -0.148331
0.150996 0.068438 -0.158098
0.146568 0.0684386 -0.167866
0.142141 0.068439 -0.177635
0.136607 0.0684396 -0.189846
0.13218 0.0684401 -0.199615
0.127753 0.0684405 -0.209384
0.123326 0.068441 -0.219153
0.118916 0.0684399 -0.228927
0.114508 0.0684387 -0.2387
0.110099 0.0684375 -0.248472
0.105691 0.0684363 -0.258245
0.101282 0.0684351 -0.268017
0.0968739 0.0684339 -0.277789
0.0924596 0.0684333 -0.287559
0.0869327 0.0684333 -0.299771
0.0825167 0.0684328 -0.309541
0.0781007 0.0684323 -0.319311
0.0775483 0.0677317 -0.339453
0.0512951 0.0696649 -0.345245
0.0422055 0.0703343 -0.347249
0.309911 0.0697999 0.158658
0.313474 0.0692309 0.151745
0.317832 0.068437 0.140741
0.313571 0.0684377 0.131345
0.291255 0.068435 0.0819695
0.285939 0.0684348 0.0702166
0.281686 0.0684346 0.0608144
0.27743 0.0684347 0.0514145
0.273158 0.0684366 0.0420254
0.267829 0.0684377 0.030281
0.2636 0.0684349 0.0208624
0.259341 0.0684353 0.0114639
0.255083 0.0684357 0.00206527
0.249759 0.0684362 -0.00968316
0.2455 0.0684366 -0.019082
0.241242 0.0684371 -0.028481
0.236983 0.0684375 -0.0378801
0.231659 0.068438 -0.0496291
0.227397 0.0684387 -0.0590269
0.223142 0.0684387 -0.0684282
0.218888 0.0684385 -0.0778306
0.213572 0.0684383 -0.0895835
0.209319 0.0684381 -0.0989857
0.205065 0.0684379 -0.108388
0.200812 0.0684377 -0.11779
0.195496 0.0684375 -0.129543
0.191243 0.0684373 -0.138945
0.18699 0.0684371 -0.148347
0.182728 0.0684378 -0.157746
0.177403 0.0684384 -0.169495
0.173143 0.0684388 -0.178895
0.168884 0.0684392 -0.188295
0.164624 0.0684397 -0.197696
0.159299 0.0684402 -0.209446
0.155039 0.0684407 -0.218847
0.150792 0.0684399 -0.22825
0.146549 0.0684387 -0.237655
0.141246 0.0684373 -0.24941
0.137003 0.0684362 -0.258813
0.132761 0.068435 -0.268217
0.128518 0.0684339 -0.277619
0.123209 0.0684331 -0.289372
0.118956 0.0684329 -0.298773
0.114706 0.0684325 -0.308174
0.110457 0.068432 -0.317575
0.105122 0.0684334 -0.329324
0.094273 0.0691078 -0.335769
0.323822 0.0701287 0.131664
0.330117 0.0690723 0.119115
0.331886 0.0685912 0.110974
0.334494 0.0678819 0.0989737
0.311607 0.0684349 0.0622548
0.306481 0.068435 0.0509317
0.302358 0.0684377 0.0418898
0.297241 0.0684366 0.0305591
0.293157 0.0684348 0.0214886
