ply
format ascii 1.0
comment Created by Open3D
element vertex 990
property double x
property double y
property double z
end_header
0.237842 -0.30843 -0.230948
0.222265 -0.31021 -0.241222
0.199252 -0.317018 -0.241975
0.179285 -0.322925 -0.242626
0.158559 -0.329057 -0.2433
0.141403 -0.334133 -0.243859
0.119199 -0.340703 -0.244581
0.100794 -0.346148 -0.245179
0.0817943 -0.35177 -0.245797
0.236665 -0.291653 -0.236883
0.160757 -0.31238 -0.241549
0.22402 -0.292054 -0.239314
0.189174 -0.301776 -0.240392
0.121122 -0.320764 -0.242487
0.098063 -0.327198 -0.243196
0.0785305 -0.329772 -0.243496
0.142232 -0.306705 -0.240979
-0.0673479 -0.360877 -0.245241
0.0909539 -0.312088 -0.241622
-0.0969824 -0.3618 -0.247129
0.235281 -0.271796 -0.235603
0.194965 -0.281972 -0.238305
0.162278 -0.290539 -0.239254
0.118516 -0.302009 -0.240526
-0.117705 -0.360562 -0.247033
-0.138463 -0.362543 -0.247265
-0.0615007 -0.341335 -0.237408
0.217081 -0.265967 -0.236591
0.1394 -0.285575 -0.238769
-0.0808783 -0.341176 -0.244943
-0.168226 -0.359734 -0.247027
-0.101129 -0.339632 -0.244814
0.164137 -0.271277 -0.23723
0.120447 -0.281986 -0.238423
0.101987 -0.286512 -0.238925
0.0780644 -0.292376 -0.239577
-0.121398 -0.341271 -0.245018
-0.198628 -0.360202 -0.247124
0.234196 -0.36306 0.236725
0.234014 -0.253451 -0.227354
0.196462 -0.260744 -0.236074
0.142362 -0.273874 -0.237538
-0.149174 -0.344631 -0.245414
-0.0575351 -0.321592 -0.232211
-0.222677 -0.358842 -0.24702
0.214092 -0.360328 0.235903
-0.0780526 -0.320814 -0.242803
0.183489 -0.255963 -0.235594
-0.0976484 -0.322145 -0.242978
-0.179466 -0.341406 -0.245125
0.184371 -0.359859 0.235808
0.0901383 -0.272191 -0.237444
-0.138647 -0.324936 -0.243334
-0.202905 -0.339751 -0.244986
0.231721 -0.340665 0.233874
0.153434 -0.359372 0.235709
-0.0534667 -0.304274 -0.230876
-0.119071 -0.317038 -0.242476
-0.218721 -0.339769 -0.245013
0.211045 -0.341738 0.233949
0.125682 -0.361909 0.235931
0.157201 -0.251304 -0.235149
0.0698152 -0.271025 -0.237352
-0.0684671 -0.302232 -0.240839
0.106714 -0.362249 0.235938
0.23211 -0.231938 -0.232668
0.193991 -0.240377 -0.233944
-0.168519 -0.321301 -0.242999
0.19002 -0.338868 0.233615
0.0872801 -0.362597 0.235944
0.205524 -0.235204 -0.233383
0.134741 -0.250832 -0.235134
0.107459 -0.256855 -0.235809
-0.0883877 -0.300097 -0.24065
0.168133 -0.339949 0.233694
-0.19903 -0.32094 -0.243004
0.23695 -0.320451 0.231764
0.150211 -0.34002 0.233674
0.224811 -0.31937 0.231631
0.131862 -0.340092 0.233653
-0.0486207 -0.281873 -0.237587
-0.109544 -0.294657 -0.240114
0.203968 -0.320144 0.231674
0.108227 -0.341234 0.233736
0.0869143 -0.249826 -0.235104
-0.136931 -0.297062 -0.24041
-0.15771 -0.301447 -0.240901
0.0788327 -0.343505 0.233927
0.16332 -0.230993 -0.233011
-0.072409 -0.280162 -0.238533
0.173918 -0.318863 0.231492
0.199776 -0.22077 -0.23188
-0.0919004 -0.280893 -0.238643
-0.18779 -0.30066 -0.240861
-0.217705 -0.306826 -0.24156
0.237808 -0.301444 0.230218
0.146983 -0.320635 0.231636
0.231143 -0.212284 -0.228228
0.136653 -0.231005 -0.233052
0.114045 -0.23561 -0.23357
0.221803 -0.300934 0.229692
0.133293 -0.319489 0.231494
-0.0691564 -0.361976 0.235865
0.200899 -0.301445 0.229711
0.114561 -0.319315 0.231448
0.0901083 -0.324377 0.231945
-0.0929577 -0.362268 0.235626
0.178674 -0.217095 -0.23153
-0.140137 -0.28047 -0.238675
0.179387 -0.301971 0.22973
-0.117633 -0.36266 0.235629
0.0941038 -0.231022 -0.233119
-0.0567643 -0.260643 -0.236459
-0.161703 -0.281245 -0.23879
-0.205471 -0.289838 -0.239758
0.161775 -0.301599 0.229664
-0.14356 -0.363285 0.236223
0.0742705 -0.231981 -0.233252
-0.043135 -0.256626 -0.225804
-0.0758183 -0.26108 -0.236539
-0.107844 -0.26729 -0.23724
-0.183956 -0.282046 -0.238906
0.139105 -0.302142 0.229685
-0.061546 -0.342136 0.233886
-0.155708 -0.360815 0.235376
0.160956 -0.21245 -0.231071
0.236578 -0.279894 0.232434
0.120535 -0.301762 0.229616
-0.0850332 -0.342128 0.233529
-0.182159 -0.3612 0.235375
0.201586 -0.202048 -0.229915
0.214833 -0.279422 0.227425
-0.202369 -0.360239 0.235243
0.134122 -0.212005 -0.231062
0.106711 -0.217118 -0.231641
-0.0412275 -0.244748 -0.234559
-0.129689 -0.261209 -0.236638
0.193758 -0.279626 0.227412
0.101818 -0.297193 0.229111
0.0719436 -0.3029 0.229657
-0.115327 -0.338681 0.23312
-0.223019 -0.359257 0.235111
0.227948 -0.191941 -0.228816
-0.209089 -0.272382 -0.237934
0.163108 -0.281525 0.227563
-0.140596 -0.338748 0.233087
-0.0600742 -0.241683 -0.234478
-0.158639 -0.259581 -0.236514
-0.0561513 -0.320066 0.241256
-0.166582 -0.338816 0.233054
0.180197 -0.195366 -0.229249
0.0864735 -0.212156 -0.231152
-0.0984195 -0.245277 -0.234917
-0.188143 -0.26135 -0.236744
0.235334 -0.261965 0.234675
0.136133 -0.278557 0.22721
0.117227 -0.282019 0.22754
0.102734 -0.284673 0.227797
-0.0828508 -0.318658 0.23107
-0.0951603 -0.320912 0.23129
-0.186431 -0.337626 0.232897
-0.20724 -0.341436 0.233264
0.220186 -0.259365 0.22533
0.0832949 -0.284071 0.227708
-0.126232 -0.321886 0.231343
0.0659173 -0.209905 -0.230951
-0.0804124 -0.235398 -0.233852
-0.119369 -0.242185 -0.234627
0.199293 -0.259283 0.225289
0.181941 -0.262369 0.225585
-0.151785 -0.321717 0.231285
0.162491 -0.19035 -0.22875
-0.0362694 -0.224914 -0.230071
0.159928 -0.262328 0.225547
-0.0519446 -0.300625 0.236311
-0.171299 -0.320357 0.23111
0.199135 -0.181415 -0.227755
0.140481 -0.191344 -0.228887
0.108677 -0.196729 -0.2295
-0.147924 -0.240167 -0.234459
0.141902 -0.261486 0.225434
-0.0690144 -0.297879 0.228911
-0.0933838 -0.302085 0.229316
-0.19123 -0.318968 0.230933
-0.0572861 -0.221549 -0.232361
-0.177013 -0.241521 -0.234648
0.233336 -0.241989 0.223767
0.118698 -0.261429 0.225384
0.104253 -0.263883 0.225617
-0.105378 -0.299504 0.229029
-0.211591 -0.317551 0.230754
-0.102013 -0.225622 -0.232863
-0.199818 -0.241696 -0.234701
0.0748523 -0.264706 0.225661
-0.130313 -0.299026 0.228942
0.182042 -0.176249 -0.227241
0.0884738 -0.191397 -0.228973
0.204773 -0.239144 0.223186
-0.0477792 -0.281381 0.231414
-0.155947 -0.298534 0.228847
-0.176032 -0.301841 0.229161
0.228031 -0.167458 -0.218126
0.111798 -0.184758 -0.228241
0.0683778 -0.19168 -0.229037
-0.077566 -0.214945 -0.231702
-0.123112 -0.222206 -0.232536
0.183462 -0.23877 0.223116
-0.0733312 -0.280372 0.227069
-0.0854769 -0.282339 0.227255
-0.202987 -0.301378 0.229071
-0.0318819 -0.204671 -0.229025
-0.137342 -0.220995 -0.23243
0.157013 -0.239105 0.223108
0.143293 -0.241292 0.223319
0.160109 -0.171566 -0.226782
-0.097907 -0.211421 -0.231367
-0.15891 -0.220844 -0.232451
0.124902 -0.240189 0.223169
0.0960136 -0.244716 0.223595
-0.115689 -0.2779 0.226748
-0.141362 -0.281924 0.227132
0.142396 -0.17151 -0.226806
-0.0484407 -0.200517 -0.230143
-0.188509 -0.221807 -0.232597
0.232404 -0.220202 0.225422
0.0764589 -0.243624 0.223454
-0.0436569 -0.262331 0.226569
-0.167286 -0.281188 0.227011
0.200645 -0.160008 -0.225508
0.210198 -0.219208 0.221103
0.188824 -0.222446 0.221411
-0.0656361 -0.260992 0.22505
-0.187088 -0.27939 0.226792
0.171525 -0.221163 0.221252
-0.0955736 -0.26092 0.224994
-0.207314 -0.277554 0.226567
0.0904742 -0.170635 -0.226793
-0.126889 -0.202059 -0.230428
0.149266 -0.220515 0.221149
0.121329 -0.2246 0.221528
-0.120184 -0.259916 0.224854
0.17945 -0.155067 -0.225022
0.07041 -0.17056 -0.226818
-0.0276665 -0.18457 -0.227891
-0.148161 -0.201617 -0.230416
-0.145483 -0.258884 0.224711
0.226589 -0.146749 -0.216763
-0.0885661 -0.189778 -0.229083
-0.177347 -0.202173 -0.230519
0.231152 -0.202166 0.227644
0.0679727 -0.22406 0.221387
-0.0387619 -0.239736 0.227558
-0.0580249 -0.241823 0.223053
-0.171492 -0.25782 0.224557
-0.191877 -0.260694 0.224825
0.161995 -0.152046 -0.224733
0.122225 -0.1575 -0.225368
-0.0517104 -0.181351 -0.228141
-0.108686 -0.189164 -0.229048
0.21138 -0.200051 0.219097
0.09816 -0.215715 0.22056
-0.0815718 -0.240582 0.222885
0.194793 -0.144877 -0.223931
0.139889 -0.15227 -0.224793
0.190319 -0.19912 0.218968
0.168383 -0.202098 0.219249
-0.0995418 -0.238464 0.222635
-0.118336 -0.241015 0.222872
0.206413 -0.140669 -0.223473
-0.0713103 -0.177374 -0.227754
0.150632 -0.20056 0.219058
0.118038 -0.204898 0.219459
-0.14356 -0.239722 0.222705
-0.156679 -0.241468 0.222869
0.102436 -0.151508 -0.224769
0.0892667 -0.204622 0.219384
-0.0348969 -0.221909 0.229743
-0.176212 -0.239268 0.222606
-0.19668 -0.241938 0.222852
0.0778295 -0.151733 -0.224832
-0.138191 -0.179209 -0.22805
-0.159185 -0.181879 -0.228364
-0.0500879 -0.21834 0.220605
-0.0678192 -0.220607 0.220813
0.0623848 -0.150692 -0.22475
-0.0921127 -0.169958 -0.227009
-0.111754 -0.172408 -0.227295
0.229569 -0.179589 0.223251
0.208357 -0.1815 0.217149
-0.0916055 -0.219074 0.220616
-0.110211 -0.221405 0.220831
-0.0369353 -0.159823 -0.225861
0.191558 -0.179772 0.216942
0.169689 -0.182455 0.217191
0.070244 -0.194652 0.218311
-0.128748 -0.219058 0.220554
-0.148157 -0.221439 0.220779
0.225174 -0.126343 -0.211769
-0.0212485 -0.155673 -0.216753
-0.0741663 -0.161025 -0.226045
-0.182905 -0.174043 -0.227581
0.151993 -0.180691 0.216974
0.119498 -0.184592 0.217335
-0.174195 -0.219847 0.220575
-0.187745 -0.221473 0.220722
0.163543 -0.129806 -0.222401
0.119208 -0.135004 -0.223014
0.0908196 -0.183944 0.21722
-0.0426459 -0.199616 0.218655
-0.0661382 -0.202375 0.218906
0.204285 -0.122372 -0.221559
0.136999 -0.130092 -0.222472
-0.127693 -0.160464 -0.226068
-0.0898538 -0.200599 0.218683
0.0996716 -0.131455 -0.222673
-0.149059 -0.159375 -0.225987
0.228244 -0.160714 0.218433
0.209542 -0.162447 0.215154
-0.107953 -0.198072 0.218391
-0.133285 -0.200914 0.218647
-0.146226 -0.202366 0.218779
0.175197 -0.120244 -0.22138
0.0798575 -0.130708 -0.222627
-0.0956842 -0.149975 -0.22492
0.188482 -0.16098 0.214968
0.0718611 -0.173761 0.216121
-0.0299548 -0.18492 0.217131
-0.172184 -0.200509 0.21855
0.0593482 -0.129935 -0.222578
-0.0282911 -0.139335 -0.223699
-0.0522162 -0.141901 -0.224007
0.171248 -0.158995 0.214733
0.148804 -0.161396 0.214944
0.12095 -0.164377 0.215221
-0.192003 -0.197861 0.21824
-0.0713174 -0.140598 -0.223901
-0.172472 -0.151195 -0.225167
-0.0522631 -0.178456 0.216422
-0.0699993 -0.180308 0.216587
-0.0881095 -0.182198 0.216758
0.223835 -0.10727 -0.2178
-0.117324 -0.14195 -0.224111
-0.112401 -0.180126 0.216504
-0.131408 -0.182061 0.216676
0.143733 -0.112436 -0.22061
0.116545 -0.115149 -0.220936
-0.138391 -0.140581 -0.224004
0.226878 -0.141936 0.213719
0.0978609 -0.154667 0.214167
-0.156906 -0.179935 0.21641
-0.176888 -0.181917 0.216591
-0.0147845 -0.125864 -0.213294
-0.0857359 -0.131935 -0.223015
0.206761 -0.140093 0.212804
0.194021 -0.141323 0.212913
0.0684344 -0.153453 0.213986
0.15616 -0.105619 -0.219877
0.0968852 -0.111236 -0.220561
0.163669 -0.140372 0.212769
0.127099 -0.143809 0.213071
-0.0333053 -0.158884 0.2144
-0.0564858 -0.161063 0.214592
0.177066 -0.1009 -0.219349
0.0769376 -0.110137 -0.220477
-0.0255634 -0.119593 -0.221626
-0.0798809 -0.158748 0.214312
-0.0981773 -0.16042 0.214461
0.197212 -0.0963522 -0.218841
-0.068472 -0.120197 -0.221759
-0.122715 -0.15804 0.214173
-0.135474 -0.159172 0.214271
-0.161547 -0.161487 0.21447
-0.107694 -0.120263 -0.221823
-0.127859 -0.122022 -0.222043
-0.16283 -0.125073 -0.222413
-0.177304 -0.126335 -0.222572
0.104218 -0.13386 0.211995
-0.0181893 -0.144702 0.216495
-0.181097 -0.158451 0.214121
0.123504 -0.0972154 -0.219047
-0.045004 -0.111494 -0.220808
0.225412 -0.120138 0.216263
0.203739 -0.121511 0.21085
-0.0432082 -0.142155 0.212631
0.222426 -0.0868792 -0.209153
-0.0104727 -0.105969 -0.212297
0.173828 -0.120165 0.210667
0.146976 -0.12234 0.21085
0.123843 -0.124214 0.211011
-0.0662215 -0.13961 0.21233
-0.0902853 -0.141559 0.212493
0.1453 -0.08972 -0.218228
-0.157707 -0.113875 -0.221233
0.075702 -0.124015 0.210918
-0.108332 -0.138445 0.21214
-0.13359 -0.140426 0.212306
-0.146496 -0.141438 0.212395
0.103661 -0.0901082 -0.218336
0.0843228 -0.0916014 -0.218521
-0.0346302 -0.100785 -0.219669
-0.165707 -0.138222 0.212027
0.178933 -0.0815538 -0.217317
0.0639001 -0.090146 -0.218399
-0.0656312 -0.0998209 -0.219619
-0.0910559 -0.10172 -0.219855
0.0960467 -0.114334 0.209934
0.199047 -0.0773573 -0.216846
-0.111387 -0.0997644 -0.21968
-0.131692 -0.10123 -0.219869
0.224144 -0.101891 0.218462
-0.0241089 -0.118782 0.210211
-0.0354688 -0.119585 0.210277
-0.064553 -0.121639 0.21045
-0.0764674 -0.122481 0.210519
-0.0482759 -0.0918914 -0.21876
0.196709 -0.0994044 0.208519
0.183827 -0.100281 0.208593
0.157369 -0.102082 0.208745
0.125278 -0.104266 0.208923
-0.10035 -0.119622 0.210177
-0.125353 -0.121324 0.210315
0.125465 -0.0769058 -0.216916
-0.00618362 -0.0861789 -0.211305
0.0772924 -0.103448 0.208764
-0.150599 -0.118369 0.209969
0.151973 -0.0723091 -0.216393
0.0567495 -0.100712 0.20936
0.220949 -0.0656695 -0.207747
0.106047 -0.0723436 -0.216469
-0.0318778 -0.0809103 -0.217582
-0.169646 -0.0894674 -0.218695
0.107209 -0.0934814 0.207765
-0.0225637 -0.101308 0.208381
0.0863456 -0.0705824 -0.216313
0.0663926 -0.0717714 -0.21647
-0.0753506 -0.080218 -0.21758
-0.101198 -0.0817587 -0.217774
-0.148878 -0.0846 -0.218147
-0.0449703 -0.0982654 0.208028
-0.0565985 -0.0989366 0.208079
-0.0803431 -0.100307 0.208189
-0.098583 -0.10136 0.208268
0.180802 -0.0622053 -0.215286
-0.121863 -0.0794787 -0.217569
0.222576 -0.0795184 0.214091
0.193665 -0.0807137 0.206554
0.163161 -0.0823962 0.206688
0.126707 -0.0844065 0.206843
-0.123049 -0.0981798 0.207895
-0.135769 -0.0988812 0.207948
-0.161766 -0.100315 0.208058
-0.0515745 -0.0721311 -0.216694
0.0638507 -0.0837641 0.206672
0.200572 -0.0556762 -0.21457
-0.00195217 -0.0666874 -0.206428
-0.00492209 -0.0834426 0.213833
0.131984 -0.0563685 -0.214754
0.103905 -0.0736546 0.205683
0.0844508 -0.0745768 0.205743
-0.0150535 -0.079295 0.206086
-0.0376285 -0.0803654 0.206164
-0.0608177 -0.0814649 0.20624
-0.0232396 -0.0607825 -0.215459
-0.084224 -0.0780913 0.205852
-0.0963841 -0.0786367 0.205892
-0.127534 -0.0800334 0.205989
-0.153259 -0.0811868 0.206065
-0.166401 -0.081776 0.206104
0.21965 -0.0470173 -0.206511
0.149149 -0.0498498 -0.214044
0.108037 -0.051677 -0.214298
-0.066194 -0.0594205 -0.215385
-0.0917244 -0.0605554 -0.215538
-0.111519 -0.0614353 -0.215658
-0.131889 -0.0623406 -0.215787
0.221268 -0.0608893 0.209299
0.199129 -0.0616331 0.204563
0.182005 -0.0623569 0.204612
0.128131 -0.0646343 0.204772
0.199329 -0.04491 -0.213443
0.0883704 -0.0495608 -0.214106
0.0684468 -0.0503959 -0.214223
-0.160676 -0.0599996 -0.21559
0.16029 -0.0594249 0.204273
0.0604175 -0.0633894 0.204532
0.130499 -0.0449096 -0.213554
-0.0366809 -0.0514939 -0.214506
-0.000475526 -0.0619264 0.215088
-0.00250047 -0.0616204 0.204246
-0.0247171 -0.0624455 0.204304
0.182346 -0.0401122 -0.212968
0.00230479 -0.0470457 -0.205454
0.100595 -0.0537938 0.203595
0.0810833 -0.0544678 0.203629
-0.035653 -0.058502 0.203874
-0.0646338 -0.0595034 0.203931
-0.076506 -0.0599136 0.203955
-0.106922 -0.0609649 0.204023
-0.125686 -0.0616133 0.204062
-0.151332 -0.0624995 0.204112
-0.0205117 -0.041045 -0.213385
-0.0627838 -0.0423886 -0.213592
-0.135118 -0.044688 -0.213941
0.219967 -0.0423432 0.204528
0.129549 -0.044949 0.202708
-0.0759579 -0.0393928 -0.213297
-0.101905 -0.0401519 -0.213412
-0.122023 -0.0407403 -0.213507
-0.156892 -0.0417602 -0.213672
0.20057 -0.0391225 0.202206
0.17918 -0.0396969 0.202231
0.161607 -0.0401689 0.202257
0.151071 -0.0299116 -0.211948
0.110027 -0.0310081 -0.212126
0.0908071 -0.0315215 -0.212212
0.0709336 -0.0320525 -0.212297
0.00441343 -0.0403158 0.209093
-0.0227886 -0.0408136 0.202037
-0.0455202 -0.0413658 0.20206
-0.0748121 -0.0420773 0.202086
-0.0868167 -0.042369 0.202101
0.21817 -0.0256779 -0.201374
-0.0399172 -0.0316871 -0.212434
0.111648 -0.0335868 0.201489
0.0924333 -0.0340043 0.201505
0.0677384 -0.0345408 0.201517
-0.110879 -0.0384224 0.201652
-0.136068 -0.0389697 0.201669
0.132452 -0.0246293 -0.211422
0.00654972 -0.0274264 -0.20836
0.180055 -0.0208283 -0.21095
-0.00622869 -0.0211394 -0.211275
-0.0599468 -0.0220287 -0.211451
-0.0853034 -0.0224485 -0.211533
0.218435 -0.0203073 0.207127
0.201765 -0.0204499 0.200251
0.180439 -0.0207495 0.200247
0.158474 -0.0210581 0.200248
0.140427 -0.0213117 0.200248
0.217419 -0.0148863 -0.200653
0.199925 -0.0150034 -0.210307
-0.112265 -0.0193775 -0.211251
-0.132724 -0.0196641 -0.211313
-0.146698 -0.0198599 -0.211358
0.00901949 -0.0190548 0.210083
-0.0153034 -0.0192221 0.199786
-0.0377994 -0.0194806 0.199775
-0.0609106 -0.0197462 0.199765
-0.0846639 -0.0200192 0.199759
-0.0967906 -0.0201586 0.199758
-0.115297 -0.0203713 0.199752
-0.140585 -0.0206619 0.199741
0.0093497 -0.0145511 -0.202546
0.117831 -0.013757 0.199417
0.0987947 -0.0139271 0.199407
0.0792839 -0.0141015 0.199395
0.059278 -0.0142802 0.199382
0.148582 -0.0100105 -0.209863
0.112021 -0.0103366 -0.209957
0.0879354 -0.0105514 -0.21002
0.0679278 -0.0107299 -0.210067
0.0524762 -0.0108678 -0.210106
-0.0311539 -0.0116138 -0.210314
0.21714 -0.001842 0.202358
0.194524 -0.00186597 0.198292
0.164227 -0.00190461 0.198245
0.0126854 -0.00210704 0.205556
-0.0137903 -0.0021317 0.197995
-0.0362239 -0.00216032 0.197962
-0.059267 -0.00218971 0.197926
-0.0829484 -0.00221992 0.197892
-0.0950385 -0.00223535 0.197878
-0.126005 -0.00227485 0.197834
0.181932 -0.00138863 -0.208909
-0.00927687 -0.00163249 -0.209234
-0.0571132 -0.0016935 -0.209313
-0.075985 -0.00171756 -0.209345
-0.101999 -0.00175074 -0.209389
-0.129038 -0.00178523 -0.209435
0.133204 0.00582955 0.197389
0.114575 0.0059008 0.197352
0.0857581 0.00601103 0.197297
0.0659428 0.00608682 0.197258
0.128726 0.00437165 -0.208387
0.0952641 0.00750147 -0.208116
0.075476 0.00762776 -0.208132
0.055012 0.00775836 -0.208149
-0.0283961 0.00829064 -0.208221
0.213101 0.0094517 -0.207725
0.150517 0.010011 -0.207763
0.051745 0.0184094 0.195946
0.00447619 0.0189514 0.19581
-0.0174391 0.0192027 0.195749
-0.0456643 0.0195263 0.19567
-0.0748571 0.019861 0.195589
-0.0868171 0.0199982 0.195557
-0.105071 0.0202075 0.195507
-0.136354 0.0205662 0.195419
0.0156527 0.0145155 -0.199168
-0.111765 0.0158888 -0.207557
0.215599 0.0203182 0.204953
0.204378 0.0203562 0.19598
0.174538 0.0207743 0.195887
0.018146 0.0230989 0.205421
-0.000852048 0.0178663 -0.207176
-0.0481257 0.0185306 -0.207177
-0.0731016 0.0188815 -0.20718
-0.0859457 0.0190619 -0.207183
-0.132907 0.0197217 -0.207189
-0.146927 0.0199187 -0.207191
0.14372 0.0250553 0.195387
0.116027 0.0255137 0.195298
0.0969941 0.0258289 0.195239
0.0774872 0.0261518 0.195175
-0.097746 0.0287426 0.174918
-0.102544 0.0285027 0.154632
-0.107087 0.0282612 0.134509
0.183811 0.0180531 -0.206869
-0.036702 0.0319542 0.172675
-0.0417489 0.0316945 0.153068
-0.0466168 0.0314352 0.133673
-0.0515084 0.0311841 0.114698
-0.0585558 0.0308094 0.0866551
-0.1051 0.0283863 -0.0957285
0.0208417 0.0355706 0.202068
0.0213973 0.0350081 0.17535
0.016072 0.0347325 0.156356
0.00957191 0.0343922 0.132985
0.00445873 0.034125 0.11462
-0.00433326 0.0336685 0.0831925
-0.0115555 0.0332814 0.0567869
-0.0151888 0.0330947 0.0438934
0.126093 0.0248741 -0.206243
0.0523349 0.0264768 -0.206192
-0.0626236 0.0306136 -0.12656
-0.0197412 0.0280432 -0.206136
0.064019 0.0385029 0.193185
0.0743697 0.0377916 0.173198
0.0688756 0.0375012 0.154796
0.0593644 0.0370088 0.12338
0.0514415 0.0365952 0.0970631
0.0475475 0.0363918 0.0841226
0.0386378 0.0359253 0.0544694
0.0324287 0.0355986 0.0337328
0.0194585 0.0353608 0.00972968
0.106918 0.0282734 -0.205918
0.0874932 0.0287452 -0.205901
0.0724911 0.0291097 -0.205885
-0.0242139 0.0326411 -0.15444
0.214309 0.0387025 0.200186
0.184429 0.0393455 0.193958
0.125276 0.0404672 0.175681
0.118154 0.0400917 0.153417
0.10974 0.0396527 0.127293
0.10559 0.0394374 0.114459
0.0961374 0.0389408 0.0849772
0.0895171 0.0385944 0.0643848
0.0830244 0.0382535 0.0441433
0.0766276 0.0379195 0.0242756
0.0559036 0.0380974 0.00941825
0.0653325 0.0373359 -0.0105662
0.0592968 0.0370147 -0.0295525
0.156844 0.0299166 -0.205667
0.00645971 0.0346876 -0.176705
0.0198287 0.0337815 -0.198221
-0.126881 0.0376046 -0.202637
0.171621 0.0429035 0.173666
0.161404 0.0423669 0.143641
0.151422 0.0418447 0.114382
0.144441 0.0414796 0.0939208
0.137581 0.0411208 0.0738136
0.130887 0.040765 0.0539905
0.124257 0.0404185 0.0345698
0.108794 0.0401843 0.00986379
0.108706 0.0396159 -0.0106247
0.102509 0.0392847 -0.0290377
0.09513 0.0388992 -0.050652
0.0890917 0.0385835 -0.0683435
-0.0358097 0.03849 -0.203366
-0.0609798 0.039242 -0.20292
-0.0881275 0.0400692 -0.201855
0.176198 0.045887 0.153824
0.176198 0.0453114 0.134824
0.176199 0.0445661 0.11022
0.176159 0.044026 0.0923482
0.175725 0.0433536 0.0696949
0.172063 0.0429333 0.0519606
0.163971 0.0425087 0.0294141
0.157357 0.0421607 0.0109534
0.136499 0.0427841 0.0095436
0.149454 0.0417577 -0.0106798
0.143092 0.0414206 -0.0285158
0.135529 0.0410272 -0.0494757
0.128161 0.0406378 -0.0700955
0.120904 0.0402575 -0.0903001
0.214012 0.0340402 -0.197387
-0.176785 0.047123 -0.177485
0.176022 0.0455248 0.0303627
0.175722 0.0440077 -0.0163256
0.17566 0.0433607 -0.0361671
0.171111 0.0428975 -0.0551221
0.163634 0.0425042 -0.0750236
0.152673 0.0419277 -0.104201
0.145508 0.0415533 -0.123196
0.181516 0.037641 -0.204819
-0.114816 0.0482283 -0.193601
0.175877 0.0448941 -0.0837065
0.175883 0.0441065 -0.106113
0.174981 0.0431149 -0.135281
0.05743 0.0451152 -0.202279
-0.0112678 0.0491566 -0.159689
-0.0073064 0.0476329 -0.198874
-0.131704 0.0527869 -0.183341
-0.170777 0.0549165 -0.163928
0.191827 0.0573505 0.182297
0.166376 0.0580833 0.174976
0.162018 0.0570458 0.14276
0.162027 0.0563441 0.12409
0.135734 0.0451032 -0.20288
-0.171874 0.0599304 -0.13243
0.212776 0.0604364 0.189021
0.171456 0.0588116 0.10483
0.161574 0.0581196 0.0771069
0.161872 0.0571842 0.0540281
0.161888 0.0560881 0.0266316
0.161903 0.0550332 0.000266254
0.213205 0.0451494 -0.192827
0.115666 0.048912 -0.201558
0.0951987 0.0498181 -0.200473
0.0845045 0.0502966 -0.199781
0.0241378 0.0535686 -0.181591
0.0153584 0.0534006 -0.195046
-0.0367516 0.0559262 -0.186819
-0.172806 0.0649572 -0.104397
0.212546 0.0632712 0.169255
0.212582 0.0621629 0.14316
0.212294 0.0613912 0.124662
0.20367 0.0605123 0.094847
0.191086 0.0598498 0.0659581
0.161739 0.0575198 -0.0199178
0.161753 0.0566794 -0.0397201
0.161766 0.0558632 -0.0589515
0.16092 0.0498481 -0.201675
-0.173771 0.0701701 -0.0753247
-0.173127 0.0660788 -0.171114
0.212448 0.0624604 0.0704247
0.212268 0.0614611 0.0479466
0.209178 0.0608082 0.0301266
0.200135 0.0603321 0.00997287
0.191231 0.0598635 -0.00986558
0.161401 0.0580474 -0.0818197
0.16163 0.0572174 -0.10009
0.161644 0.0564301 -0.117636
0.161661 0.0554759 -0.138901
-0.174737 0.0753534 -0.0501664
0.212353 0.0619923 -0.011025
0.211685 0.0611121 -0.030355
0.204079 0.060545 -0.0503727
0.195565 0.0600975 -0.0688164
0.185778 0.0595851 -0.0899788
-0.175811 0.0811973 -0.0138275
-0.175656 0.0802151 -0.0344467
-0.174747 0.0745759 -0.15282
0.211956 0.0613839 -0.0876808
0.206296 0.0606666 -0.108086
0.196811 0.0601692 -0.128095
0.187476 0.0596804 -0.147776
-0.176893 0.0870354 0.0187312
-0.175719 0.0798103 -0.125463
0.211695 0.0612573 -0.147853
0.183691 0.0603133 -0.195493
0.113262 0.0647712 -0.18418
-0.178017 0.0931071 0.0525925
-0.176687 0.0849887 -0.101817
0.157437 0.065081 -0.18718
-0.179188 0.0994268 0.0878367
-0.179028 0.0984668 0.0704005
-0.177725 0.0905957 -0.072578
-0.17697 0.0860123 -0.155838
-0.18041 0.10601 0.124552
-0.179102 0.0981929 -0.0113326
-0.178761 0.0961259 -0.0472669
-0.184057 0.0890269 -0.1775
0.211649 0.068612 -0.167993
-0.181678 0.112873 0.162824
-0.181487 0.111737 0.1439
-0.180529 0.106047 0.0490725
-0.179717 0.101215 -0.0314553
-0.17917 0.0979425 -0.0859942
-0.179666 0.100256 -0.113775
-0.179425 0.0988273 -0.136635
-0.182691 0.117534 0.0908571
-0.182438 0.116021 0.0675651
-0.182003 0.113464 0.0282092
-0.191958 0.112906 0.0090304
-0.184349 0.126628 0.159023
-0.181713 0.111193 -0.0698071
-0.183185 0.119236 -0.0134504
-0.191406 0.108503 -0.177513
-0.185869 0.134276 0.135578
-0.185716 0.133383 0.123252
-0.184557 0.126647 0.0302457
-0.185165 0.125183 0.00912476
-0.183507 0.120558 -0.0538195
-0.186223 0.135775 0.093903
-0.185692 0.132733 0.0533081
-0.184578 0.126269 -0.032972
-0.183565 0.120405 -0.11124
-0.183329 0.119023 -0.129683
-0.188199 0.146601 0.175321
-0.188023 0.145604 0.162447
-0.188248 0.146386 0.113453
-0.187673 0.14307 0.0719528
-0.1856 0.131181 -0.0768129
-0.184565 0.125234 -0.151223
-0.189505 0.153062 0.138872
-0.187514 0.14079 -0.0101919
-0.185078 0.127742 -0.168338
-0.189088 0.150204 0.0504825
-0.198915 0.147603 0.0090186
-0.187577 0.141592 -0.0509293
-0.191826 0.16529 0.17235
-0.190497 0.157731 0.08588
-0.190312 0.156706 0.0741647
-0.189619 0.152741 0.0288045
-0.187568 0.141131 -0.10398
-0.187285 0.1395 -0.122634
-0.192352 0.16781 0.147648
-0.192053 0.166125 0.128913
-0.188901 0.148263 -0.0696974
-0.190628 0.157637 -0.0130699
-0.190287 0.155712 -0.0338943
-0.18863 0.14633 -0.13538
-0.19357 0.173812 0.112135
-0.19258 0.168228 0.0533271
-0.192205 0.166094 0.0308515
-0.190774 0.15807 -0.0536389
-0.198832 0.147304 -0.177524
-0.194062 0.176153 0.0889109
-0.198915 0.168995 0.0090186
-0.19075 0.157554 -0.101896
-0.195713 0.185031 0.132183
-0.191219 0.159801 -0.120134
-0.197332 0.193687 0.171124
-0.196864 0.191065 0.14554
-0.195424 0.18301 0.0669746
-0.191264 0.159707 -0.160343
-0.195885 0.185189 0.0448229
-0.19475 0.178883 -0.0152028
-0.193698 0.172994 -0.0712692
-0.192451 0.166037 -0.137506
-0.198006 0.196655 0.110019
-0.195093 0.180457 -0.0405599
-0.19978 0.206166 0.154426
-0.19809 0.196781 0.0691774
-0.196976 0.190584 0.0128897
-0.19495 0.179292 -0.0896773
-0.194293 0.175649 -0.122765
-0.201107 0.213183 0.174642
-0.199338 0.203373 0.0875439
-0.196154 0.185677 -0.0695879
-0.198835 0.174087 -0.177522
-0.197923 0.195193 -0.0232148
-0.201919 0.216994 0.125494
-0.201661 0.215547 0.113193
-0.199922 0.205927 0.0314588
-0.196285 0.185791 -0.139634
-0.203815 0.227119 0.170771
-0.20192 0.216673 0.0838932
-0.200317 0.2078 0.0100887
-0.199166 0.201453 -0.0426994
-0.196299 0.185583 -0.174695
-0.204338 0.229654 0.152312
-0.202307 0.218473 0.0612504
-0.199013 0.200275 -0.086977
-0.198588 0.19792 -0.10616
-0.205628 0.236163 0.128761
-0.207627 0.246811 0.174299
-0.205692 0.236196 0.0929071
-0.20418 0.227902 0.0293135
-0.202775 0.220172 -0.0299622
-0.202048 0.216172 -0.0606307
-0.20796 0.248321 0.149339
-0.207048 0.243337 0.11186
-0.205613 0.235462 0.0526342
-0.205932 0.22985 0.00900739
-0.204009 0.22666 -0.0135651
-0.202403 0.217839 -0.0799121
-0.20081 0.209076 -0.145818
-0.20027 0.206114 -0.16809
-0.20275 0.219468 -0.0987692
-0.202048 0.215636 -0.12704
-0.209368 0.255479 0.132055
-0.209673 0.256851 0.108133
-0.208602 0.250979 0.0663778
-0.206184 0.237775 -0.0275059
-0.212262 0.270702 0.172181
-0.211586 0.267005 0.146363
-0.208602 0.250737 0.0327637
-0.211045 0.263796 0.0915412
-0.207207 0.242859 -0.0520957
-0.206539 0.239208 -0.0771425
-0.204655 0.228887 -0.147957
-0.204177 0.226283 -0.165822
-0.22014 0.257783 0.00898266
-0.206843 0.240609 -0.0961083
-0.205941 0.235702 -0.129184
-0.213564 0.277007 0.117478
-0.212236 0.269743 0.0693374
-0.211591 0.266251 0.0461965
-0.216127 0.29067 0.175733
-0.21576 0.288665 0.162661
-0.215215 0.285706 0.143385
-0.210478 0.259953 -0.0244111
-0.209891 0.256761 -0.0452108
-0.214746 0.282894 0.0946423
-0.212743 0.272028 0.0250164
-0.210715 0.260761 -0.0743458
-0.209725 0.255364 -0.10837
-0.208642 0.249464 -0.145571
-0.207985 0.245911 -0.167964
-0.217331 0.29645 0.120726
-0.215894 0.288646 0.0723175
-0.21339 0.275068 -0.011906
-0.219824 0.309716 0.172716
-0.219043 0.305468 0.14678
-0.217358 0.296323 0.090946
-0.215762 0.287707 0.0383503
-0.211805 0.266214 -0.0928832
-0.210659 0.259998 -0.130834
-0.216145 0.289558 0.0221753
-0.214487 0.280575 -0.0318186
-0.214238 0.278981 -0.0670893
-0.211711 0.265278 -0.148199
-0.221325 0.317118 0.13027
-0.215565 0.285967 -0.0513083
-0.213845 0.276628 -0.105751
-0.224001 0.330013 0.176527
-0.223315 0.327639 0.163154
-0.221287 0.316663 0.100125
-0.220315 0.311443 0.0701608
-0.212595 0.26968 -0.169658
-0.22029 0.311089 0.0418839
-0.220174 0.305451 0.00900769
-0.21848 0.301312 -0.0134306
-0.217787 0.297572 -0.0345948
-0.214577 0.280183 -0.132989
-0.224952 0.335785 0.127298
-0.218152 0.299113 -0.0742553
-0.217652 0.296415 -0.0890821
-0.215741 0.286095 -0.145806
-0.227452 0.349072 0.173256
-0.225057 0.336159 0.103284
-0.224025 0.330599 0.0731614
-0.223223 0.326282 0.0497707
-0.227761 0.350496 0.154514
-0.22201 0.319543 -0.0108682
-0.220555 0.31168 -0.052883
-0.218167 0.298811 -0.121643
-0.216271 0.288597 -0.176216
-0.22426 0.331445 0.0283713
-0.222147 0.320079 -0.0315217
-0.228802 0.355679 0.130617
-0.224565 0.332913 0.0122887
-0.221738 0.317668 -0.066965
-0.228864 0.355806 0.106475
-0.227764 0.3499 0.0761856
-0.226911 0.345314 0.0526689
-0.221514 0.316297 -0.0961352
-0.219639 0.306191 -0.147968
-0.22402 0.329561 -0.0505109
-0.227908 0.350283 0.031157
-0.226257 0.341432 -0.0130416
-0.222129 0.319252 -0.123813
-0.22043 0.310097 -0.169539
-0.228878 0.355141 0.0101151
-0.227233 0.346268 -0.0330743
-0.225656 0.337824 -0.0741658
-0.225368 0.336112 -0.10316
-0.228179 0.350999 -0.0526882
-0.224906 0.333474 -0.135838
-0.223832 0.327701 -0.163235
-0.229287 0.325964 -0.17757
-0.226486 0.341767 -0.116512
-0.229973 0.360101 -0.0713176
-0.229158 0.355744 -0.0912397
-0.230056 0.360228 -0.109633
-0.228672 0.352835 -0.142644
-0.228096 0.349758 -0.15638
-0.238159 0.355467 -0.176997
