ply
format ascii 1.0
comment Created by Open3D
element vertex 887
property double x
property double y
property double z
end_header
0.156886 -0.177688 -0.379176
0.156916 -0.17802 -0.359983
0.142685 -0.175709 -0.389069
0.145698 -0.169683 -0.423916
0.133902 -0.171715 -0.423181
0.156942 -0.177838 -0.343471
0.163155 -0.168706 -0.395508
0.121996 -0.176285 -0.389101
0.110887 -0.168768 -0.431251
0.157002 -0.177998 -0.305378
0.15703 -0.177807 -0.287208
0.1711 -0.162464 -0.375792
0.0912307 -0.166127 -0.432816
0.15706 -0.17761 -0.268468
0.171275 -0.162078 -0.359923
0.0664433 -0.167176 -0.432245
0.157096 -0.177974 -0.245189
0.155631 -0.151633 -0.429495
0.0404823 -0.168274 -0.431649
0.157128 -0.177773 -0.225097
0.171229 -0.162356 -0.319545
0.169217 -0.151356 -0.399266
0.134848 -0.151229 -0.435281
0.0214218 -0.168141 -0.431757
0.157161 -0.177565 -0.204341
0.171415 -0.161948 -0.301994
0.171528 -0.156602 -0.340293
0.113105 -0.151686 -0.435312
0.0902526 -0.154944 -0.43525
0.0017187 -0.168002 -0.431868
0.157201 -0.177947 -0.178511
0.171393 -0.162089 -0.280017
0.153085 -0.146808 -0.410505
-0.0186605 -0.16786 -0.431983
0.157236 -0.177734 -0.156176
0.171372 -0.162235 -0.257193
-0.0397508 -0.167712 -0.432103
0.157273 -0.177514 -0.133061
0.171349 -0.162387 -0.233472
-0.0615905 -0.167558 -0.432226
0.157318 -0.177918 -0.104237
0.17155 -0.161949 -0.213181
0.171487 -0.14213 -0.366515
0.066805 -0.147055 -0.435384
0.00952661 -0.154619 -0.435407
-0.0842198 -0.1674 -0.432354
0.157357 -0.177692 -0.0792596
0.17153 -0.162101 -0.187685
0.171507 -0.141064 -0.353558
0.0545978 -0.145833 -0.435404
-0.107683 -0.167235 -0.432487
0.157398 -0.177458 -0.0533598
0.171742 -0.161642 -0.165857
0.171554 -0.142087 -0.323259
0.167848 -0.132461 -0.404435
0.155631 -0.130897 -0.429495
-0.0176359 -0.152167 -0.435518
0.157449 -0.177884 -0.0209894
0.171488 -0.162425 -0.133445
0.171593 -0.142284 -0.29853
0.134848 -0.130188 -0.435281
-0.0389752 -0.151808 -0.43555
0.157493 -0.177644 0.00712788
0.171709 -0.161951 -0.109717
0.171633 -0.142489 -0.272707
0.113105 -0.130208 -0.435312
0.0293633 -0.140413 -0.435445
-0.0841042 -0.154246 -0.435582
0.157539 -0.177395 0.0363483
0.171691 -0.162115 -0.0797869
0.171663 -0.141789 -0.253552
0.0787516 -0.131624 -0.435365
0.157597 -0.177847 0.0729628
0.171926 -0.161617 -0.0541041
0.171712 -0.142458 -0.221594
-0.0997719 -0.149711 -0.435644
0.157647 -0.17759 0.104851
0.171912 -0.16178 -0.0216433
0.171751 -0.142203 -0.196499
0.171477 -0.122467 -0.372881
0.00297022 -0.134745 -0.435487
0.157699 -0.177323 0.138075
0.157667 -0.175123 0.117976
0.172065 -0.161278 0.0063659
0.171798 -0.142425 -0.165912
0.171507 -0.12189 -0.353558
0.0545979 -0.126011 -0.435404
0.157765 -0.177804 0.179826
0.17212 -0.161424 0.0416158
0.171841 -0.142157 -0.138499
0.171554 -0.122392 -0.323259
0.153085 -0.115066 -0.410505
-0.0176359 -0.131075 -0.435518
0.157822 -0.177529 0.216298
0.157799 -0.175984 0.201519
0.172167 -0.160921 0.072305
0.171893 -0.142388 -0.10502
0.171593 -0.122163 -0.29853
0.170048 -0.112364 -0.393716
0.155631 -0.11016 -0.429495
0.134848 -0.111778 -0.435281
-0.0389752 -0.13034 -0.43555
0.157894 -0.178039 0.262235
0.170404 -0.166393 0.161078
0.172228 -0.161065 0.11082
0.171939 -0.142106 -0.0749512
0.171924 -0.141068 -0.0851205
0.171639 -0.12231 -0.268925
0.113105 -0.111415 -0.435312
0.0293633 -0.120147 -0.435445
-0.107795 -0.13445 -0.435658
0.157957 -0.177755 0.302457
0.172269 -0.15985 0.137585
0.172197 -0.155242 0.0913247
0.171971 -0.140753 -0.0541573
0.171669 -0.121283 -0.249648
0.0787516 -0.112226 -0.435365
0.0545978 -0.114684 -0.435404
-0.0686371 -0.127225 -0.435595
0.158024 -0.177458 0.344578
0.170604 -0.166208 0.241798
0.172346 -0.160671 0.186676
0.172083 -0.14428 0.0179314
0.172039 -0.141504 -0.0106485
0.172005 -0.139359 -0.0327326
0.171731 -0.12222 -0.209172
0.171699 -0.120222 -0.22974
0.158093 -0.177146 0.388735
0.158065 -0.175449 0.370818
0.170869 -0.165683 0.280908
0.172393 -0.15939 0.2161
0.172302 -0.153914 0.158263
0.172148 -0.144599 0.0598807
0.171827 -0.12494 -0.147764
0.171785 -0.12238 -0.1748
-0.00381923 -0.114672 -0.435497
0.171149 -0.165133 0.321836
0.172465 -0.159506 0.262252
0.17212 -0.139159 0.0416158
0.171878 -0.124738 -0.114756
0.171502 -0.102415 -0.356826
0.172238 -0.142253 0.117427
0.172217 -0.141072 0.104268
0.171848 -0.119701 -0.133817
0.171549 -0.102387 -0.326707
0.16124 -0.0959007 -0.40939
-0.0176359 -0.109982 -0.435518
-0.0389752 -0.111939 -0.43555
-0.0686371 -0.11466 -0.435595
0.172625 -0.159757 0.362584
0.172583 -0.157474 0.336426
0.172515 -0.15381 0.294452
0.172269 -0.140115 0.137585
0.172177 -0.134965 0.0785931
0.171988 -0.124304 -0.0435255
0.171939 -0.121561 -0.0749512
0.171924 -0.120673 -0.0851205
0.171598 -0.102358 -0.294909
0.171582 -0.101416 -0.305704
0.172654 -0.156773 0.380448
0.172542 -0.150881 0.311005
0.172381 -0.142197 0.208646
0.172346 -0.140333 0.186676
0.172056 -0.124551 0.000650406
0.17165 -0.102327 -0.261287
0.171468 -0.0923255 -0.379174
0.134848 -0.0907371 -0.435281
0.0293633 -0.0998814 -0.435445
-0.0997719 -0.111076 -0.435644
0.172465 -0.142492 0.262252
0.172416 -0.139934 0.231207
0.172302 -0.133925 0.158263
0.172129 -0.124813 0.0476555
0.171764 -0.105407 -0.187907
0.171706 -0.102295 -0.225681
0.15219 -0.0868088 -0.433297
0.113105 -0.0899376 -0.435312
0.0545978 -0.0948623 -0.435404
0.158616 -0.15238 0.424765
0.172597 -0.144856 0.345062
0.171731 -0.100561 -0.209172
0.0787516 -0.0900583 -0.435365
0.171936 -0.144005 0.390859
0.17264 -0.142445 0.371472
0.172228 -0.122254 0.11082
0.172101 -0.115969 0.02968
0.17203 -0.112412 -0.016233
0.171878 -0.10478 -0.114756
0.171812 -0.101515 -0.156901
0.172556 -0.134017 0.319399
0.172269 -0.120381 0.137585
0.171848 -0.100024 -0.133817
-0.0176359 -0.0919029 -0.435518
0.172503 -0.127222 0.28629
0.17244 -0.124341 0.246589
0.172393 -0.12213 0.2161
0.172346 -0.119995 0.186676
0.172167 -0.111698 0.072305
0.171939 -0.101015 -0.0749512
0.171924 -0.100277 -0.0851205
0.171513 -0.0810418 -0.350271
0.168804 -0.0774826 -0.402023
0.00297022 -0.0873622 -0.435487
-0.0389752 -0.0904716 -0.43555
0.172477 -0.121781 0.270191
0.172302 -0.113936 0.158263
0.172101 -0.104924 0.02968
0.171971 -0.0990483 -0.0541573
0.171604 -0.0824301 -0.291266
0.171576 -0.0811692 -0.309258
0.171544 -0.079706 -0.330134
0.153085 -0.075388 -0.410505
-0.0997719 -0.0917586 -0.435644
0.158616 -0.128937 0.424765
0.172654 -0.124964 0.380448
0.172197 -0.105412 0.0913247
0.172074 -0.100056 0.0121261
0.171771 -0.0868212 -0.183568
0.171669 -0.0823524 -0.249648
0.171639 -0.0810487 -0.268925
0.145119 -0.071627 -0.435118
0.134848 -0.0723267 -0.435281
0.0293633 -0.0796156 -0.435445
-0.0686371 -0.0863876 -0.435595
0.172611 -0.118682 0.35378
0.172515 -0.114816 0.294452
0.172259 -0.104152 0.130809
0.171738 -0.082269 -0.204975
0.171706 -0.0809196 -0.225681
0.171477 -0.0713268 -0.372881
0.113105 -0.0711447 -0.435312
0.172542 -0.111521 0.311005
0.172369 -0.104639 0.201258
0.172129 -0.0950068 0.0476555
0.172039 -0.0913506 -0.0106485
0.172005 -0.0899657 -0.0327326
0.171812 -0.0821792 -0.156901
0.0787516 -0.0706611 -0.435365
0.172416 -0.10234 0.231207
0.171955 -0.0845157 -0.0646313
0.1719 -0.0823788 -0.100099
0.17187 -0.0812055 -0.119572
-0.0317782 -0.0746943 -0.435539
0.158616 -0.110183 0.424765
0.172597 -0.104742 0.345062
0.172477 -0.100416 0.270191
0.172302 -0.0939473 0.158263
0.172217 -0.0908269 0.104268
0.172167 -0.0889798 0.072305
0.171841 -0.0767973 -0.138499
0.171523 -0.064942 -0.343638
0.152148 -0.0622494 -0.409954
0.0545979 -0.0665452 -0.435404
-0.084015 -0.0747302 -0.435618
0.17264 -0.101746 0.371472
0.17244 -0.0948367 0.246589
0.172129 -0.0838295 0.0476555
0.172074 -0.0818636 0.0121261
0.170872 -0.0599222 -0.385018
0.00297022 -0.0666322 -0.435487
-0.0536283 -0.0698322 -0.435572
-0.0997719 -0.072441 -0.435644
0.172556 -0.0944713 0.319399
0.172259 -0.0845003 0.130809
0.17141 -0.0623972 -0.287442
0.171297 -0.0614478 -0.305485
0.0293633 -0.062245 -0.435445
0.171936 -0.0937175 0.390859
0.172369 -0.0841215 0.201258
0.172101 -0.0754718 0.02968
0.172005 -0.0723254 -0.0327326
0.171778 -0.0649415 -0.179199
0.171405 -0.0616138 -0.245485
0.158616 -0.0914281 0.424765
0.172515 -0.084487 0.294452
0.172416 -0.0814542 0.231207
0.172197 -0.0747464 0.0913247
0.172039 -0.0698564 -0.0106485
0.171399 -0.0607725 -0.200431
0.171278 -0.0597806 -0.221205
0.145119 -0.05079 -0.435118
0.134848 -0.0512862 -0.435281
0.113105 -0.0523517 -0.435312
0.172477 -0.0790506 0.270191
0.172302 -0.0739585 0.158263
0.172167 -0.070048 0.072305
0.171713 -0.0624487 -0.094929
0.171577 -0.0613463 -0.119263
0.171393 -0.0598666 -0.151921
0.170194 -0.0501837 -0.365646
0.0787516 -0.0512639 -0.435365
0.00297022 -0.0547865 -0.435487
0.17264 -0.0791361 0.371472
0.172611 -0.0783747 0.35378
0.17244 -0.0737619 0.246589
0.172082 -0.064429 0.0297042
0.171633 -0.0608509 -0.0537666
0.171522 -0.0599628 -0.0744824
0.170479 -0.0516687 -0.26797
-0.0686371 -0.0549739 -0.435595
0.172542 -0.0721606 0.311005
0.172259 -0.064849 0.130809
0.0545979 -0.0467232 -0.435404
-0.0176359 -0.049718 -0.435518
-0.0389752 -0.0506027 -0.43555
0.17183 -0.0601938 0.11138
0.171315 -0.0562404 0.0073024
0.160032 -0.0410282 -0.402681
-0.0997719 -0.0499038 -0.435644
0.158616 -0.067985 0.424765
0.171936 -0.066288 0.390859
0.172596 -0.0646283 0.345063
0.172241 -0.0619812 0.270583
0.172056 -0.0606022 0.231782
0.171846 -0.0590262 0.187441
0.171274 -0.0547546 0.0672519
0.171216 -0.0543177 0.0549622
0.170887 -0.0518366 -0.0148456
0.170835 -0.0514449 -0.0258648
0.169585 -0.0420686 -0.289674
0.1695 -0.0414288 -0.307678
0.14204 -0.0389903 -0.404011
0.0293633 -0.0419791 -0.435445
0.172322 -0.0610778 0.372049
0.171388 -0.0542799 0.166656
0.169776 -0.0424635 -0.190352
0.16968 -0.0417642 -0.211482
0.16957 -0.0409548 -0.235936
0.16909 -0.037447 -0.341916
0.157287 -0.0350963 -0.424673
0.171732 -0.0552569 0.329333
0.171588 -0.0542359 0.296024
0.170971 -0.0498597 0.153255
0.169935 -0.0424652 -0.0879726
0.16983 -0.0417108 -0.112583
0.169768 -0.0412709 -0.126934
0.169688 -0.0406986 -0.145604
0.170345 -0.0440252 0.0874559
0.169801 -0.0402515 -0.0463277
0.168003 -0.031484 -0.35769
0.167413 -0.0308785 -0.379669
0.140147 -0.0300926 -0.435274
0.118623 -0.0307146 -0.435303
0.0787516 -0.0318668 -0.435365
0.158616 -0.0492305 0.424765
0.170603 -0.0441818 0.241799
0.170157 -0.0412267 0.127082
0.170106 -0.0408849 0.113812
0.16941 -0.0362286 -0.0669409
0.168007 -0.0313181 -0.258245
0.124079 -0.0289821 -0.393449
-0.0176359 -0.0316387 -0.435518
-0.0389752 -0.0322018 -0.43555
0.17075 -0.0432962 0.383927
0.170619 -0.0424719 0.348567
0.170315 -0.0405422 0.265787
0.169442 -0.0349794 0.027162
0.169358 -0.0344393 0.0039947
0.16721 -0.0303068 -0.174806
0.101894 -0.0257723 -0.435329
0.0545979 -0.0269013 -0.435404
-0.0997719 -0.0305862 -0.435644
0.170134 -0.0374888 0.323595
0.169751 -0.0351763 0.212752
0.169626 -0.0344181 0.176407
0.169066 -0.0319469 0.0578036
0.167559 -0.0304257 -0.0163975
0.161398 -0.0242167 -0.319257
0.146415 -0.023158 -0.385132
0.152014 -0.022458 -0.412847
0.0163177 -0.0248871 -0.435467
0.00297022 -0.0251722 -0.435487
-0.0686371 -0.0267016 -0.435595
0.167385 -0.0299524 0.151575
0.162292 -0.0248707 -0.128715
0.161876 -0.0244558 -0.151601
0.16056 -0.0231431 -0.224005
0.160342 -0.0229259 -0.235983
0.150884 -0.0225963 -0.263492
0.13609 -0.0225982 -0.278504
0.11724 -0.022595 -0.297935
0.0962799 -0.0225922 -0.319503
0.110453 -0.0218325 -0.346145
0.0893397 -0.0222272 -0.346354
0.0710475 -0.0225914 -0.345324
0.158616 -0.030476 0.424765
0.162615 -0.0248727 0.0788621
0.157178 -0.0225976 -0.0687966
0.137726 -0.0225982 -0.0886331
0.123156 -0.022598 -0.103531
0.108697 -0.0225943 -0.118535
0.0942429 -0.0225906 -0.133535
0.0797758 -0.0225874 -0.148513
0.0553793 -0.0225908 -0.173227
0.0895667 -0.0211776 -0.226567
0.035857 -0.0225935 -0.193003
0.0163432 -0.0225959 -0.212794
-0.00307113 -0.0225954 -0.23266
-0.022459 -0.0225942 -0.252543
0.162829 -0.0246468 0.344876
0.162483 -0.0243124 0.319836
0.162145 -0.023987 0.295468
0.161817 -0.0236701 0.271743
0.160784 -0.0226718 0.196993
0.154421 -0.0225945 0.184786
0.125669 -0.022596 0.155522
0.105507 -0.0225981 0.135079
0.0882844 -0.022598 0.117475
0.0710954 -0.0225969 0.0998316
0.0482439 -0.0225935 0.0762358
0.031126 -0.0225905 0.0585257
0.0168095 -0.0225896 0.0438289
0.002437 -0.0225902 0.0291915
-0.0147831 -0.0225903 0.0115983
-0.0291333 -0.0225903 -0.00306267
-0.0434577 -0.0225896 -0.017747
-0.0636124 -0.0225913 -0.0382156
0.0221654 -0.0201372 -0.131728
0.0225447 -0.0198728 -0.150857
0.0687891 -0.0181464 -0.231049
0.0494607 -0.0183875 -0.232999
0.0321073 -0.0186321 -0.232675
-0.0845019 -0.0211978 -0.162419
-0.0843571 -0.020945 -0.18093
-0.0844038 -0.0207025 -0.198879
0.101894 -0.0149208 -0.435329
0.135101 -0.0212183 0.41152
0.124664 -0.0213363 0.411504
0.10344 -0.0215763 0.41147
0.112274 -0.0208237 0.352599
0.0908738 -0.0210682 0.352798
0.0689351 -0.0213195 0.353049
0.0520424 -0.0215144 0.353379
0.0017072 -0.0227265 0.411304
-0.0223925 -0.022999 0.411268
0.0956411 -0.0196939 0.233672
0.0745354 -0.0199311 0.233506
0.0523612 -0.0201886 0.234085
-0.0425035 -0.0225905 0.353864
-0.0602338 -0.0225954 0.336192
-0.0778556 -0.0225974 0.318368
0.0209917 -0.0198008 0.167048
0.0208139 -0.019654 0.153621
0.0206454 -0.0194355 0.13374
0.0205323 -0.0192207 0.114238
0.0201285 -0.0189475 0.0891819
-0.0858209 -0.0212999 0.193166
-0.0859879 -0.021073 0.172529
-0.0861763 -0.0208515 0.152354
-0.086567 -0.0205667 0.126253
-0.0915447 -0.0204634 0.111847
-0.0922391 -0.0201974 0.0871425
-0.147674 -0.0212782 0.128013
0.0192933 -0.0174882 -0.0433288
0.0218949 -0.017314 -0.056388
0.0221139 -0.0170792 -0.0773491
0.0225886 -0.0168452 -0.0979805
-0.0445242 -0.0160981 -0.233948
0.0229427 -0.0147994 -0.282189
0.15219 -0.0116609 -0.433297
0.129495 -0.0118958 -0.435288
0.0787516 -0.0124696 -0.435365
-0.107795 -0.0145789 -0.435658
0.0300412 -0.0169184 0.352355
0.0253285 -0.0159299 0.23287
0.0134956 -0.0160387 0.2334
-0.0106999 -0.0162615 0.23453
0.0203034 -0.0141111 0.0167592
0.0211611 -0.0139001 -0.00683326
0.0247272 -0.0124931 -0.166401
0.112094 -0.0107503 -0.279302
0.0827503 -0.0109958 -0.280803
0.0568681 -0.011117 -0.293192
0.0355005 -0.011395 -0.28277
-0.0176359 -0.0105462 -0.435518
-0.0389752 -0.0107339 -0.43555
0.158616 -0.0117216 0.424765
0.112286 -0.0111607 0.286355
0.0799927 -0.0113693 0.287224
0.0767419 -0.00736972 -0.365613
0.0545979 -0.00707928 -0.435404
0.00297022 -0.00740358 -0.435487
-0.0300574 -0.00702185 0.228994
0.0944 -0.00485482 -0.230379
-0.0686371 -0.00471206 -0.435595
0.135101 -0.0023576 0.41152
0.124664 -0.00237071 0.411504
0.10344 -0.00239738 0.41147
0.11053 -0.00231946 0.355445
0.0885289 -0.00233797 0.347998
0.0929253 -0.00219642 0.237556
0.0729653 -0.00221007 0.22824
0.0525118 -0.00223363 0.226477
0.0245912 -0.0021818 0.155865
0.027746 -0.00214845 0.132008
0.0286941 -0.00212176 0.111308
0.029036 -0.00209728 0.0917754
-0.0246317 -0.00209954 0.0387821
0.0307639 -0.00188969 -0.0750146
0.0304034 -0.00182936 -0.12437
0.0294771 -0.0018081 -0.142582
0.0724678 -0.00162663 -0.246004
0.0870717 -0.00154781 -0.295085
0.0414861 -0.00159694 -0.301773
0.102295 -0.00144735 -0.361103
0.152014 -0.00132107 -0.412847
0.0293633 -0.00144757 -0.435445
0.10611 0.0067252 0.287835
0.0945826 0.00674499 0.281414
0.0332897 0.00675868 0.222497
0.010929 0.00684125 0.221998
-0.0131925 0.0069359 0.222973
-0.0260689 0.00698887 0.224154
0.0319265 0.00619989 0.0698584
0.0302625 0.00612324 0.0474127
0.0279038 0.00605408 0.0262845
0.0199862 0.00600766 0.00563103
0.0267946 0.00589471 -0.0179859
0.0311201 0.00580233 -0.0385697
0.0329471 0.00571066 -0.0615163
0.0340866 0.0055523 -0.103212
0.158616 0.0117216 0.424765
0.0286548 0.00896391 -0.155851
0.106327 0.00769469 -0.282613
0.0630283 0.00783109 -0.304699
-0.0176359 0.00753303 -0.435518
-0.0389752 0.00766709 -0.43555
-0.0997719 0.008049 -0.435644
0.15219 0.00906956 -0.433297
0.129495 0.00925228 -0.435288
0.107529 0.00944549 -0.43532
0.0787516 0.00969856 -0.435365
0.135101 0.0212183 0.41152
0.124664 0.0213363 0.411504
0.10344 0.0215763 0.41147
0.114921 0.0209371 0.365533
0.0938209 0.0209831 0.348129
0.0950771 0.0197927 0.242015
0.0739932 0.0198631 0.226822
0.0453779 0.0201257 0.221276
0.0245081 0.0196381 0.155965
0.0283577 0.0194685 0.144595
0.0331466 0.0191317 0.119098
0.0353934 0.0188635 0.0971962
0.0545979 0.0127427 -0.435404
0.00297022 0.0133264 -0.435487
0.00219446 0.0251573 0.218433
-0.0234346 0.0255462 0.220958
0.0376444 0.0206054 -0.0813577
0.0356752 0.0201188 -0.119284
0.0321391 0.0198856 -0.140115
0.0862854 0.0176697 -0.248363
0.158616 0.030476 0.424765
0.0952576 0.0293282 0.288337
0.0833737 0.029425 0.282245
0.0336753 0.0265152 0.0497196
0.0300662 0.0262563 0.0298591
0.0221579 0.0260538 0.00912803
0.025254 0.0255934 -0.0164619
0.105044 0.0198035 -0.296583
0.0953916 0.0187325 -0.373338
0.0293633 0.0188182 -0.435445
0.0290062 0.0338421 0.220749
0.0946393 0.0241907 -0.234648
0.0860841 0.0230444 -0.305442
0.152014 0.0198159 -0.412847
-0.0686371 0.0235603 -0.435595
0.135101 0.0400789 0.41152
0.124664 0.0403018 0.411504
0.10344 0.0407551 0.41147
0.117068 0.03961 0.370698
0.100233 0.0396405 0.354954
0.0804557 0.0375043 0.232713
0.0624364 0.0377879 0.227848
0.0343812 0.0355443 0.0920209
0.0344851 0.0350188 0.067026
0.0320401 0.0328416 -0.0394608
0.0257158 0.0304939 -0.158059
0.109279 0.0246432 -0.352136
0.00297022 0.0251722 -0.435487
0.110019 0.0429249 0.306009
0.0968283 0.0418612 0.247074
0.0207654 0.0414943 0.153679
0.0263036 0.0408946 0.133709
0.0368962 0.0355063 -0.0857436
0.073885 0.0293315 -0.311841
-0.0176359 0.0286255 -0.435518
-0.0389752 0.0291349 -0.43555
-0.0997719 0.0305862 -0.435644
0.158616 0.0492305 0.424765
0.0914206 0.047627 0.294112
0.034927 0.0398742 -0.0633805
0.0339437 0.0386192 -0.112911
0.0318569 0.0383457 -0.125618
0.134848 0.0276156 -0.435281
0.113105 0.0281894 -0.435312
0.0787516 0.0290957 -0.435365
0.0097217 0.052528 0.223527
-0.00794578 0.0530463 0.223775
-0.0276474 0.0536815 0.22607
0.0288146 0.0487928 0.111169
0.0247325 0.0464353 0.023768
0.00618744 0.0463667 0.00239748
0.0217559 0.0453231 -0.0185394
0.0927551 0.0367323 -0.249284
0.0671209 0.0371157 -0.26194
0.0865791 0.0352079 -0.309413
0.15219 0.0298 -0.433297
0.0545979 0.0325647 -0.435404
0.135101 0.0589396 0.41152
0.124664 0.0592674 0.411504
0.10344 0.059934 0.41147
0.115564 0.0583745 0.373206
0.101754 0.0584362 0.361099
0.112268 0.0565526 0.310662
0.0971795 0.055289 0.254207
0.0451395 0.0561483 0.228946
0.0250655 0.0566843 0.225846
0.111686 0.0378425 -0.297626
0.0813463 0.0597429 0.238954
0.0166008 0.0590473 0.151882
0.0219155 0.058214 0.132253
0.0300192 0.056347 0.0843864
0.0299742 0.0555305 0.0597829
0.0271239 0.0549316 0.0388607
0.0220163 0.048657 -0.155057
0.102217 0.0385396 -0.377382
0.0293633 0.039084 -0.435445
-0.0762791 0.0426677 -0.435607
0.155905 0.0679272 0.420378
0.0124398 0.0662698 0.227391
-0.046428 0.0686564 0.23407
0.0296624 0.0558107 -0.0478631
0.152014 0.0383108 -0.412847
0.0908875 0.0706653 0.302964
-0.0319934 0.0727242 0.231344
0.0740016 0.0475741 -0.319122
0.108053 0.0448872 -0.354709
0.115322 0.044178 -0.365858
-0.0389752 0.0475359 -0.43555
-0.0997719 0.0499038 -0.435644
0.138802 0.077754 0.41416
0.117583 0.0786549 0.414648
0.0946727 0.0775435 0.363895
-0.0132434 0.0765968 0.230342
0.0225475 0.0702982 0.111927
0.0182832 0.0650871 -0.0206519
0.0305632 0.0625847 -0.0696785
0.0281295 0.0609369 -0.11271
0.0259942 0.0605098 -0.125402
-0.0176359 0.049718 -0.435518
0.113713 0.0823203 0.38514
0.109608 0.0820353 0.374334
0.0963953 0.0778213 0.263071
0.0739381 0.077895 0.241836
0.0295838 0.0655796 -0.0891944
0.0925261 0.0557436 -0.253078
0.0728101 0.0487542 -0.435375
0.112084 0.0840951 0.319192
0.0542471 0.083133 0.238986
0.0345843 0.0838915 0.235541
-0.0443751 0.0877235 0.238963
-0.0669085 0.0893251 0.251089
0.00976175 0.0812961 0.153222
0.0151172 0.0801516 0.133577
0.0244433 0.0766299 0.06582
0.0237846 0.0761395 0.0543846
0.0207152 0.0753447 0.0338067
0.00827026 0.0746574 0.00600755
0.15219 0.0479392 -0.433297
0.129495 0.048905 -0.435288
0.107529 0.0499262 -0.43532
0.0483934 0.0526751 -0.435414
0.00297022 0.0547865 -0.435487
-0.0610873 0.0577644 -0.435584
0.0916045 0.0892037 0.309989
0.0232401 0.0756654 -0.0417302
0.0170236 0.070722 -0.151005
0.0070079 0.0702736 -0.170574
0.0676473 0.062517 -0.270113
0.111239 0.058721 -0.304607
0.0904456 0.053462 -0.435347
0.0111096 0.0942185 0.236465
-0.0124636 0.0954481 0.236732
0.0170313 0.0876171 0.111777
0.0205243 0.0862737 0.0887406
0.0249996 0.0785683 -0.0592907
0.0293633 0.0593498 -0.435445
-0.084015 0.0651902 -0.435618
-0.123101 0.067346 -0.432857
0.117084 0.101124 0.388355
0.099602 0.101272 0.373279
0.106562 0.0980544 0.319636
0.0975729 0.0954534 0.261336
-0.00289989 0.0870506 8.28505e-06
0.0231425 0.0799025 -0.108366
0.0195245 0.0789786 -0.129507
0.089856 0.0651495 -0.318791
-0.0318306 0.0655521 -0.435517
0.078955 0.100314 0.249901
0.0600378 0.101173 0.246077
0.0302287 0.102596 0.241298
-0.0289605 0.106007 0.24238
-0.0514319 0.107561 0.247465
0.0048607 0.0990961 0.152229
0.00951982 0.0977916 0.133452
0.0236159 0.0852354 -0.0787144
0.0714049 0.0687071 -0.328128
0.111581 0.0644697 -0.363539
0.105391 0.0637716 -0.38246
0.152014 0.0594477 -0.412847
0.0924585 0.107849 0.316858
0.0152216 0.0963658 0.0395553
0.0108153 0.0955331 0.0206677
-0.0474014 0.0999489 0.0374765
0.0103149 0.0851352 -0.159482
0.092392 0.0753303 -0.245015
0.0684626 0.113642 0.312287
0.00560081 0.113369 0.24354
-0.0657454 0.118591 0.257181
-0.0164438 0.100484 0.00749493
0.0166202 0.0955315 -0.0407941
0.0799879 0.0777217 -0.271181
0.078292 0.0679321 -0.435138
0.000922918 0.0727368 -0.434567
-0.100319 0.0791206 -0.43222
0.118495 0.12026 0.394915
0.0966626 0.120603 0.378076
0.115666 0.116372 0.330137
0.0915585 0.114647 0.278029
0.0522098 0.115366 0.249286
0.0318114 0.116512 0.246688
0.00898856 0.109671 0.114442
0.013626 0.106673 0.0714504
0.00854117 0.101116 -0.0222168
0.0181102 0.0982471 -0.0581172
0.0187325 0.0956039 -0.0995646
0.123676 0.0677962 -0.435079
0.0464445 0.0727895 -0.434487
-0.0547526 0.0794422 -0.431961
0.0843993 0.118274 0.257399
-0.0100527 0.123996 0.248567
-0.043337 0.126476 0.252563
0.0104615 0.112514 0.0936204
0.0148919 0.0982239 -0.120788
0.110131 0.0794535 -0.311054
0.113297 0.0751105 -0.374356
0.145895 0.0691293 -0.432685
-0.00316519 0.12185 0.15484
0.00995511 0.100932 -0.140567
0.0343915 0.0795163 -0.431775
0.0968046 0.131171 0.326639
0.0729669 0.132547 0.321886
-0.0645143 0.138289 0.263229
0.00528288 0.116651 0.0262963
-0.00299132 0.115804 0.00576746
-0.00991523 0.0872784 -0.407659
-0.0295665 0.0888862 -0.404833
-0.0617271 0.0917794 -0.396478
0.1107 0.140669 0.408219
0.106359 0.139564 0.38857
0.09317 0.140195 0.383776
0.116535 0.135072 0.337154
0.0396474 0.13509 0.258843
0.0170943 0.136751 0.258657
-0.00153834 0.12852 0.126345
0.00313121 0.126385 0.101735
0.000711322 0.118106 -0.014687
0.00750178 0.116333 -0.0321476
0.0882663 0.0888134 -0.328368
0.0722855 0.0894668 -0.335703
0.105904 0.0830913 -0.389098
0.032285 0.0870954 -0.409209
0.0077405 0.0888776 -0.409758
0.0950353 0.136472 0.272872
0.069133 0.137782 0.26385
-0.00598127 0.14371 0.266009
-0.0308332 0.14571 0.267243
0.00383526 0.12639 0.0454817
0.00913495 0.118826 -0.0497844
0.011911 0.116082 -0.0834784
-0.00146598 0.110718 -0.16855
0.0626625 0.0879579 -0.40599
0.0742892 0.146878 0.328129
-0.0155631 0.141144 0.162419
-0.000809669 0.133646 0.0808547
-0.0608382 0.135584 0.0445043
0.00941801 0.118311 -0.106344
0.00265747 0.115196 -0.1534
0.0969715 0.0997256 -0.256436
0.0785916 0.0995203 -0.27786
0.0851574 0.0893324 -0.40246
0.0968834 0.150232 0.334859
0.0755867 0.147414 0.277902
-0.0380605 0.165682 0.389984
-0.0588224 0.167603 0.392769
0.113439 0.159126 0.403545
0.092909 0.159992 0.393058
0.0665792 0.162066 0.391291
0.0445101 0.163871 0.390626
0.0149834 0.166442 0.391612
-0.0169566 0.169392 0.394735
-0.0850562 0.175754 0.402254
-0.0233535 0.149268 0.144309
-0.0172634 0.137062 0.00259894
0.114526 0.099526 -0.317656
0.111836 0.0951472 -0.373471
-6.49691e-06 0.173852 0.405026
-0.0197873 0.148153 0.0823941
-0.00897723 0.142679 0.0290192
-0.0018838 0.136695 -0.0341556
0.000858366 0.128452 -0.128348
-0.0556232 0.110052 -0.402594
0.0449972 0.175089 0.407523
-0.144769 0.175129 0.214099
-0.136037 0.172313 0.190818
-0.131594 0.170305 0.172386
-0.0132473 0.129516 -0.173173
-0.00576806 0.107894 -0.412814
-0.0253301 0.109884 -0.41004
-0.13307 0.172937 0.1468
-0.130658 0.17131 0.131162
-0.00822502 0.143321 -0.0550694
-0.006042 0.141075 -0.0778272
-0.00442982 0.138982 -0.099453
-0.0265044 0.138242 -0.130237
0.0857934 0.109316 -0.337249
0.0650475 0.110515 -0.345114
0.025059 0.107903 -0.415026
0.011113 0.109228 -0.414537
-0.138363 0.174422 0.106167
-0.130961 0.171909 0.0865275
-0.127939 0.170217 0.0712904
-0.125279 0.167498 0.0445743
0.0914674 0.11926 -0.256227
0.0797938 0.118285 -0.278711
0.114348 0.104954 -0.387727
0.0585779 0.107867 -0.41317
-0.128264 0.170259 0.0235428
-0.0178848 0.148034 -0.0980504
0.0534419 0.123916 -0.279507
0.089378 0.108265 -0.407837
-0.131545 0.170833 -0.0193619
-0.0165545 0.146473 -0.152256
-0.128021 0.172863 -0.0387685
-0.12447 0.170076 -0.0630788
-0.123061 0.167739 -0.0850738
-0.0227525 0.149443 -0.165993
0.11458 0.119609 -0.324748
0.00822997 0.126876 -0.360563
-0.0561652 0.128943 -0.405636
-0.0227324 0.128062 -0.411247
-0.0428913 0.130457 -0.408412
0.0723017 0.13501 -0.277247
0.0404772 0.138697 -0.274545
0.0740464 0.127506 -0.347156
0.107584 0.118447 -0.399423
0.00315088 0.128103 -0.413879
0.0958935 0.128857 -0.340224
0.111748 0.122876 -0.379843
0.0316153 0.127868 -0.415123
0.0944025 0.140097 -0.266223
0.0607752 0.127633 -0.414294
0.0875272 0.127588 -0.412958
-0.0619869 0.149029 -0.402997
0.115194 0.139346 -0.33213
0.0508335 0.145711 -0.343477
-0.0334929 0.148447 -0.406248
-0.00974607 0.148496 -0.40774
0.0836204 0.148267 -0.339336
0.110113 0.137843 -0.397765
0.0994813 0.149278 -0.339086
0.0196168 0.150703 -0.409225
-0.0764178 0.165758 -0.386309
0.0624409 0.147776 -0.412072
0.0415388 0.150657 -0.410721
0.0809165 0.148149 -0.412505
-0.0555404 0.167881 -0.399328
-0.0341852 0.168195 -0.399397
-0.0138445 0.16856 -0.399316
0.109953 0.155438 -0.391443
0.0288002 0.165014 -0.404307
0.00929373 0.168198 -0.400945
0.107031 0.159072 -0.408318
0.0667891 0.168235 -0.405046
0.086191 0.168049 -0.406115
0.0544094 0.173459 -0.401667
