ply
format ascii 1.0
comment Created by Open3D
element vertex 1677
property double x
property double y
property double z
end_header
-0.163949 0.186667 -0.0625163
0.139189 0.186667 -0.0998196
0.0957718 0.186667 -0.289332
0.101105 0.186667 0.048437
-0.167472 0.195529 -0.0816352
-0.109157 0.195529 -0.181977
-0.0994733 0.186667 -0.330272
-0.22561 0.194853 -0.370152
-0.0461239 0.142254 0.236385
-0.0263843 0.142254 -0.388893
0.191113 0.186667 0.142318
-0.198424 0.0192788 -0.401084
0.00937745 0.142254 -0.365369
-0.220606 -0.0343862 0.401084
-0.186186 0.186667 -0.219831
0.0305586 0.186667 -0.212914
-0.0738643 0.195529 0.339118
0.188768 -0.118617 -0.401084
0.199052 0.0962978 0.401084
-0.00634773 0.142254 -0.0634539
-0.174586 -0.101121 -0.375906
-0.069336 0.195529 -0.218607
-0.22561 0.191805 -0.0219718
-0.155968 0.158607 -0.395419
0.148244 0.195529 0.333052
-0.157364 0.195529 0.197394
-0.0965456 0.186667 -0.369821
-0.22561 0.171775 -0.396113
0.194157 0.195529 0.270059
-0.151836 0.142254 -0.327853
0.0654978 0.186667 -0.316479
0.0564852 0.186667 0.267394
0.22561 -0.114432 -0.385458
-0.172821 0.142254 0.313427
0.12904 0.186667 -0.338669
0.220897 0.16883 -0.264122
-0.219945 0.171042 0.204028
0.147119 0.142254 0.258338
-0.203369 0.195529 0.142985
-0.176614 0.0454931 0.393788
-0.0614344 0.195529 -0.167758
-0.192193 0.142254 -0.268474
-0.0884115 0.186667 0.347184
0.193664 -0.164176 0.356974
0.0964983 0.195529 0.0657759
-0.0152032 0.195529 0.308674
-0.21868 -0.195529 -0.397237
0.0557359 0.186667 -0.053967
0.22561 0.000513248 -0.368667
0.212046 0.195529 -0.247369
0.0346573 0.195529 -0.228403
-0.22561 0.194723 0.21795
-0.197517 -0.0206088 0.401084
0.0322204 0.142254 0.0874292
-0.159545 0.186667 -0.201715
0.172685 0.195529 0.279167
0.203067 -0.159146 -0.357656
-0.0875651 0.142254 0.0656059
0.192089 0.142254 -0.178602
-0.218435 0.142254 -0.111388
0.122505 0.142254 0.309065
-0.184593 0.186667 0.352543
-0.179583 0.195529 -0.259293
0.148185 0.195529 -0.18749
0.173842 0.142254 0.314731
0.0601156 0.142254 0.261853
-0.221454 0.0214014 -0.401084
-0.0399298 0.195529 -0.0715489
0.207412 0.186667 0.218528
0.0386724 0.142254 -0.205711
0.00822021 0.142254 -0.159683
0.174643 0.195529 0.344879
0.184253 -0.070947 -0.376418
0.0523613 0.142254 -0.0225584
-0.22561 0.194849 -0.336623
-0.138246 0.186667 -0.0348249
0.00182258 0.146673 0.395419
-0.175295 0.142254 0.194036
0.220897 0.177349 0.0315562
0.220897 0.155037 -0.148225
-0.0592112 0.186667 -0.314268
0.0512804 0.195529 0.336461
-0.199011 -0.161399 0.356974
-0.178014 0.178315 -0.401084
-0.172855 0.142254 -0.0991479
-0.0628054 0.186667 -0.362509
-0.0464118 0.195529 -0.359838
0.0939695 0.195529 -0.0307218
0.122469 0.142254 0.325308
-0.00704844 0.195529 0.286019
-0.173213 0.142254 0.389427
-0.0880015 0.195529 0.294339
-0.00996691 0.142254 0.389754
-0.187787 -0.0239647 0.401084
0.220336 0.142254 0.282902
-0.203177 0.195529 -0.0241863
-0.188505 0.117311 -0.357656
0.0195569 0.142254 0.0378317
0.0149089 0.186667 0.185466
-0.190569 0.142254 0.35287
0.16401 0.142254 -0.358466
-0.197323 -0.115196 0.401084
-0.0704983 0.195529 -0.0989102
0.21176 0.186667 -0.361018
0.0208453 0.142254 0.168366
0.176042 0.142254 -0.385607
-0.110891 0.195529 0.324099
-0.189186 0.186667 -0.0802125
-0.176614 0.114244 0.378251
0.202682 0.186667 0.0586233
0.161941 0.186667 -0.363017
0.0320467 0.186667 -0.217566
-0.22561 0.192562 -0.313477
-0.159263 0.186667 -0.175892
0.0826821 0.142254 -0.0775004
-0.0259392 0.195529 0.00514564
0.0914693 0.142254 0.229812
0.0276849 0.195529 0.076016
-0.177552 0.142254 0.00210923
-0.00960446 0.186667 -0.182813
-0.0869418 0.142254 -0.229276
-0.10245 0.179454 0.395419
-0.156947 0.186667 0.358158
0.217136 0.186667 -0.151346
0.0456111 0.142254 -0.0895609
0.147878 0.195529 0.0291747
-0.0882224 0.142254 0.242998
-0.223026 0.195529 -0.191999
0.0729738 0.195529 -0.341649
0.194475 -0.178409 0.356974
0.139379 0.186667 0.0381277
-0.149584 0.186667 0.177325
0.105966 0.186667 -0.228453
0.112168 0.142254 0.390066
0.22561 -0.109212 0.389825
0.220897 0.173771 -0.138419
0.0268377 0.142254 -0.11235
0.193266 0.186667 -0.362281
-0.0812315 0.186667 -0.206987
0.0416707 0.195529 -0.159351
-0.185375 0.186667 -0.260216
0.140045 0.186667 0.397224
-0.019433 0.195529 0.163211
0.074332 0.186667 -0.310511
0.0529316 0.186667 0.237791
-0.106064 0.142254 0.304296
0.220897 0.185581 0.0985759
-0.00875764 0.195529 0.177262
0.22561 -0.121946 -0.367659
-0.0937907 0.186667 -0.394727
-0.191731 0.195529 0.377781
-0.178963 0.142254 0.0144879
0.184253 -0.102111 -0.382797
-0.0207759 0.186667 -0.11447
-0.201386 -0.183542 -0.401084
-0.019858 0.142254 0.211686
-0.220005 0.130802 0.401084
-0.20712 -0.117936 -0.357656
-0.0900547 0.186667 0.166169
0.14533 0.195529 -0.331144
0.0872347 0.195529 -0.397761
-0.19042 0.195529 0.201464
0.0229032 0.142254 -0.116216
-0.095398 0.186667 -0.210746
0.0763983 0.142254 -0.11357
-0.0238564 0.142254 0.338773
-0.10366 0.186667 -0.140468
0.132472 0.186667 0.275413
0.143508 0.142254 -0.109957
0.0146887 0.142254 -0.299207
0.176973 0.142254 0.370659
-0.205911 0.195529 0.296695
0.114349 0.142254 0.115794
-0.00841845 0.142254 -0.271453
-0.16707 0.186667 -0.144623
0.153945 0.195529 0.339936
-0.154973 0.195529 -0.0384594
-0.0754239 0.195529 0.0327201
0.176099 0.142254 -0.313341
-0.130785 0.186667 0.207639
0.0106403 0.195529 -0.0927846
-0.0649269 0.195529 0.0583599
0.193754 -0.195529 0.386952
-0.135497 0.142254 0.318279
-0.219945 0.167222 -0.261716
-0.137647 0.195529 -0.117017
-0.211171 0.186667 0.123966
0.114743 0.142254 0.0604601
-0.0556304 0.142254 0.172791
-0.102131 0.195529 0.28196
-0.0621306 0.186667 0.232025
-0.22561 -0.0200722 0.365104
0.0568147 0.142254 -0.349137
0.137458 0.169277 0.395419
-0.13663 0.195529 0.353343
-0.0573824 0.186667 0.223783
0.0282998 0.142254 -0.0424689
-0.22561 0.179281 0.391342
-0.0219386 0.142254 0.108438
-0.0541684 0.186667 0.056281
0.22561 0.193937 -0.381493
0.224568 0.0478617 -0.357656
0.0308806 0.195529 -0.382416
0.128492 0.186667 0.25462
0.186335 -0.102966 -0.357656
-0.100913 0.142254 -0.360532
-0.22561 0.186827 0.0676693
-0.174586 -0.00624642 -0.400091
0.140567 0.142254 0.32738
0.0292058 0.142254 0.337052
0.082711 0.142254 0.092051
0.185489 0.142254 0.285368
-0.22561 -0.110853 0.361907
0.220897 0.164056 -0.298387
0.0884298 0.142254 -0.200466
0.22561 0.0448308 -0.371683
0.22561 0.169455 0.386598
-0.193915 0.186667 0.380593
0.212215 0.186667 -0.0851958
0.220897 0.180032 -0.118847
0.125905 0.195529 -0.177656
-0.0691461 0.195529 -0.3452
-0.177549 -0.114617 -0.401084
0.0962443 0.186667 0.250227
-0.16355 0.142254 -0.0328735
-0.146673 0.195529 0.207986
0.171015 0.142254 -0.110892
0.104071 0.142254 0.365915
-0.135229 0.142254 -0.359164
0.154067 0.142254 -0.314243
0.188192 0.152771 -0.401084
-0.0259975 0.186667 -0.0910741
-0.137537 0.186667 0.345754
0.103354 0.186667 -0.210619
-0.00925119 0.186667 0.253491
-0.15179 0.195529 0.247456
0.115698 0.195529 0.293096
-0.196361 0.186667 0.372113
0.172382 0.142254 0.153276
0.22561 0.190127 -0.278258
-0.0990928 0.195529 -0.0936328
0.0767476 0.142254 0.314931
-0.137286 0.195529 -0.392442
-0.00561324 0.195529 0.378338
0.0270619 0.142254 -0.0622068
-0.0626535 0.186667 0.194013
-0.22561 0.0645243 -0.394631
0.0891931 0.195529 0.214846
0.0434513 0.195529 -0.26969
0.0954017 0.142254 -0.238644
0.0881588 0.186667 0.37311
0.223121 0.186667 -0.24549
0.165482 0.195529 -0.124745
0.184656 0.142254 -0.265617
0.0202135 0.142254 0.113156
0.043284 0.186667 0.00255714
-0.0785977 0.142254 -0.0294713
-0.210838 0.186667 -0.228288
-0.22561 0.0571005 -0.391247
0.104235 0.186667 -0.273365
0.221905 0.186667 -0.332634
-0.213968 -0.0743675 0.356974
-0.00327693 0.195529 0.231133
0.0204745 0.186667 -0.37505
-0.179507 0.142254 0.299899
-0.0385652 0.195529 0.0019989
0.22561 0.128396 -0.400719
-0.099326 0.186667 0.138475
0.067386 0.186667 0.162837
-0.2093 0.147046 -0.401084
-0.168235 0.186667 0.318804
0.00878995 0.186667 -0.0501114
0.22561 -0.0844976 0.400862
-0.135477 0.142254 -0.132394
0.118676 0.195529 -0.384131
0.0165566 0.142254 -0.39083
0.0221277 0.195529 0.304764
-0.215315 0.195529 0.0785112
-0.0418037 0.186667 0.14273
0.22561 0.188452 0.0372451
-0.185612 0.142254 -0.284824
0.208734 0.195529 0.0187123
0.00487686 0.142254 -0.0925677
-0.0288492 0.142254 -0.250736
0.202653 -0.021326 0.356974
-0.217646 0.195529 -0.183745
-0.221464 0.045576 0.356974
-0.219945 0.149807 -0.275323
-0.0762935 0.186667 0.224737
0.208352 0.195529 0.323765
-0.0964554 0.142254 0.313488
0.0459284 0.186667 0.0102079
-0.0344994 0.142254 0.325496
-0.22561 -0.0818275 0.384082
-0.135174 0.195529 -0.320992
0.183118 0.186667 -0.398858
0.184758 0.195529 0.102972
0.0978286 0.195529 -0.136398
-0.219945 0.15766 -0.356071
0.182194 0.195529 0.0113313
0.0490021 0.195529 0.126308
0.00123774 0.142254 0.145175
-0.219945 0.178306 0.306821
0.0614899 0.195529 0.152455
-0.203045 0.142254 0.246863
0.139217 0.142254 -0.109877
-0.219945 0.159966 -0.0462818
-0.207005 0.195529 -0.33751
-0.22561 0.092901 0.374984
-0.176614 -0.0921073 0.366545
0.182279 0.140015 0.373394
0.0546678 0.142254 0.151551
-0.0381799 0.186667 0.359083
0.159954 0.186667 0.317462
0.108678 0.195529 -0.0860896
-0.103896 0.142254 -0.369954
0.203825 -0.195529 0.360701
-0.182667 0.195529 0.16273
0.116875 0.195529 -0.233959
0.0995334 0.142254 -0.267217
0.0505618 0.142254 -0.152923
0.0840363 0.142254 -0.00838779
0.0288528 0.186667 0.201404
0.22561 0.188653 0.242105
-0.22561 0.138075 -0.370703
-0.167244 0.186667 -0.188582
0.222846 -0.123756 -0.401084
-0.181197 0.195529 -0.279489
-0.0439324 0.155982 0.395419
-0.106437 0.195529 0.0333581
0.00410542 0.195529 0.0798998
0.148262 0.186667 -0.291921
-0.0651697 0.142254 -0.157304
0.182279 -0.100433 0.374099
-0.0867465 0.142254 -0.322291
0.150104 0.186667 0.292149
0.220897 0.143306 0.333758
0.0432792 0.142254 0.183154
0.039811 0.195529 0.291406
0.179391 0.142254 0.237464
0.0609428 0.195529 -0.28543
-0.111317 0.194059 0.401084
-0.166403 0.186667 -0.210844
0.0592558 0.159284 0.395419
0.19411 0.142254 -0.342917
0.0125523 0.142254 0.304172
0.180463 0.195529 0.0581016
0.175991 0.195529 -0.175502
0.19121 0.195529 -0.215804
0.128911 0.195529 0.343062
-0.0461444 0.142254 0.0634062
-0.214332 0.0213874 0.356974
-0.121042 0.186667 -0.120669
-0.0765079 0.186667 -0.247667
-0.198937 0.0243577 0.401084
-0.152531 0.195529 -0.270376
-0.144817 0.186667 -0.258843
0.182732 0.186667 -0.350984
-0.103882 0.195529 -0.172547
-0.083338 0.142254 0.12899
-0.176614 0.121072 0.386794
-0.2222 0.0231523 -0.401084
-0.22561 0.0722684 0.399821
0.142774 0.155167 -0.395419
0.21336 0.142254 0.0800831
-0.174814 0.186667 -0.374852
-0.185009 0.142254 -0.0508763
-0.212886 0.195529 0.216032
0.22561 -0.0816913 0.373338
0.187816 0.142254 -0.035639
-0.181533 -0.195529 0.400814
-0.148622 0.142254 -0.186602
-0.22561 -0.00575955 0.392856
-0.0792236 0.195529 -0.127989
-0.0935115 0.142254 0.307271
-0.152892 0.142254 0.263256
-0.0417476 0.186667 -0.222011
0.195505 0.186667 -0.0825401
-0.0115018 0.186667 -0.146156
0.0230457 0.142254 0.12853
0.0660238 0.195529 0.148675
0.0855076 0.195529 0.274717
-0.148802 0.195529 -0.330622
-0.22561 0.10565 0.377909
-0.22561 0.0718313 0.362691
0.220897 0.176304 0.153397
-0.178931 0.195529 0.284939
-0.176614 0.158316 0.397108
-0.0606233 0.195529 0.235374
-0.0449592 0.186667 -0.377122
-0.176614 0.105282 0.359467
-0.1152 0.186667 -0.0486521
-0.0616967 0.142254 0.134481
-0.199182 0.195529 0.348767
-0.185623 0.195529 0.245116
-0.0821305 0.195529 0.147071
-0.206664 0.00621346 -0.357656
0.0915171 0.195529 -0.107735
-0.0499896 0.142254 -0.159925
0.180518 0.186667 -0.224281
-0.119574 0.178616 -0.395419
-0.0259497 0.195529 -0.147683
-0.181257 -0.195529 0.37379
0.196501 -0.124099 -0.401084
-0.18406 0.0956136 -0.357656
-0.182828 0.195529 -0.0478711
0.0963045 0.195529 0.231981
0.0946783 0.151736 -0.395419
0.036373 0.195529 0.0786404
-0.133231 0.142254 0.00198608
0.188709 0.195529 -0.284021
0.187057 0.195529 -0.272205
-0.219945 0.156752 -0.0303287
0.0491891 0.142254 0.32423
-0.0882636 0.195529 -0.0921429
-0.207718 0.186667 -0.253973
0.199469 -0.0288372 0.356974
-0.181187 0.195529 0.126367
-0.179129 0.186667 -0.316673
0.171706 0.195529 0.126675
-0.22561 -0.0689476 -0.397529
-0.219945 0.162835 0.122094
0.148651 0.186667 0.272147
-0.22561 0.0425707 -0.385101
-0.214872 0.186667 0.229408
-0.208224 -0.191069 -0.357656
-0.184104 0.195529 -0.244116
-0.0881004 0.186667 -0.393796
-0.22561 0.145821 -0.36114
-0.019569 0.142254 -0.243928
-0.00818018 0.195529 -0.188699
-0.1828 -0.137368 0.401084
0.16298 0.186667 -0.114401
-0.0856623 0.186667 -0.37176
0.0348871 0.142254 -0.09455
0.15832 0.195529 0.00338721
0.0867164 0.195529 0.225419
-0.222027 0.0713689 -0.401084
0.216254 -0.121475 0.401084
-0.176614 0.0679133 0.372316
0.0393437 0.142254 0.24099
0.182261 0.142254 -0.077737
-0.0845887 0.142254 -0.01617
0.22561 0.188083 0.155779
0.0986986 0.186667 -0.101232
-0.22561 -0.0870167 0.400942
0.0560524 0.186667 0.279539
-0.21716 0.142254 0.00500786
0.0336975 0.142254 -0.278037
-0.0371342 0.186667 0.266003
0.206174 0.142254 0.125183
0.184859 -0.195529 0.375062
0.103807 0.186667 -0.0932257
-0.0210164 0.195529 -0.248201
0.117172 0.142254 -0.237979
0.172871 0.186667 -0.0457785
0.0499267 0.186667 -0.0485612
-0.159556 0.195529 0.0360701
-0.140367 0.186667 0.200016
-0.176614 0.0754435 0.397981
-0.037729 0.186667 -0.076807
-0.091044 0.142254 -0.199665
0.155884 0.186667 0.054792
0.134782 0.195529 -0.289584
0.149943 0.142254 0.0177398
0.143817 0.195529 -0.304446
0.197065 0.195529 0.247123
-0.127359 0.142254 -0.0773521
-0.0928684 0.175702 0.395419
-0.187776 0.195529 -0.39706
-0.174586 -0.118666 -0.388484
0.182279 -0.138342 0.381441
0.0310968 0.142254 -0.21383
0.0257557 0.186667 0.157132
-0.105222 0.186667 -0.0286157
0.0488385 0.186667 -0.162549
0.133873 0.186667 -0.231668
-0.199126 -0.0449471 -0.401084
0.0110655 0.186667 -0.307406
-0.116161 0.142254 -0.323804
0.0603621 0.142254 -0.381009
-0.209352 0.0852112 -0.357656
-0.0338465 0.186667 0.113948
0.201147 0.195529 0.398464
0.0961186 0.142254 -0.0784481
-0.186579 0.142254 -0.186491
-0.109359 0.186667 -0.385435
0.194797 0.142254 0.250833
-0.22417 -0.195529 0.381105
-0.22561 -0.193532 0.394668
-0.067972 0.186667 -0.283049
-0.149957 0.142254 -0.319326
-0.219945 0.165044 -0.241138
-0.219945 0.162559 0.25828
0.0105221 0.195529 0.0562359
0.225381 0.186667 -0.15205
-0.179683 0.195529 -0.0325311
-0.210311 0.195529 0.230344
0.141859 0.186667 0.289773
0.157184 0.186667 0.381686
0.193205 0.186667 0.0262923
-0.119343 0.186667 -0.179289
0.0416766 0.195529 -0.353123
0.0317557 0.186667 -0.236941
0.22467 0.186667 0.111355
0.0920864 0.142254 0.189833
0.22561 0.192153 -0.0681631
-0.0447341 0.195529 0.0436937
-0.124435 0.195529 0.394195
0.173944 0.142254 0.357395
0.065094 0.195529 -0.0468709
-0.188771 0.142254 0.217591
-0.128281 0.195529 -0.204758
0.202725 0.195529 -0.121191
0.220897 0.169145 -0.0202612
0.116768 0.195529 -0.369385
0.182279 0.0257665 0.376921
-0.110623 0.186667 0.136279
-0.187305 0.150317 -0.401084
-0.219945 0.172723 0.170012
0.0135712 0.142254 0.380692
-0.104278 0.142254 -0.20833
-0.147378 0.142254 0.139165
0.129691 0.186667 0.158784
-0.0704726 0.186667 -0.306214
-0.152361 0.142254 0.373892
-0.22561 0.00464656 0.374903
-0.219945 0.166407 0.351496
0.104206 0.195529 -0.343756
-0.224867 0.195529 0.0835769
0.216847 -0.149212 -0.357656
-0.219945 0.185189 -0.148005
-0.168506 0.195529 -0.225144
-0.0631746 0.195529 -0.131687
-0.22561 -0.118847 0.373418
0.156489 0.195529 -0.0607999
-0.0839874 0.142254 -0.01917
0.0454915 0.186667 -0.0527516
0.0214095 0.186667 -0.0332454
-0.106842 0.186667 -0.0962355
-0.213336 0.186667 -0.0269972
-0.145897 0.142254 -0.0661843
0.0885683 0.195529 0.226714
0.199978 0.186667 0.130641
0.0514858 0.142254 -0.251396
-0.219945 0.151181 0.207663
-0.22561 -0.0954803 0.386621
-0.22561 0.18844 -0.147861
-0.219945 0.165053 0.0287711
0.0923123 0.193597 0.401084
0.22561 -0.114478 -0.394011
-0.136167 0.163796 -0.395419
0.155399 0.186667 -0.125606
-0.208867 0.177321 0.401084
0.037796 0.171091 0.395419
0.220897 0.17593 -0.00634776
-0.196984 0.195529 0.286453
0.181237 0.186667 0.306926
0.0667462 0.186667 0.1781
-0.0964174 0.195529 0.0383451
-0.21647 0.186667 0.0436967
0.0290014 0.142254 0.291542
-0.00864309 0.142254 -0.116415
-0.206216 0.132693 0.356974
0.0124286 0.186667 0.248438
-0.219945 0.175877 -0.208977
-0.0960619 0.142254 0.23851
-0.106678 0.142254 -0.360876
0.184253 -0.0296666 -0.386563
-0.211945 -0.150641 0.356974
-0.136141 0.186667 0.158093
-0.183751 0.186667 0.263588
-0.0633563 0.142254 0.0581037
0.00304043 0.186667 0.348066
0.0270712 0.186667 -0.345837
0.198945 0.195529 0.0619314
-0.0630981 0.186667 0.166868
0.0286227 0.142254 0.15558
0.224189 0.186667 -0.286364
0.15799 0.186667 -0.223409
0.0736169 0.195529 -0.185876
-0.133718 0.195529 0.206495
-0.111731 0.186667 0.349892
0.0522339 0.142254 0.383442
-0.040605 0.186667 -0.300774
-0.0925039 0.186667 0.122277
0.210435 0.186667 -0.330367
0.147503 0.142254 0.220303
0.151896 0.187738 0.401084
0.22561 0.188451 -0.101391
0.200682 0.142254 -0.104137
0.149579 0.186667 -0.275108
0.205404 0.165179 -0.401084
-0.199601 0.142254 -0.0849302
0.0369342 0.186667 0.00717859
-0.0748998 0.195529 -0.0333651
-0.0120823 0.142254 -0.380411
0.0348645 0.142254 -0.103519
0.0434756 0.186667 -0.218238
-0.207856 0.119729 0.356974
-0.219329 0.195529 -0.00232667
0.12718 0.142254 -0.134998
-0.22561 -0.0501607 -0.397159
-0.164907 0.186667 -0.159019
0.183264 -0.195529 0.396208
-0.176614 0.0559091 0.391817
0.203315 -0.195529 0.386571
-0.176614 0.114632 0.369275
-0.193868 0.186667 -0.140136
0.205701 0.195529 0.212792
-0.00825096 0.142254 -0.104614
0.170907 0.195529 0.204364
0.0838087 0.186667 0.247349
0.19925 0.186667 0.160931
0.220897 0.171061 -0.215674
-0.173258 0.142254 -0.0736439
-0.0349018 0.195529 0.0890411
-0.177546 -0.0117638 -0.401084
-0.155804 0.142254 -0.255158
0.214972 -0.0730074 0.401084
0.22561 0.157871 0.376034
0.21913 0.195529 0.399215
-0.214707 0.142254 0.011124
0.182279 0.0370837 0.397255
0.13997 0.186667 0.114249
0.0659029 0.142254 0.0537433
-0.217712 0.186667 -0.286267
-0.219945 0.174785 -0.112552
0.191384 0.186667 0.354344
-0.118794 0.186667 0.0157141
0.22561 0.176883 -0.400518
0.191353 -0.121722 -0.401084
-0.0560361 0.142254 -0.0954952
0.22561 -0.0923584 0.357893
-0.0858418 0.195529 -0.320479
-0.19681 0.147451 0.401084
0.0204783 0.186667 -0.0952373
0.0205653 0.186667 -0.354696
-0.097223 0.195529 -0.180817
-0.223535 0.195529 0.279654
0.211 0.186667 0.263172
0.0782154 0.186667 0.0289668
0.0604662 0.186667 0.062153
-0.147381 0.195529 0.33042
0.190601 0.195529 -0.194826
0.18085 0.186667 -0.0429178
-0.195354 0.142254 0.159402
-0.214788 0.0935921 0.401084
-0.0837503 0.195529 -0.212447
0.192194 -0.121118 -0.401084
0.22561 0.0163785 -0.359742
-0.192295 -0.109951 0.356974
0.0368891 0.195529 0.043794
0.0407697 0.186667 -0.219554
-0.158651 0.186667 -0.282574
0.0556256 0.186667 -0.260022
0.199153 0.142254 -0.176653
0.150439 0.186667 -0.213345
-0.179261 0.186667 -0.208961
0.142859 0.195529 0.31917
-0.217229 0.135112 0.356974
-0.0161319 0.195529 0.365953
0.13159 0.156993 0.395419
-0.22561 -0.167701 0.38408
-0.135778 0.186667 -0.0140403
-0.189108 0.186667 -0.115638
0.104938 0.142254 0.35353
0.150078 0.195529 -0.286863
-0.045856 0.142254 0.30309
0.22561 0.0297939 -0.364645
-0.118839 0.195529 -0.0295702
-0.119036 0.195529 0.0411789
-0.138806 0.186667 -0.359578
-0.18461 0.186667 -0.247646
0.22096 -0.0488204 0.401084
0.101258 0.195529 -0.0200022
-0.0230059 0.195529 -0.261232
0.117029 0.195529 -0.218828
0.156875 0.142254 0.0817785
-0.201588 0.195529 -0.0713817
0.118807 0.186667 0.173819
0.0447883 0.195529 -0.36786
0.0471944 0.186667 -0.35428
0.182279 -0.109608 0.360045
-0.106465 0.186667 -0.27285
-0.156351 0.186667 0.0840381
-0.22561 -0.180819 0.365082
-0.217846 0.00801621 -0.357656
-0.0906517 0.195529 -0.311336
-0.146505 0.142254 0.0411556
0.187201 -0.184542 -0.357656
0.0146035 0.186667 -0.323397
0.176183 0.195529 0.210781
-0.01489 0.142254 -0.369613
-0.134207 0.195529 0.358222
-0.130955 0.142254 0.213741
-0.190024 -0.195529 0.363582
0.166147 0.142254 -0.155678
-0.225071 0.195529 0.173964
0.220897 0.157088 -0.261405
-0.158483 0.195529 -0.0510763
0.0759774 0.142254 -0.043833
0.161685 0.195529 0.14558
-0.140515 0.186667 -0.272732
0.184615 0.195529 -0.149415
-0.048451 0.142254 -0.0826823
0.220897 0.185399 -0.35606
-0.186432 -0.0238222 -0.401084
0.158814 0.186667 0.00182828
-0.0744903 0.186667 -0.367754
0.22561 -0.156972 -0.394184
-0.221841 0.195529 0.0372076
0.103714 0.186667 0.32438
0.197975 -0.0892095 -0.357656
0.122039 0.186667 -0.307799
-0.0538918 0.142254 -0.293258
-0.121791 0.142254 -0.333633
0.158083 0.186667 -0.191692
-0.188214 -0.0804548 -0.357656
-0.202527 0.142254 0.287268
-0.0660052 0.195529 -0.35125
0.158115 0.186667 -0.261751
0.179953 0.186667 0.181256
-0.18467 0.186667 -0.090881
-0.109233 0.195529 -0.111953
-0.0620448 0.186667 -0.344054
-0.132762 0.186667 -0.0726805
-0.181449 0.186667 -0.299766
-0.0366648 0.142254 -0.0804632
-0.15514 0.142254 -0.125664
-0.0833523 0.142254 -0.186828
0.182279 -0.0963697 0.365581
0.120994 0.142254 0.339809
0.0710863 0.195529 -0.129129
-0.0492822 0.195529 0.0918355
-0.0135988 0.142254 0.313524
0.0382757 0.186667 -0.0535425
0.216203 -0.105608 0.401084
0.220897 0.163344 0.119287
0.0429495 0.186667 0.144686
-0.167677 0.195529 -0.153923
0.0663877 0.195529 0.0960382
-0.0512586 0.186667 0.0302096
0.215607 0.186667 0.179299
0.216028 0.186667 -0.0775704
0.0211217 0.142254 -0.0825432
-0.218115 0.195529 0.246045
-0.0931051 0.142254 -0.257321
-0.219945 0.183534 0.251329
0.217516 -0.190442 -0.357656
-0.22561 -0.114267 0.370593
-0.0600765 0.142254 0.227069
-0.0162656 0.186667 -0.146516
-0.218746 0.195529 0.257847
0.0156943 0.195529 -0.0679261
-0.148213 0.142254 0.280916
-0.191007 -0.116424 -0.401084
0.182279 -0.14421 0.396166
-0.0102001 0.142254 0.194917
0.146906 0.195529 0.192844
-0.0500186 0.195529 -0.316562
0.202736 0.142254 0.298985
-0.0354984 0.186667 0.0284835
0.109015 0.142254 0.114725
0.0489365 0.195529 -0.0568578
0.0843149 0.142254 -0.245554
-0.158381 0.142254 -0.105813
0.211411 0.186667 0.288814
-0.205543 0.142254 -0.183998
-0.0757363 0.142254 0.0291482
-0.152152 0.186667 -0.0294773
-0.0850577 0.195529 0.116109
-0.17748 -0.0259525 0.401084
-0.185427 0.186667 -0.335058
-0.185022 -0.194706 -0.401084
0.144961 0.142254 -0.050924
-0.0677836 0.142254 0.0770601
0.186493 -0.0811375 -0.401084
0.18328 0.185425 -0.395419
0.16832 0.186667 -0.32689
0.0473218 0.195529 0.372193
0.220105 0.186667 0.288337
-0.219945 0.181585 0.370148
0.22561 0.0442274 0.366387
-0.174586 -0.113572 -0.397717
-0.217289 -0.0709859 0.356974
-0.127917 0.142254 -0.369077
0.0084912 0.150567 -0.395419
-0.151265 0.186667 -0.030641
0.0767122 0.142254 -0.242166
-0.171362 0.195529 -0.0253075
0.0596069 0.195529 0.0455814
-0.00815633 0.195529 0.173232
0.0308586 0.195529 0.215343
-0.131214 0.142254 -0.174832
0.220897 0.156698 0.233115
-0.0214621 0.186667 0.0923414
-0.101788 0.142254 0.228581
-0.140299 0.195529 0.199134
0.206551 0.195529 -0.269489
0.0383249 0.186667 -0.0714281
-0.225395 0.144754 -0.401084
-0.0779785 0.195529 -0.00792026
0.215712 0.0155233 0.356974
-0.1434 0.186667 0.30629
0.00969478 0.186667 0.0654312
0.183476 0.186667 0.0114661
-0.219945 0.152556 0.0922501
0.102279 0.186667 -0.0147113
0.22561 -0.114262 0.388412
-0.149892 0.186667 0.206242
-0.0853464 0.142254 0.231137
-0.0630074 0.142254 -0.280564
0.17284 0.186667 0.199546
-0.180737 0.0926035 -0.401084
0.069312 0.186667 -0.0750242
0.0608689 0.142254 0.216067
-0.0346456 0.195529 -0.325841
-0.22561 0.189126 0.0847637
-0.174586 -0.173779 -0.396608
0.0733378 0.142254 -0.138935
0.161324 0.186667 -0.118367
0.184253 0.133021 -0.380704
0.0556543 0.186667 -0.00485051
0.184253 0.0289517 -0.37788
-0.0932305 0.142254 0.347552
0.112072 0.186667 0.121299
0.22561 -0.0657083 -0.357842
0.0896239 0.186667 -0.0903191
0.034286 0.142254 -0.302157
-0.208772 0.165221 0.401084
0.0924656 0.195529 -0.204183
-0.100582 0.186667 -0.247295
-0.168533 0.195529 0.212993
0.198514 -0.0953884 -0.357656
0.0807205 0.186667 0.187684
-0.0482892 0.186667 -0.0575896
0.105035 0.142254 -0.18879
0.174482 0.142254 0.070998
0.166016 0.195529 0.152237
-0.0140603 0.142254 0.0973166
-0.176677 0.142254 -0.175639
-0.06719 0.186667 0.389482
-0.178474 0.195529 0.341839
0.180869 0.142254 -0.339403
-0.0369059 0.142254 0.359935
-0.0728731 0.195529 0.179593
0.199764 0.142254 0.281911
0.0345806 0.142254 0.104152
-0.208912 0.136212 -0.401084
0.00074076 0.142254 -0.342286
-0.174586 0.0497485 -0.36248
-0.120128 0.142254 0.0429198
0.0744858 0.186667 -0.0303565
0.0491705 0.186667 -0.192886
-0.219945 0.151611 -0.276415
0.155474 0.195529 0.0294166
0.192493 0.195529 -0.155948
-0.195768 0.186667 0.0223152
0.22561 -0.0687326 0.365053
-0.145465 0.142254 -0.387147
0.197946 0.186667 0.198609
-0.091597 0.195529 -0.232632
0.22465 0.186667 0.0113599
0.119209 0.186667 0.296677
-0.0124872 0.142254 0.312421
-0.0895305 0.195529 0.199493
0.0364236 0.186667 0.320942
0.184253 0.16787 -0.399986
-0.22561 0.136405 -0.399055
0.219388 0.142254 -0.160804
0.182279 0.125475 0.393083
0.0550474 0.142254 -0.23445
-0.173877 0.195529 -0.0600094
0.060381 0.186667 -0.24949
-0.170917 0.186667 0.126313
0.188683 0.186667 0.178651
-0.0860171 0.186667 0.398947
0.167911 0.195529 0.226634
-0.219945 0.161469 -0.138858
0.00973354 0.186667 0.324327
-0.182965 0.186667 -0.208905
-0.219945 0.173766 0.169907
-0.0798178 0.195529 -0.110629
-0.0833214 0.195529 0.297642
0.108983 0.142254 0.300452
0.22561 -0.0237399 -0.393266
-0.124885 0.142254 -0.289308
0.12698 0.186667 0.0968874
0.0989639 0.142254 -0.224911
0.0441515 0.142254 0.224681
0.141787 0.195529 -0.106506
-0.197236 0.142254 0.218608
0.22561 0.192806 0.266058
0.182279 -0.151413 0.393095
0.0987569 0.195529 0.211377
0.164179 0.186667 -0.0156091
0.210948 0.195529 -0.340422
-0.205329 -0.0235826 -0.401084
-0.078837 0.142254 0.116797
0.0194525 0.142254 0.109412
0.0927067 0.173971 -0.395419
-0.197033 0.186667 -0.297563
0.0154838 0.195529 -0.342912
-0.097341 0.195529 -0.15298
0.225356 0.186667 -0.391781
-0.0137144 0.186667 0.372164
0.0223156 0.142254 0.0893309
-0.130515 0.142254 0.149293
0.225603 0.0988279 0.401084
-0.027916 0.14308 0.395419
0.0494892 0.195529 0.395946
-0.219945 0.150515 0.288242
0.148 0.195529 0.12551
-0.180531 0.142254 0.292445
0.181003 0.195529 -0.396092
0.0299383 0.195529 0.221532
0.0463144 0.142254 -0.209991
-0.0247356 0.142254 0.2251
0.135113 0.142254 -0.0265594
0.178971 0.195529 0.381187
-0.188776 -0.195529 0.391932
0.11056 0.195529 0.219707
-0.178417 0.142254 -0.103269
-0.22561 -0.163951 -0.393693
0.12138 0.195529 -0.340935
-0.208635 -0.0871671 0.401084
0.182279 -0.106717 0.366825
0.186466 0.191849 -0.401084
0.212322 0.186667 -0.385428
0.186627 0.123 -0.357656
-0.0528977 0.195529 -0.295768
-0.077327 0.195529 0.238751
-0.132541 0.195529 -0.0620399
0.0228882 0.195529 0.00350038
-0.140614 0.142254 -0.0210587
-0.152756 0.195529 0.0788982
-0.15724 0.186667 -0.0574849
-0.219945 0.164448 -0.0631584
-0.221138 -0.00776027 0.401084
-0.17998 0.00163865 0.356974
-0.219945 0.148706 -0.162508
0.214254 -0.128258 0.401084
0.0909878 0.142254 0.106375
0.147484 0.186667 0.300252
0.0727953 0.195529 0.180638
0.139276 0.142254 -0.0571408
0.174567 0.142254 -0.253144
-0.129301 0.186667 -0.00676492
0.105554 0.195529 0.039456
-0.0608412 0.186667 0.0670649
-0.183396 0.142254 -0.0122074
0.0809656 0.195529 0.336199
0.151145 0.195529 -0.052798
-0.0326045 0.195529 -0.358036
0.1438 0.195529 -0.308049
0.0145082 0.186667 0.356619
0.220897 0.147441 0.111505
0.220897 0.146668 0.308992
-0.176614 -0.0874145 0.388997
-0.200157 -0.00351508 0.401084
-0.1607 0.186667 0.333419
-0.22561 0.188487 -0.202432
-0.0978417 0.142254 0.220218
0.208975 -0.121212 0.356974
-0.219945 0.185496 -0.173346
0.0147076 0.195529 -0.191924
0.22561 0.174959 -0.359355
-0.114359 0.142254 0.337409
-0.199414 0.195529 -0.0697536
0.0261875 0.186667 -0.324989
0.075289 0.186667 0.277619
0.0335423 0.142254 0.00361604
0.195991 0.0799852 0.356974
-0.0193395 0.142254 -0.0727418
-0.0515498 0.186667 -0.152818
0.046565 0.142254 0.3389
0.192043 -0.00770269 -0.357656
-0.200311 0.0982959 -0.401084
0.22561 0.01343 -0.392888
0.180162 0.195529 0.165997
-0.205864 -0.167425 -0.401084
0.162513 0.186667 -0.20752
0.020816 0.186667 0.174551
0.141828 0.142254 -0.162316
-0.0969401 0.142254 0.0746397
-0.219945 0.18137 0.0270327
-0.195844 0.109597 -0.401084
-0.0476385 0.142254 0.321478
0.22231 -0.195529 0.376382
0.131591 0.142254 -0.121995
0.0315187 0.153902 -0.395419
0.101073 0.195529 -0.36597
-0.0342026 0.186667 0.391276
-0.179666 -0.0839788 0.401084
0.0522197 0.186667 -0.0461484
0.0594194 0.195529 -0.0436579
-0.217152 0.195529 0.0599629
0.0191952 0.195529 0.182478
-0.217564 0.142254 -0.18242
0.0522098 0.195529 -0.0733983
0.196928 -0.112237 0.401084
0.224775 0.180249 -0.357656
0.22561 -0.114397 -0.400776
-0.115643 0.195529 0.354036
0.035275 0.186667 0.110336
0.0307765 0.142254 -0.367162
-0.213775 0.142254 0.212108
-0.166784 0.186667 -0.303586
0.154949 0.189066 0.401084
0.0218348 0.186667 0.168332
-0.219945 0.172166 -0.17722
0.0382587 0.195529 -0.00832443
0.0265134 0.195529 0.0421987
-0.166604 0.195529 -0.379727
0.156402 0.195529 0.0874727
0.120128 0.186667 -0.314932
0.0796452 0.166149 0.395419
-0.00203939 0.142254 -0.097835
-0.0106298 0.186667 -0.125745
-0.178914 0.186667 -0.276541
-0.170324 0.142254 -0.0364177
0.0679087 0.186667 -0.0416757
-0.158456 0.186667 -0.0534064
-0.193161 0.195529 -0.304963
-0.218165 0.186667 -0.375629
-0.0220113 0.142254 0.0284107
-0.219945 0.161781 -0.071263
0.22561 0.142219 0.371644
-0.172278 0.186667 -0.0625199
-0.0971075 0.195529 -0.0088862
0.0367538 0.186667 0.378978
0.00577185 0.195529 -0.189229
-0.17376 0.162713 -0.395419
0.0745655 0.195529 0.0540948
0.174854 0.186667 0.222545
0.173285 0.186667 -0.00390729
-0.0615591 0.186667 0.298637
0.0439731 0.195529 0.27609
0.18513 0.186667 0.181296
-0.219945 0.173188 0.0421906
0.22561 0.193653 0.314658
-0.0512727 0.195529 0.222473
0.116901 0.157608 0.395419
-0.200029 -0.167135 0.356974
0.21559 -0.169168 -0.357656
0.127806 0.195529 -0.287446
-0.203809 0.186667 -0.0176058
-0.219945 0.165792 0.254831
-0.22561 -0.0460853 -0.365529
-0.0522913 0.142254 0.0740036
0.22304 0.186667 0.388654
0.102892 0.182817 -0.395419
-0.157038 0.186667 -0.107098
0.0902216 0.142254 0.11281
-0.22561 0.0404942 0.36238
-0.0537498 0.186667 -0.00888404
-0.188865 0.195529 -0.133462
-0.219945 0.166814 -0.346181
-0.0099819 0.142254 -0.158743
-0.107287 0.195529 -0.334444
-0.0338946 0.142254 0.228693
0.00693107 0.195529 0.22475
-0.148194 0.142254 0.393881
-0.114344 0.195529 0.379651
-0.158438 0.142254 0.145614
0.111237 0.186667 0.38641
-0.22561 -0.053101 -0.386513
0.0228771 0.195529 -0.261641
-0.216044 0.195529 -0.330049
0.127958 0.142254 0.248772
-0.134663 0.195529 0.356581
-0.109397 0.195529 -0.015834
0.11242 0.195529 0.0696562
-0.147669 0.142254 -0.216684
0.0302172 0.195529 -0.27485
0.20876 -0.180988 0.401084
-0.199442 0.164125 0.401084
0.192633 0.186667 0.182631
-0.0532076 0.195529 0.0444584
-0.167132 0.195529 -0.360515
0.126003 0.186667 0.354846
0.210715 -0.123426 0.401084
-0.0468668 0.142254 -0.0276353
-0.188326 0.142254 0.118172
0.184253 0.131807 -0.38983
0.182247 0.186667 -0.390386
0.0932481 0.142254 0.218223
0.0294136 0.186667 -0.0383292
-0.174586 -0.147814 -0.360745
0.0394813 0.195529 -0.33717
-0.175807 0.195529 0.326699
-0.204076 -0.0782594 0.401084
0.0298984 0.142254 0.255568
-0.206886 0.195529 -0.0350078
-0.195733 0.195529 0.0140304
-0.17791 0.195529 0.0797627
0.214229 -0.195529 0.360566
-0.120558 0.195529 0.245924
0.173584 0.195529 -0.375333
0.184253 0.0534555 -0.386073
-0.22561 -0.0660589 0.382393
0.184253 -0.0275445 -0.366476
-0.0503566 0.195529 -0.297536
-0.154464 0.186667 -0.137249
0.12453 0.186667 0.209751
-0.018656 0.142254 -0.210328
-0.22553 0.186667 -0.188432
0.175548 0.195529 0.274302
0.156683 0.142254 0.0722062
-0.08999 0.142254 0.0294715
0.148594 0.142254 -0.173213
0.216794 0.0219917 -0.401084
-0.103558 0.142254 0.217163
0.182279 -0.105664 0.389554
-0.0667618 0.195529 0.0439222
0.138603 0.186667 0.382919
-0.110769 0.195529 0.211053
-0.204673 0.195529 0.306487
-0.00751846 0.186667 0.00147273
0.0536929 0.186667 0.0945828
-0.0387073 0.195529 0.0105821
0.129024 0.186667 0.367109
-0.0184442 0.195529 0.159361
-0.129974 0.142254 0.293406
-0.154673 0.195529 -0.0473288
-0.10762 0.186667 -0.047681
0.22561 0.192408 0.250628
-0.0220402 0.195529 -0.344406
-0.072668 0.142254 0.378181
0.0965546 0.186667 -0.0320058
0.133866 0.186667 -0.251449
-0.0340109 0.195529 -0.175682
-0.22561 -0.0588073 -0.385802
-0.183269 0.186667 0.0651962
0.0731625 0.186667 -0.341275
-0.213326 -0.15216 -0.357656
0.0453198 0.142254 0.0315803
-0.218781 0.186667 -0.205782
-0.0697193 0.195529 0.34182
0.182279 0.0261374 0.359793
0.0734126 0.142596 -0.395419
-0.09204 0.186667 0.162086
-0.131287 0.195529 -0.0974593
-0.219945 0.14661 -0.275513
-0.11525 0.195529 0.165903
0.22561 0.0602217 -0.397799
-0.214012 0.195529 -0.319558
0.220897 0.157908 0.0761025
-0.176614 0.0789861 0.357911
-0.0369566 0.186667 -0.0929298
0.220897 0.154342 -0.159923
0.220412 0.138313 -0.401084
0.0434766 0.195529 -0.233773
-0.110373 0.186667 -0.228154
-0.036284 0.186667 -0.136682
0.00689607 0.186667 0.137046
-0.0325622 0.142254 -0.0100839
0.0467619 0.142254 -0.284143
0.00849279 0.142254 0.116577
-0.207662 -0.101479 0.401084
0.211391 0.142254 0.144434
0.143003 0.195529 -0.0718749
-0.219945 0.174371 -0.182143
-0.19604 0.142254 -0.0879808
-0.0373024 0.195529 -0.249459
0.220897 0.170932 -0.346337
-0.00996024 0.142254 0.0862316
0.0772455 0.186667 -0.095018
-0.111711 0.186667 -0.00119644
-0.217398 0.067847 0.401084
0.0832227 0.186667 0.0337372
0.0137148 0.186667 -0.283302
0.203939 0.159771 0.401084
-0.155181 0.186667 -0.133606
-0.207557 0.0190085 0.356974
-0.0545946 0.169229 -0.395419
0.148166 0.195529 0.237621
-0.120343 0.142254 -0.245137
-0.157257 0.195529 -0.0773579
-0.0663443 0.186667 -0.12378
0.00134129 0.186667 0.0342701
-0.174586 -0.1034 -0.383055
-0.00588524 0.186667 -0.221671
0.117448 0.195529 0.399856
-0.206312 0.0166791 0.356974
0.220897 0.182579 -0.39373
0.22561 -0.0714114 0.369141
0.038025 0.186667 -0.138777
-0.176177 0.186667 0.163586
-0.0612976 0.142254 0.233408
-0.180853 -0.184484 -0.401084
-0.0608358 0.195529 0.0435953
-0.22561 0.0613274 0.390032
0.0610297 0.186667 0.294989
-0.178673 0.186667 -0.00542715
0.0873149 0.195529 -0.0406912
-0.123932 0.195529 -0.272425
0.0970386 0.186667 0.392442
-0.053938 0.195529 -0.13646
-0.177143 0.195529 0.150816
0.16539 0.186667 -0.177147
-0.0394077 0.186667 0.296965
0.220897 0.177363 0.119385
0.00250714 0.142254 0.155277
-0.0944596 0.186667 -0.00235
0.170323 0.186667 -0.173195
-0.104111 0.195529 -0.141956
0.0437746 0.186667 -0.0255921
-0.221041 0.195529 0.212095
-0.174586 0.0861168 -0.367879
0.154469 0.195529 0.17684
-0.0341959 0.195529 0.0109373
-0.0342814 0.142254 -0.115202
0.19647 0.142254 0.260991
-0.0167528 0.142254 -0.256599
0.0337268 0.142254 0.190283
-0.000507444 0.195529 -0.368358
0.138768 0.142254 0.264018
0.114933 0.142254 0.0548834
0.150583 0.195529 0.181343
0.11804 0.186667 -0.365048
0.184866 -0.114082 -0.401084
0.172769 0.195529 -0.194844
0.22561 0.189441 -0.335989
0.00326011 0.195529 -0.18683
-0.187448 0.142254 -0.0479592
-0.219945 0.167464 0.0973098
-0.21769 0.195529 -0.131904
0.126633 0.186667 0.303347
-0.0113563 0.195529 -0.161347
0.22561 0.0276729 0.377455
-0.178632 0.195529 0.373314
0.155028 0.195529 -0.0356495
-0.201314 0.115717 -0.401084
-0.20244 0.186667 -0.188456
-0.100137 0.142254 -0.305231
-0.198404 0.142254 0.0791523
-0.0771809 0.142254 -0.139152
-0.0185218 0.142254 -0.301669
0.138394 0.186667 0.00831196
0.00114807 0.195529 -0.125774
0.207258 -0.0537004 0.356974
-0.171234 0.151308 0.395419
-0.137583 0.142254 -0.011753
0.222508 0.0421456 -0.401084
0.0585231 0.195529 -0.212025
0.21167 -0.0915993 -0.401084
0.066048 0.186667 -0.176031
-0.190147 0.195529 0.166797
-0.127554 0.142254 -0.299592
0.18085 0.186667 0.0281019
0.012851 0.142254 -0.0580031
-0.222642 0.186667 -0.051424
-0.117952 0.142254 0.282978
0.22561 0.0707356 -0.394539
-0.177202 0.186667 -0.34222
-0.220281 0.186667 -0.357739
-0.22561 -0.00121944 -0.400351
-0.0548031 0.195529 0.0287603
-0.0370099 0.186667 0.147731
-0.152104 0.195529 0.204309
0.057168 0.186667 0.300965
0.0514348 0.195529 0.116494
0.0950847 0.142254 0.374333
-0.133409 0.186667 0.116158
0.0778458 0.195529 0.230725
0.0605836 0.147568 0.395419
-0.195972 0.186667 0.122746
-0.107872 0.186667 0.274503
0.0317545 0.154769 0.395419
0.13991 0.186667 0.300297
0.143553 0.186667 0.0187305
0.116504 0.186667 0.341012
0.0347375 0.195529 0.253036
-0.190899 0.186667 0.207288
0.224458 -0.180024 -0.401084
0.00978292 0.195529 -0.0119914
0.129536 0.186667 -0.113217
-0.0187206 0.142254 -0.103668
-0.0538169 0.195529 -0.311272
-0.210697 0.0129478 -0.401084
0.096857 0.142254 -0.0888721
-0.055516 0.142254 -0.00704979
0.218491 0.0570506 -0.357656
-0.0945084 0.186667 -0.115394
0.00771629 0.142254 0.103736
0.112766 0.195529 -0.262025
0.164305 0.142254 -0.219233
-0.207977 0.142254 -0.0233777
0.109947 0.142254 0.251679
-0.143902 0.142254 0.236052
0.18765 0.142254 -0.0951574
0.0741549 0.195529 -0.109398
-0.0464421 0.142254 -0.122894
0.0978371 0.186667 -0.0264802
-0.120421 0.186667 0.0270734
0.166926 0.195529 0.285333
-0.152628 0.195529 0.0507178
-0.153688 0.186667 0.389086
-0.203532 0.195529 0.0677377
-0.174586 0.129563 -0.392705
-0.147822 0.186667 0.371302
-0.113815 0.186667 -0.273205
0.215765 0.195529 0.330223
0.14687 0.186667 0.215797
0.142109 0.142254 -0.132148
-0.195847 0.186667 -0.162811
-0.198528 0.195529 0.356668
-0.222886 0.195529 0.033114
-0.0938934 0.186667 -0.125687
0.0762364 0.186667 -0.368415
-0.0612407 0.186667 -0.187635
-0.160061 0.186667 0.305493
0.22561 -0.00641677 0.36871
0.21082 0.181012 0.397099
-0.0726245 0.142254 -0.106901
0.222767 -0.139769 0.356974
-0.137917 0.186667 -0.257227
0.0525995 0.186667 -0.120831
0.0473542 0.186667 0.0574837
-0.163045 0.186667 0.127813
-0.176614 0.0806998 0.379066
-0.172328 0.195529 0.361531
0.22561 0.19064 -0.271476
-0.162572 0.142254 0.136052
0.212929 -0.0184724 -0.357656
0.145246 0.142254 -0.284573
-0.045969 0.186667 0.226715
-0.18216 0.195529 0.177865
0.22561 0.105132 -0.393269
-0.0525736 0.195529 0.383345
-0.00438324 0.186667 0.376314
-0.00116943 0.195529 0.168247
0.175934 0.142254 0.0786432
-0.112894 0.186667 0.11784
0.0299011 0.142254 -0.287092
-0.0108992 0.186667 0.263238
0.0618145 0.142254 0.36052
0.0222957 0.142254 -0.220072
-0.223867 0.162187 -0.357656
-0.169519 0.195529 0.103486
0.101063 0.195529 0.177317
-0.0830116 0.186667 -0.0697095
-0.0176714 0.142254 -0.392925
-0.219945 0.158443 0.257544
0.207905 0.0143749 -0.357656
-0.00307069 0.186667 -0.327805
-0.22561 0.193636 0.0657637
-0.0737666 0.142254 -0.380408
0.112905 0.186667 0.280651
-0.0294877 0.142254 -0.221918
-0.161411 0.186667 0.183968
-0.220647 0.187046 -0.401084
0.170932 0.186667 -0.247914
0.0829107 0.195529 0.348856
-0.133852 0.186667 -0.0243249
-0.0427379 0.186667 0.165095
-0.208964 0.195529 0.369832
0.192223 0.142254 -0.124859
-0.100782 0.195529 -0.221999
-0.219945 0.159397 0.0780036
0.1614 0.186667 -0.258469
0.220897 0.157046 0.212102
0.198743 -0.0291458 -0.401084
0.192461 0.0328576 0.356974
0.127747 0.142254 0.178806
0.0304061 0.142254 -0.0608244
0.0745252 0.142254 -0.273239
-0.0391035 0.142254 0.116162
0.22561 0.0384398 -0.38495
0.122667 0.195529 0.311146
0.20924 0.0118794 0.356974
-0.0157559 0.142254 0.20225
-0.176614 -0.0455232 0.37027
-0.176614 -0.0953964 0.38373
-0.179025 0.0505634 0.356974
0.0775701 0.186667 -0.220353
-0.111922 0.195529 -0.0879849
-0.20489 0.195529 -0.209547
-0.0869871 0.186667 -0.206854
0.0535899 0.186667 0.0208493
-0.148854 0.195529 -0.208044
0.186388 0.195529 -0.351716
0.104029 0.186667 -0.0548767
-0.0374346 0.195529 0.126687
0.185334 0.0782175 -0.401084
0.203623 0.00306214 -0.401084
0.22561 0.0183381 0.378858
0.220897 0.142537 0.187986
-0.218009 0.0165267 0.356974
0.199442 0.142254 -0.205655
0.214711 0.186667 0.228185
0.210884 0.195529 -0.0138194
0.220897 0.153347 -0.0602234
-0.183696 0.195529 0.0188067
0.163483 0.142254 -0.0887193
0.0727631 0.186667 0.14173
-0.13621 0.186667 -0.220611
-0.183606 0.195529 0.277009
-0.147917 0.195529 0.223966
-0.0958526 0.186667 0.305158
0.200681 0.186667 -0.142699
0.0016447 0.186667 -0.0760066
-0.0256824 0.142254 0.227209
0.175939 0.195529 -0.360195
-0.0340113 0.186667 0.129984
0.179188 0.186667 -0.387834
0.176883 0.186667 -0.10828
0.22561 -0.0289288 -0.39814
-0.206856 0.186667 0.139626
-0.0900972 0.142254 -0.186536
-0.219945 0.145364 0.0516233
0.210341 0.195529 -0.152545
0.22121 -0.036935 -0.401084
-0.12264 0.142254 -0.393026
-0.21573 -0.195529 -0.37631
0.102123 0.186667 -0.198886
-0.160985 0.142254 -0.32703
-0.0674267 0.186667 0.395733
-0.0727551 0.195529 -0.077577
-0.184428 0.142254 0.215387
-0.218337 0.195529 0.310869
-0.199958 0.186667 0.362215
-0.116126 0.186667 -0.390902
-0.174586 -0.160569 -0.367917
-0.0390914 0.195529 -0.147016
0.220335 0.186667 -0.301
-0.149788 0.195529 -0.369325
0.103724 0.195529 0.365203
-0.137558 0.186667 -0.298478
-0.069213 0.195529 0.334047
-0.020278 0.195529 0.338038
-0.162809 0.174771 0.395419
-0.132714 0.186667 0.390171
0.1469 0.142254 -0.156045
-0.138561 0.195529 0.180256
-0.00132617 0.186667 -0.0354108
0.220382 0.186667 0.0798217
0.22561 0.0625401 -0.358686
-0.0536141 0.142254 0.234464
0.113681 0.195529 -0.374803
-0.219945 0.151097 0.142618
0.129359 0.142254 -0.266205
0.0268541 0.142254 -0.126937
-0.0100147 0.142254 0.333591
0.209188 0.0413026 0.356974
0.0451574 0.186667 -0.0621775
0.0436356 0.186667 -0.113087
0.0580307 0.186667 -0.0535853
0.170587 0.186667 -0.120988
0.16815 0.195529 0.0259322
0.078003 0.142254 -0.22931
0.0824181 0.142254 -0.0659123
-0.0719739 0.142254 -0.331952
-0.22561 0.0713337 0.380889
0.22561 0.0392512 0.381443
-0.0979753 0.142254 0.368604
-0.0835837 0.142254 0.372009
0.214864 0.186667 -0.14259
-0.00432195 0.195529 -0.261514
0.118846 0.195529 -0.0206843
-0.199027 0.186667 0.267562
-0.127271 0.142254 0.0237376
0.150285 0.186667 -0.191056
0.148885 0.186667 -0.290931
0.0963381 0.195529 -0.371468
-0.175889 -0.108654 -0.401084
-0.181587 0.142254 0.302893
0.143511 0.142254 -0.229624
-0.125759 0.142254 -0.228067
0.0320665 0.149037 0.395419
-0.193527 0.142254 -0.014829
-0.146277 0.142254 -0.386765
0.0126279 0.186667 0.0441299
0.127123 0.186667 0.0261759
-0.14035 0.195529 0.322681
-0.122177 0.142254 -0.305717
-0.211149 0.108716 0.401084
-0.118268 0.195529 0.300762
-0.174586 -0.153253 -0.359611
-0.0239705 0.172202 -0.395419
0.087895 0.142254 -0.00810667
0.0366572 0.195529 -0.160341
-0.22561 -0.150223 -0.372281
-0.176614 0.0312367 0.386362
-0.22561 -0.155989 -0.368037
0.112336 0.195529 -0.261392
0.0255941 0.142254 0.280591
-0.102634 0.142254 0.264126
0.112179 0.195529 0.0277369
0.22561 -0.119109 -0.399256
0.0582328 0.195529 0.00242148
0.0529687 0.186667 -0.0676149
0.00851642 0.190149 0.401084
-0.167497 0.195529 0.313364
-0.0173293 0.186667 0.0315132
-0.196352 0.142254 -0.319917
0.0298748 0.195529 0.252417
-0.046825 0.142254 0.162037
-0.187057 0.186667 0.0843266
0.0920927 0.195529 0.085552
-0.181533 0.195529 0.294396
-0.127631 0.186667 0.138199
-0.0472377 0.142254 -0.0162477
0.0770633 0.186667 0.306631
-0.131439 0.186667 -0.0557962
-0.197857 -0.0412345 -0.401084
-0.183636 -0.163635 -0.401084
-0.223619 0.186667 0.211462
-0.184186 0.195529 0.314689
0.0810271 0.186667 0.190891
-0.219945 0.175841 0.0805403
0.140191 0.186667 0.0521082
0.00930962 0.195529 -0.391122
0.0327827 0.186667 -0.276306
-0.219945 0.183661 0.263838
0.210099 0.0615494 -0.401084
-0.211405 0.122144 -0.401084
-0.130188 0.195529 0.132033
0.149161 0.142254 -0.0478714
-0.18123 -0.0771812 0.356974
-0.0294462 0.186667 -0.138189
-0.171454 0.187464 0.401084
-0.175908 0.142254 0.0384486
0.19829 0.195529 0.0995762
0.0614808 0.195529 0.28449
-0.147253 0.186667 0.31321
0.12028 0.142254 -0.037721
-0.0508924 0.195529 0.360147
0.201196 0.195529 0.29496
-0.162975 0.186667 -0.17788
-0.223228 0.186667 0.10284
0.0584317 0.186667 0.395184
0.0816738 0.195529 -0.0553406
0.00278784 0.186667 0.0680351
-0.0949817 0.186667 -0.27037
0.222951 0.195529 -0.11141
-0.0682925 0.142254 -0.302115
-0.088392 0.186667 -0.265892
0.00257716 0.195529 0.286622
-0.0410732 0.142254 0.367212
0.101934 0.195529 0.310463
0.0389811 0.142254 0.271819
-0.211688 0.195529 -0.225951
-0.13628 0.195529 -0.168392
0.017386 0.186667 -0.050004
-0.0800743 0.186667 -0.0080528
-0.0754839 0.186667 0.168208
-0.0595571 0.142254 -0.222937
0.133223 0.195529 0.0331593
0.0137692 0.142254 -0.122918
0.0328966 0.186667 0.28324
-0.0225887 0.142254 -0.148448
-0.0831667 0.195529 -0.0270431
0.20779 0.142254 0.114157
-0.14213 0.186667 0.0370962
-0.0233711 0.195529 0.342012
-0.219497 -0.0331783 -0.401084
0.22561 0.193808 -0.31402
-0.0740037 0.152337 -0.395419
-0.132168 0.195529 0.136805
0.18252 0.186667 -0.194082
-0.0721015 0.186667 0.00194192
0.0485058 0.142254 0.29614
0.0112652 0.142254 0.356176
0.00508137 0.142254 -0.130138
0.027954 0.195529 -0.201725
0.161094 0.186667 0.153922
-0.189117 -0.154575 -0.357656
-0.112275 0.186667 0.154922
0.0454681 0.142254 0.268791
-0.00855745 0.195529 -0.293027
-0.184969 0.186667 -0.259008
-0.22561 0.0819105 -0.38188
0.0882029 0.195529 0.32096
-0.0712449 0.195529 0.368696
0.174718 0.186667 0.207171
-0.21324 0.195529 0.373397
0.197992 0.142254 -0.35523
0.0298644 0.142254 -0.128422
0.04132 0.186667 -0.078138
0.184253 -0.0379703 -0.398559
0.0902898 0.142254 0.18086
0.201573 -0.195529 -0.389757
0.22561 -0.163225 0.387923
-0.117361 0.142254 -0.155913
0.193449 -0.129696 0.356974
-0.15435 0.186667 0.134335
0.147668 0.186667 0.0728968
-0.0385948 0.186667 0.0339373
0.0625828 0.142254 0.300925
-0.0572202 0.186667 -0.167449
0.141301 0.142254 0.0951187
-0.0277174 0.195529 -0.285024
0.0334146 0.142254 -0.315087
0.132409 0.186667 -0.104924
0.039333 0.186667 0.0206973
0.220897 0.142436 -0.0119083
-0.0841396 0.195529 -0.20444
0.172232 0.195529 -0.290924
0.0149256 0.195529 0.278068
0.158626 0.142254 0.325394
0.172877 0.195529 -0.155745
-0.0555268 0.195529 0.132607
-0.174586 0.110634 -0.38691
0.217204 0.186667 0.0341415
-0.0933498 0.176929 -0.395419
-0.187752 -0.16332 -0.401084
-0.22561 -0.0168364 0.367655
0.150107 0.142254 -0.157597
0.22561 0.0734819 -0.393056
0.0589238 0.186667 0.160212
0.00580414 0.186667 0.294895
-0.174586 -0.0679665 -0.381863
-0.00875729 0.186667 0.217013
0.220897 0.144544 -0.14628
0.22561 0.126643 0.371915
-0.216922 0.195529 -0.0948419
0.0168173 0.195529 0.368703
-0.198266 0.195529 -0.280982
0.201149 0.186667 0.224004
-0.116757 0.195529 -0.0283868
-0.0232253 0.195529 0.361842
0.160299 0.186667 0.258021
0.090888 0.195529 0.199451
-0.198732 -0.0820874 -0.357656
0.060821 0.142254 0.034493
-0.193077 0.186667 -0.395674
0.220897 0.143784 -0.0134026
-0.174586 -0.0500816 -0.386946
-0.138768 0.142254 0.107031
-0.219945 0.163429 -0.00153153
0.22412 0.195529 0.0537622
-0.179018 -0.0746366 0.401084
0.0986507 0.195529 -0.110368
-0.132313 0.186667 -0.0906134
0.0939385 0.142254 -0.302407
0.101356 0.195529 0.333343
-0.219945 0.163723 0.116058
0.00901303 0.163539 0.395419
-0.220624 0.0210917 -0.401084
-0.0243404 0.142254 -0.285673
0.0807954 0.142254 0.234081
0.0525239 0.142254 0.316214
0.218289 0.142254 -0.218459
-0.195448 0.142254 0.302366
-0.220881 0.195529 0.116823
-0.219945 0.17518 -0.332213
0.0944303 0.186667 -0.175523
-0.183924 0.195529 -0.169653
0.220897 0.181649 -0.319849
-0.182576 0.195529 0.0891261
-0.219945 0.157872 0.281629
0.204223 0.186667 0.16335
0.185743 0.142254 0.3508
0.188141 0.142254 -0.322062
0.0295045 0.186667 -0.330308
0.105448 0.186667 -0.0769073
-0.174586 -0.103404 -0.370995
0.107428 0.195529 0.100057
0.224529 0.186667 0.0854529
-0.181353 0.195529 0.052811
-0.0684557 0.195529 -0.359137
-0.12402 0.186667 0.150247
0.182279 0.0463194 0.379482
-0.205972 -0.0113526 -0.357656
0.212648 0.142254 0.339937
0.133291 0.186667 0.0284004
-0.0364735 0.195529 0.00904667
0.0360641 0.195529 0.344957
-0.22561 -0.00913 -0.359792
0.0535516 0.142254 -0.325266
-0.0616633 0.195529 0.295774
-0.194085 0.108416 0.356974
0.0260001 0.142254 -0.147782
0.22561 0.132785 -0.392172
