ply
format ascii 1.0
comment Created by Open3D
element vertex 1607
property double x
property double y
property double z
end_header
0.151934 -0.00908445 -0.29958
-0.155627 0.189207 -0.255759
-0.131 0.0544716 0.0470749
-0.14699 0.0710561 0.216742
-0.152833 0.143978 -0.0634643
0.114416 -0.11685 -0.00125178
-0.216031 0.0855765 -0.187028
-0.0833192 -0.139255 -0.149487
0.0581415 -0.139255 -0.153406
-0.103666 0.110096 -0.290799
0.112231 -0.139255 0.0865875
0.215499 0.116 0.303028
-0.0425577 0.00602441 0.12427
0.00751641 -0.0718244 -0.397967
0.119739 -0.139255 0.208493
-0.106662 -0.000812015 0.231478
-0.116283 0.0244391 -0.245438
0.102447 -0.139255 0.0737207
-0.13932 0.0867015 -0.229599
-0.111635 0.00850212 0.217463
-0.172217 0.11569 0.192376
-0.114187 0.00194948 -0.397967
-0.153749 0.0830145 0.256349
-0.175814 -0.139255 0.247013
-0.0141662 -0.139255 -0.351773
-0.131973 0.0849013 -0.293829
-0.128097 0.0532957 -0.124495
0.117931 -0.0870355 -0.397967
-0.134629 0.0643661 0.273775
0.181334 -0.0152816 -0.241559
-0.0530271 0.072396 -0.290799
0.214418 -0.0967584 0.124989
-0.164585 0.102187 0.132874
-0.162555 0.18887 0.0524503
-0.137225 -0.0685637 -0.00125178
-0.049408 0.0563513 0.209271
0.139235 0.107659 -0.293941
-0.164693 0.102378 0.271084
0.114103 -0.0152816 0.27241
-0.216031 0.0773915 -0.334609
0.162967 0.0108289 -0.397967
-0.0561495 -0.139255 0.291512
-0.17683 0.11861 -0.121758
-0.218497 0.114865 0.0492509
-0.0828515 -0.139255 -0.146514
-0.100987 0.0313246 0.290799
-0.104988 0.204771 0.185712
-0.150906 0.121838 0.0240129
-0.0531406 0.0737875 0.0444545
-0.0413898 -0.139255 -0.330503
-0.0883059 0.0360656 -0.397967
-0.203882 0.11861 0.089701
-0.216031 0.111094 -0.179145
-0.149076 0.0791108 -0.0243723
-0.133408 0.0513889 -0.278996
-0.0924426 0.17964 0.140443
0.070701 0.0229819 -0.397967
0.214418 -0.00100524 0.320835
-0.116415 0.0169593 0.291335
-0.0907942 -0.0152816 0.283527
-0.216031 -0.0422608 -0.0633072
-0.068698 0.125839 0.269105
-0.216031 0.00638883 -0.0260785
0.0681473 -0.0152816 -0.222075
-0.218389 0.11861 0.0150694
0.104526 -0.139255 0.234304
0.0419572 -0.139255 -0.287655
-0.0283287 0.11861 0.322691
0.0838569 -0.139255 -0.178942
-0.0972378 -0.012608 -0.25759
-0.155178 0.158505 -0.266454
-0.15736 0.0293443 0.397967
0.0331266 -0.139255 -0.231871
0.0397384 -0.126698 -0.397967
0.212881 -0.140174 0.251907
0.212097 -0.123403 0.397554
-0.0944637 0.0403007 0.293829
-0.216031 0.0308376 -0.258453
0.214593 0.0664872 -0.294872
0.0323436 -0.139255 -0.12002
0.0186264 -0.00627371 -0.397967
-0.176027 -0.139255 -0.0945278
0.0858101 -0.0152816 0.0861795
-0.112534 0.0162104 -0.101326
-0.109128 0.17843 -0.00318015
0.164897 0.11861 0.324141
-0.111051 0.0118321 -0.0772393
0.214675 -0.0408957 -0.396607
-0.207861 0.11861 0.251826
0.0271079 -0.0152816 0.0639543
-0.162494 0.102852 -0.293547
-0.216031 -0.129736 -0.235299
0.118924 -0.139255 0.272013
-0.0957041 -0.139255 -0.328751
0.0618985 -0.0152816 -0.125056
-0.0966441 0.0828089 -0.00318015
-0.0718737 -0.139255 0.302835
-0.0777627 0.0810321 -0.397967
-0.0396463 0.000462853 -0.0802561
-0.128482 0.108219 0.290799
0.0635103 -0.066763 -0.397967
-0.0468977 -0.0803894 -0.397967
-0.0756444 -0.0699847 -0.00125178
0.174725 -0.139255 0.302033
0.181699 0.0642594 -0.397967
0.125377 -0.139255 -0.0311513
0.0108991 -0.112745 -0.00125178
-0.165243 0.103351 0.208184
-0.174985 0.11861 -0.083838
-0.110757 0.00694843 0.239919
0.213409 -0.0152816 -0.256134
-0.09433 -0.139255 -0.290698
-0.139801 0.0883506 -0.0719845
-0.0465412 -0.139255 0.106056
-0.132593 0.0364657 0.397967
-0.151317 0.144988 -0.00205955
-0.211723 -0.139255 -0.106408
-0.0404037 -0.138753 -0.39068
-0.218497 -0.040538 0.33118
0.0374742 -0.139255 0.103232
-0.0301012 -0.113346 0.00125178
-0.061891 -0.139255 0.178438
0.121319 -0.139255 -0.191216
0.216885 0.016538 -0.382288
0.133897 0.11861 -0.386489
-0.0958835 -0.0152816 0.11784
-0.0695701 -0.0578151 0.00125178
0.0729928 -0.0800771 0.00125178
0.077471 -0.139255 0.290433
-0.216031 0.115615 -0.258337
-0.120461 0.0340762 -0.226854
-0.0684671 0.131733 -0.0522083
-0.216031 -0.0848357 -0.0154162
-0.10264 0.0354813 -0.00318015
-0.0375498 -0.139255 -0.181803
-0.218497 -0.0961454 0.360398
-0.0760832 0.0903944 -0.00318015
-0.105078 0.00174521 -0.00150833
-0.0939436 -0.139255 -0.109597
0.0632106 0.11861 -0.373327
-0.216031 0.0504398 -0.153702
-0.0576435 0.0117116 0.290799
0.153717 -0.0152816 -0.259728
0.216885 -0.0912734 -0.0734202
-0.0594602 -0.0358326 -0.397967
0.174946 -0.139255 -0.210035
0.162944 -0.206995 0.337336
-0.0420151 0.0250484 -0.250926
0.0549713 0.11861 -0.32464
-0.187792 0.11861 -0.353846
0.117733 -0.139255 0.168612
-0.117662 0.0220508 0.152391
-0.181633 -0.204267 0.345002
-0.0477556 0.0603483 -0.247233
-0.130561 -0.00362647 -0.397967
0.197327 -0.00616548 0.397967
0.0552106 -0.0152816 -0.0418138
-0.100469 0.0354338 -0.293829
-0.116684 0.0253202 -0.216772
-0.13987 0.062822 -0.28218
0.17171 0.0428941 -0.293829
-0.149803 0.191021 -0.256282
0.214418 0.0478797 0.385118
0.00679626 -0.0152816 -0.180615
0.184002 -0.139255 0.327758
0.0133417 -0.0152816 -0.0200781
0.160345 -0.0152816 0.157193
-0.200577 -0.139255 -0.0714789
-0.0721921 0.135051 0.261873
-0.0885732 0.0136493 -0.397967
-0.216031 -0.0319384 -0.190826
-0.0378998 -0.137814 -0.392826
0.214418 0.0027875 0.344189
0.0116739 -0.0859627 0.00125178
-0.115655 0.0560623 -0.397967
-0.216031 -0.0257726 -0.174891
-0.216031 -0.020178 -0.271886
0.216878 0.0490606 -0.395355
-0.0786144 -0.0237133 -0.397967
-0.0584899 0.10282 -0.249897
0.195889 -0.0152816 -0.010963
-0.218497 0.0351517 0.281932
-0.0394197 -0.0024298 -0.197911
0.0954488 -0.0719602 0.397967
-0.0890087 0.177798 -0.241839
-0.0428027 0.0315689 -0.126447
-0.0688378 0.126207 0.0900696
-0.044523 -0.0152816 0.244637
0.0518865 -0.139255 0.245207
-0.00432371 0.0266636 -0.397967
0.216885 -0.103768 -0.331155
-0.00175872 -0.044732 0.397967
-0.00372253 -0.0490485 -0.00125178
-0.102175 -0.00387192 -0.220617
0.216885 0.0689281 -0.366036
-0.0247607 0.116583 -0.299633
-0.218497 0.0351764 0.322931
0.0445192 0.00586469 -0.397967
-0.192563 -0.014883 0.397967
-0.0422338 -0.0472218 0.397967
-0.122897 0.20017 0.0523505
-0.148488 0.0780706 -0.173428
-0.218497 0.0417535 0.165167
-0.0775427 -0.0150038 -0.0363872
0.0773297 -0.139255 -0.182371
-0.20421 -0.139255 0.34464
-0.111146 -0.139255 0.254742
-0.0869759 -0.0171737 0.00646306
0.0840745 0.0617736 -0.397967
-0.130287 0.0458669 -0.13627
0.105479 -0.139255 0.0397043
-0.12754 0.0885137 -0.00318015
-0.132057 0.11861 -0.367103
0.216885 -0.0223432 -0.387908
0.0277636 0.0600421 0.293829
0.0586613 -0.0152816 0.135969
-0.218497 0.0607194 0.177443
0.156981 0.0706348 -0.397967
-0.216031 -0.11804 -0.0171618
-0.076606 0.145906 0.0127962
-0.129227 0.0439911 -0.135878
0.130978 -0.139255 0.0274079
0.197585 -0.139255 0.336555
0.166805 -0.0152816 0.247547
0.161812 -0.0152816 0.213857
-0.0460203 -0.139255 0.268721
-0.073141 0.143563 -0.0441421
-0.0441055 0.0219333 0.115659
-0.0362919 -0.0152816 0.148645
-0.12413 0.0349742 -0.268735
0.192296 0.0236374 -0.293829
-0.216031 0.0296748 -0.265259
0.0300381 -0.0152816 -0.173092
-0.216031 0.0669219 -0.366246
-0.160083 0.187088 -0.217527
0.167217 -0.0152816 -0.0879283
0.214418 -0.0528924 0.322623
-0.175337 0.11861 -0.12267
-0.218497 0.0656534 0.388587
-0.0475923 0.0595467 -0.28568
0.15191 -0.0222891 0.298757
0.0276629 -0.139255 0.0548034
0.202477 -0.139255 -0.372492
-0.218497 -0.102156 0.0925443
-0.0576436 -0.00880612 -0.27555
0.0845718 -0.0152816 -0.0272976
-0.0517356 -0.0611206 0.00125178
-0.149929 0.117301 0.182933
0.175091 -0.0615059 0.397967
-0.158846 0.167001 0.263188
-0.118042 0.201682 0.240701
-0.108944 0.00869065 -0.104887
-0.0904017 0.18045 -0.134647
-0.0584392 -0.139255 -0.0031796
-0.218497 -0.107367 0.0565048
-0.171366 -0.139255 0.0136483
-0.0647612 -0.0152816 0.0673827
-0.131352 -0.032531 -0.397967
0.216885 -0.0570071 -0.274837
-0.171189 0.113872 0.0508379
-0.15645 0.188261 -0.0491762
-0.182299 0.11861 0.126706
-0.0668354 -0.0208636 -0.397967
-0.191134 -0.134651 0.00125178
-0.0418986 -0.00226504 0.248165
-0.139821 0.0627358 -0.246938
-0.0634525 0.110589 0.244289
0.214418 -0.0765667 0.0240622
0.210703 0.11861 0.36393
-0.216031 0.0722339 -0.254032
0.208858 -0.0152816 -0.177457
-0.0179276 -0.139255 0.0732684
0.114852 -0.0152816 -0.0316009
0.0185633 0.11861 -0.359729
-0.0401859 -0.00332649 0.0299948
-0.0333952 -0.00819038 -0.29838
-0.0834652 0.14052 -0.00318015
-0.133497 0.103798 0.290799
-0.0976174 -0.139255 -0.260826
-0.200687 -0.139255 -0.27676
-0.216031 0.11546 -0.326021
-0.169588 0.115404 -0.188994
-0.218497 0.104152 0.342399
0.161878 0.11861 -0.344746
-0.141552 0.0943488 -0.268676
-0.120912 0.09352 -0.397967
-0.0807342 -0.128495 0.397967
0.00414208 -0.139255 -0.317145
0.179444 -0.138058 -0.392355
-0.0698153 0.135287 -0.128716
-0.133362 0.11861 0.376527
-0.12379 0.0484376 -0.293829
-0.0878493 -0.139255 0.0867982
-0.0538117 -0.113086 0.00125178
-0.139858 0.0885453 -0.109361
-0.0461516 -0.0152816 -0.13711
-0.0414519 0.11861 -0.320662
-0.178207 0.11861 -0.251111
-0.097701 -0.125635 0.00125178
-0.152324 0.191004 0.145851
-0.00655393 -0.0462499 0.00125178
-0.187733 0.11861 0.134057
-0.216031 -0.0541377 -0.255411
-0.0121657 -0.139255 -0.208526
0.13325 -0.139255 0.0900574
-0.156212 0.16582 -0.0496925
-0.0178975 -0.00478083 -0.293829
0.214418 -0.047055 0.046105
0.214418 0.0390667 0.334883
0.200417 0.0477744 0.397967
-0.0270818 -0.139255 -0.340702
-0.119072 0.0216605 0.0193389
-0.0155206 -0.0328532 -0.397967
0.132288 -0.0666981 -0.00125178
-0.100432 -0.139255 -0.358805
0.0546378 -0.0215961 0.397967
-0.0470462 -0.00473737 0.109345
-0.129519 0.0504874 0.241031
-0.0315974 -0.139255 -0.0405679
0.0943199 -0.139255 -0.0913982
0.214418 0.0901219 0.367374
0.216885 -0.00450319 -0.295252
-0.188947 0.11861 -0.037051
-0.115898 -0.124781 0.397967
-0.128507 0.0477617 0.285753
0.0413136 -0.0833111 0.00125178
-0.218497 0.0896976 0.223276
0.217751 -0.0143928 -0.271911
-0.137296 0.0539047 0.271219
0.214418 -0.0653097 0.12732
-0.141582 0.0658516 -0.217464
-0.0996783 -0.101742 0.00125178
-0.11487 0.0876095 0.293829
-0.142361 0.0886698 0.203682
-0.107179 0.000221358 0.128124
0.207612 -0.0152816 0.0289372
0.129329 0.11861 0.355323
0.0939114 -0.0164513 0.302005
0.155627 -0.0212702 0.00125178
0.096731 -0.0152816 0.132506
0.154031 -0.0152816 -0.0128897
0.0571922 0.0958728 0.397967
0.172971 -0.0148325 -0.30197
0.216885 -0.0770869 -0.341149
-0.0617514 0.105492 0.0188929
-0.206315 -0.139255 0.306953
-0.139095 0.0859311 -0.154561
-0.119658 0.0264323 0.105242
-0.0406929 0.013549 -0.115528
-0.218497 -0.12927 0.19145
0.00336216 -0.0152816 -0.0422064
-0.0561383 0.0946951 -0.149721
0.0592767 -0.139255 -0.232714
-0.100995 -0.0114692 0.205051
0.0450207 -0.023875 -0.294262
-0.169695 0.0491152 -0.397967
-0.174933 0.11861 -0.0730095
-0.0538666 -0.139255 0.130048
0.214418 0.0356649 0.372456
0.185833 -0.139255 -0.219376
-0.15146 0.0789643 0.187016
-0.0151704 -0.139255 -0.249076
-0.143461 0.0648119 0.145244
-0.150359 0.130746 -0.132767
-0.218497 0.0180181 0.219232
-0.216031 0.0998209 -0.0417702
0.189085 -0.00775641 -0.397967
-0.110784 0.00930489 -0.289576
0.216885 -0.0250808 -0.246049
-0.0983419 0.190727 0.114946
0.147749 -0.139255 0.30337
-0.205919 0.0326256 -0.397967
-0.111536 0.11889 0.290799
0.152234 0.116426 0.299398
0.012507 -0.0152816 0.281332
-0.216031 -0.00575729 -0.00865776
-0.0440124 -0.00318589 0.241897
0.214418 -0.128977 0.105857
-0.0725666 -0.0152816 -0.0643943
0.215995 -0.0152816 -0.250682
-0.0996822 -0.139255 -0.147467
-0.121718 0.167591 -0.00318015
-0.130635 0.0601279 -0.236885
-0.0783148 -0.139255 0.132358
0.0068963 -0.0152816 -0.0461705
-0.216031 -0.096971 -0.360548
-0.123038 0.0403158 -0.0681797
0.196232 0.0765808 -0.293829
0.0614837 -0.0152816 0.00762027
0.142357 0.0352699 0.397967
0.213488 -0.136702 0.0276477
-0.203258 -0.127114 -0.397967
-0.108083 0.204016 -0.0967544
-0.216031 -0.0939099 -0.0232245
0.167836 -0.139255 0.207465
-0.218497 -0.0813167 0.148565
0.0853153 -0.0294528 0.00125178
-0.121028 0.11861 -0.378055
-0.0684572 -0.0152816 0.120732
0.0470771 -0.0152816 0.0514113
0.0969047 -0.139255 0.109515
0.046745 0.0378194 -0.397967
-0.104697 0.00019153 -0.217755
-0.0371644 -0.139255 0.048556
0.214418 -0.111916 0.379892
-0.129411 0.197373 -0.230563
-0.165168 -0.139255 -0.230804
-0.216031 -0.013437 -0.149609
0.216885 -0.0926491 -0.0982707
0.177069 -0.0409624 -0.397967
-0.112671 0.0103351 0.261592
-0.202438 -0.139255 -0.219495
0.212134 -0.0858599 0.0023244
0.214418 -0.0364106 0.104881
-0.100035 -0.00765955 -0.0122515
0.0331309 0.106823 -0.293884
0.214418 -0.0348037 0.300675
0.125756 -0.139255 -0.0895371
-0.00248525 -0.136684 0.00654325
-0.136271 0.11861 0.385229
-0.20433 -0.0924671 -0.00125178
-0.218497 0.114936 0.242914
-0.134621 0.0643445 0.134975
0.216885 -0.0347706 -0.340242
0.044073 -0.139255 -0.376003
0.158818 0.11861 -0.306506
-0.0631158 -0.139255 0.298288
-0.218497 -0.132924 0.328709
-0.201472 0.11861 -0.0524285
-0.216031 0.0402763 -0.0565374
-0.0987373 -0.00995477 -0.214314
-0.0946769 0.183893 0.222823
-0.0562985 0.0952485 -0.225806
-0.105217 -0.136474 0.394609
-0.158463 0.185802 -0.0194065
0.216885 0.0532236 -0.350894
0.216885 -0.0677189 -0.168807
-0.0567091 0.0881444 0.0701774
-0.0532919 -0.00668264 0.119184
-0.083127 0.0474309 -0.293829
0.18584 -0.0152816 -0.226295
-0.143742 -0.139255 0.221071
-0.0688021 0.00206014 -0.290799
-0.09768 0.0747138 0.290799
-0.147254 0.116334 -0.175559
-0.0575861 0.0996972 -0.127072
0.122387 -0.0152816 0.142426
-0.138156 -0.0341859 0.00125178
-0.0189571 -0.139255 -0.321032
-0.208257 -0.139255 0.0643074
0.216885 -0.0656604 -0.333504
-0.168958 0.114288 -0.289492
0.184505 -0.139255 0.225243
0.183715 -0.0689217 0.00125178
-0.0792527 0.157756 -0.0167798
0.190733 0.118554 0.305585
0.200423 -0.0152816 -0.203138
-0.0940174 0.182637 0.034464
0.143802 -0.025984 0.00125178
-0.102362 0.0620637 -0.397967
0.216885 -0.117099 -0.0889113
0.109943 0.106845 0.397967
-0.216438 -0.0221919 0.00125178
-0.0704713 0.137017 -0.0913271
0.214418 0.109472 0.297271
-0.105657 -0.0028233 0.0640952
-0.0519711 0.079056 -0.150466
-0.150384 0.130863 -0.0978064
-0.0123255 -0.0627017 -0.397967
0.134841 -0.0152816 -0.187317
-0.15067 0.13219 -0.0541408
0.008701 -0.0152816 -0.263446
-0.17963 -0.139255 -0.265213
-0.000668869 -0.139255 0.0963267
-0.0937466 0.154117 -0.290799
-0.156808 0.17004 -0.106782
0.168722 -0.130577 -0.350133
-0.0641845 0.117931 -0.302445
-0.216031 0.0108924 -0.129495
-0.0911558 -0.0152816 0.258415
0.00510748 0.0255583 0.293829
-0.198816 0.0187151 0.00125178
-0.117348 0.0213629 0.121196
0.0564128 -0.139255 -0.207074
0.175782 -0.139255 0.165395
0.216885 0.0981786 -0.376119
0.216885 -0.0540984 -0.1675
-0.1272 0.0810459 -0.00318015
-0.131707 -0.139255 -0.191144
-0.110808 0.203167 -0.134518
-0.128384 0.067187 -0.397967
0.216885 -0.112579 -0.106062
-0.193305 -0.139255 -0.175207
-0.13759 0.0544236 0.176587
-0.0635321 0.0300045 0.00318066
-0.0431437 0.0337797 -0.288789
-0.10783 -0.139255 0.104052
0.116967 0.110954 -0.397498
0.0098581 -0.0152816 -0.185252
0.101321 -0.139255 0.110684
0.214418 -0.0909964 0.0696708
0.179743 -0.204267 0.355585
0.214418 -0.0735333 0.024932
-0.117284 0.201918 0.200578
-0.140912 0.0921564 -0.263348
0.187988 0.000769542 -0.293829
-0.178827 0.0713766 -0.397967
-0.0574481 -0.00874526 -0.276254
-0.0760802 0.150459 -0.223835
-0.0427289 0.00816385 0.143459
0.216885 -0.134236 -0.0201551
-0.189196 -0.139255 0.163383
-0.206708 0.11861 -0.08993
0.0694733 -0.0588569 -0.00125178
0.0316815 -0.139255 0.275606
-0.184211 0.0599698 -0.00125178
0.208989 -0.0840356 -0.00125178
-0.0887917 -0.139255 -0.052909
-0.0496047 0.0573046 0.00446686
0.216885 -0.0392142 -0.315881
-0.0745212 -0.097236 -0.397967
-0.216031 -0.124942 -0.14317
-0.216031 -0.0400731 -0.319595
-0.0285847 -0.139255 -0.0171226
0.206024 -0.139255 0.235818
-0.216031 -0.0700649 -0.0459091
0.0521899 -0.139255 -0.263814
0.218251 0.00221044 -0.293552
0.0301657 -0.0152816 0.00584598
-0.00273322 -0.0152816 -0.27874
0.175303 -0.183983 -0.354987
-0.0819747 -0.0152816 0.259013
-0.0600881 -0.0603883 0.00125178
-0.127843 0.140869 -0.290799
0.0795084 -0.139255 0.130561
-0.0515328 0.0667825 0.0592429
-0.216031 0.0127052 -0.0798453
0.174442 -0.0939304 -0.00125178
0.0486222 -0.0332034 0.00125178
-0.149788 0.00934688 0.397967
-0.104587 0.0473631 0.397967
0.00174898 -0.139255 0.200774
-0.190911 -0.0638426 -0.397967
-0.0868697 -0.103718 -0.397967
-0.0957109 0.0938066 -0.397967
0.216885 -0.0401529 -0.0171866
-0.0676069 -0.0152816 -0.0511011
0.0910992 -0.0152816 0.259694
-0.152471 0.19019 -0.261215
-0.166706 -0.057326 0.397967
-0.148213 0.126512 -0.288749
0.212613 0.0230893 0.398629
-0.158147 0.189941 -0.255031
0.165981 -0.0152816 -0.0164275
0.113962 -0.139255 0.180942
0.216885 -0.0603695 -0.213396
-0.0641219 0.0410165 -0.00318015
0.216885 -0.0614164 -0.103173
0.155556 -0.139255 0.140147
-0.0720678 0.141045 -0.116412
0.106155 -0.0152816 0.0405476
-0.133543 0.0472637 0.180411
-0.128678 0.0430207 -0.286005
-0.215912 -0.139255 0.143706
-0.0458571 -0.0152816 0.172493
-0.0417443 -0.00115733 0.24322
0.0907762 0.11861 0.362635
0.136101 -0.0469009 -0.397967
0.155825 -0.0152816 0.167502
-0.115235 0.0221402 -0.0668639
0.0515521 -0.0010831 -0.397967
0.0417216 0.118607 0.38727
0.179286 -0.0152816 -0.179637
0.216885 -0.0958309 -0.274371
-0.13208 0.0641182 -0.137259
0.153086 -0.139255 -0.0627499
-0.216031 -0.0975049 -0.341223
-0.15505 0.14258 0.289107
-0.123246 -0.139255 -0.0689294
-0.218497 0.0492263 0.351752
-0.147161 0.115907 -0.0714011
-0.200912 -0.0868036 0.397967
-0.218497 -0.0494401 0.0493791
-0.129568 0.0402304 0.043038
-0.0596421 -0.139255 -0.261191
-0.00476819 -0.0957575 -0.00125178
-0.0462309 -0.0152816 0.00336935
-0.0553861 0.0829079 0.0160313
-0.0493398 0.0681242 -0.276101
-0.216031 0.000423271 -0.264771
-0.0836669 0.0547851 0.293829
0.00505384 0.0660338 0.293829
-0.083406 0.166503 -0.25037
-0.0417678 0.0993712 0.397967
-0.050568 0.0733565 -0.10761
-0.0479969 0.118056 -0.39056
-0.168484 -0.0426187 0.00125178
-0.218497 0.025426 0.390778
-0.149515 0.115463 0.112378
-0.216031 -0.0391485 -0.0620093
0.214418 -0.0363668 0.0608307
-0.216031 -0.12495 -0.392986
-0.218497 0.0789977 0.377386
-0.0826053 -0.139255 -0.0461858
0.177114 0.11861 -0.381364
-0.0821784 0.163917 -0.156777
-0.211916 -0.139255 -0.380696
0.0858212 0.0864413 0.293829
0.106669 -0.139255 0.193824
-0.194795 0.11861 0.27057
0.166128 -0.0152816 0.0695828
-0.216031 0.0319951 -0.316883
-0.216031 -0.0262365 -0.385533
-0.0211723 -0.139255 -0.225183
0.193946 -0.139255 0.0292651
-0.0452622 -0.138865 0.39035
-0.0601795 0.108172 -0.101582
0.0119993 -0.0152816 0.102239
-0.161738 -0.139255 -0.0669102
0.0523227 -0.139255 -0.0149996
-0.218497 0.0982276 0.101411
-0.0790159 -0.0154627 -0.23859
0.151865 -0.139255 -0.336989
-0.0878863 -0.132382 0.397325
-0.0974052 -0.0135293 -0.124889
-0.14521 0.108207 -0.143495
-0.0676011 -0.139255 -0.226691
-0.19363 -0.116983 0.397967
-0.0522805 -0.0583318 0.397967
-0.0769321 0.104904 -0.00318015
0.152688 -0.107188 0.00125178
-0.2167 -0.0650541 0.00125178
0.209239 -0.139255 0.0161595
-0.0889138 -0.0185454 -0.148017
-0.0448873 0.0284071 0.0662665
-0.0702871 -0.0213409 0.299974
-0.0568763 -0.139255 0.277693
-0.079388 -0.105993 -0.00125178
-0.110851 0.00711519 0.289027
-0.187747 -0.139255 -0.118357
-0.0431684 0.0342963 -0.191812
-0.216031 0.0400955 -0.121581
-0.17301 0.11029 -0.397673
0.0924996 -0.0416271 -0.00125178
-0.0726195 0.0616303 0.397967
-0.0925776 0.179897 0.277795
-0.218497 0.108062 0.371327
-0.124161 0.199008 -0.259219
-0.0945114 -0.0186374 0.264325
0.163782 -0.139255 -0.114966
-0.0333617 -0.0152816 -0.124784
-0.0972669 -0.0180281 0.0340266
-0.0114964 -0.139255 -0.0740296
-0.216031 -0.133658 -0.261061
-0.0342774 -0.139255 0.194671
-0.0435308 0.0171748 0.240274
-0.157543 0.177041 -0.0144804
-0.126825 0.198178 -0.0888872
0.00359776 -0.127938 -0.0013691
-0.1359 0.174785 0.00318066
-0.0301695 -0.139255 0.30542
-0.0636813 -0.0152816 -0.212972
-0.120488 0.0503301 -0.00318015
-0.0478354 0.0478813 0.0267166
-0.0800792 -0.0150257 0.243145
-0.140486 0.0528335 0.00125178
0.120564 0.0017494 0.397967
0.0201705 -0.0152816 0.264814
0.134167 -0.139255 0.28596
-0.216031 0.0273145 -0.205879
-0.0934936 -0.0216271 -0.130434
0.0396515 -0.139255 -0.241995
-0.218497 -0.0582228 0.117757
0.114273 -0.0152816 -0.192305
-0.156119 0.165166 -0.207344
-0.194601 0.11861 -0.106014
-0.094874 -0.0152816 -0.160793
-0.153303 0.132962 0.229564
-0.0837037 0.11861 -0.345022
-0.0339794 -0.110576 -0.00125178
-0.218497 -0.0740108 0.365472
-0.0982322 -0.0165346 0.16667
0.214418 -0.0099249 0.31001
0.12535 -0.0152816 -0.00633674
-0.170523 -0.206995 0.355266
-0.0447435 0.0272157 0.234416
-0.133557 -0.0725735 0.397967
0.0498629 0.0731016 -0.293829
0.136849 -0.12294 -0.397967
0.175889 -0.139255 0.292284
-0.00411338 -0.0696262 0.00125178
0.144379 -0.139255 0.189033
0.09579 -0.134795 -0.00451343
-0.0397207 -0.108686 -0.00125178
-0.112587 -0.093863 -0.397967
-0.0753475 0.088924 0.397967
0.19418 0.11861 -0.319462
0.0576929 -0.0152816 -0.124444
-0.154745 0.14087 0.0372784
-0.0990517 0.117753 0.00318066
0.216885 -0.138436 -0.132919
0.0376556 -0.0152816 0.013574
-0.0494785 0.0529552 -0.397967
0.147275 -0.0997221 0.397967
-0.0993776 -0.139255 -0.301663
-0.216031 0.0821098 -0.0253287
-0.0344998 0.11861 -0.332835
-0.0182486 -0.0233128 -0.291325
0.162383 0.11861 -0.34986
0.190889 0.0647661 -0.293829
-0.202088 0.115175 -0.00125178
-0.177806 -0.1215 0.00125178
-0.218497 0.0558497 0.0259697
-0.0697793 0.12869 0.205374
0.108414 -0.139255 -0.187419
0.0490266 -0.139255 0.118421
0.0183687 -0.139255 -0.213566
-0.104833 -0.00353272 0.121771
-0.16025 0.179334 0.264057
0.119311 -0.0453407 0.00125178
-0.150789 0.122539 0.00150878
-0.199385 0.11861 -0.141342
0.214418 0.0761336 0.395277
-0.164565 -0.100508 -0.00125178
-0.0690665 0.133313 -0.124246
-0.182662 -0.139255 0.0837815
0.0886086 -0.139255 0.155647
-0.16153 0.101147 -0.238323
-0.0979661 -0.0189292 0.0756989
0.0135943 -0.139255 0.33153
-0.216031 0.00805447 -0.162433
-0.218497 0.0776149 0.264213
0.175957 -0.0408094 0.00125178
-0.08651 -0.0177968 -0.146333
-0.216031 -0.0289119 -0.264265
-0.0468268 0.0416552 0.263911
0.0135722 -0.139255 -0.37873
-0.000296686 -0.0966955 -0.00125178
-0.11247 0.203418 0.125207
-0.218497 0.0485743 0.14326
0.017295 0.0510503 0.293829
-0.215822 -0.139255 -0.38723
-0.0648491 -0.0152816 -0.205427
0.144697 -0.139255 0.359109
-0.216031 0.110643 -0.0271215
0.099498 -0.0534484 -0.397967
0.216885 -0.126623 -0.100314
0.216885 -0.0713024 -0.0158924
0.186509 0.0881271 -0.397967
-0.0400958 0.00608283 -0.0863235
-0.216031 -0.0356379 -0.0978511
-0.0571009 -0.139255 -0.187867
-0.0991356 -0.0103568 -0.00376897
-0.218497 -0.130764 0.281522
0.188841 0.0728281 0.293829
-0.133256 0.0511204 -0.258426
0.00838038 -0.0913656 -0.397967
-0.0518891 0.0685314 0.0811777
-0.193459 -0.139255 -0.0447992
-0.0545963 0.0797002 0.142151
-0.218497 0.0260626 0.0274348
0.0704163 -0.0485804 -0.00125178
0.113269 -0.139255 0.0957388
0.129702 -0.00682678 -0.295191
-0.0931945 0.110923 0.00318066
0.131478 -0.0216561 0.29972
-0.137297 0.072421 0.180792
-0.0976026 -0.0119624 -0.115905
-0.186476 -0.139255 -0.348932
0.0671871 -0.139255 -0.168696
0.10189 0.104313 0.293829
0.214418 -0.0573771 0.0951486
0.0315835 0.0923213 -0.397967
-0.060723 0.0581534 0.293829
-0.117825 0.0238172 -0.163122
0.202766 0.118489 0.388774
0.109409 -0.139255 0.37541
-0.165236 0.107704 -0.0110097
0.184536 -0.139255 -0.135629
-0.0329838 -0.0603436 -0.00125178
0.216885 -0.0362425 -0.0878183
-0.128953 0.0556007 -0.279338
-0.130883 0.0541567 0.202786
-0.204078 -0.0504645 0.00125178
0.188303 -0.0152816 -0.201465
-0.159127 -0.125016 0.00125178
-0.0941311 0.187549 -0.224243
-0.156891 0.170836 -0.113927
0.216415 -0.00900093 -0.399264
-0.0431971 -0.0152816 0.0674892
0.131609 -0.0771539 -0.397967
0.194178 -0.139255 0.242089
0.158688 0.11861 0.327542
-0.118939 0.0257894 -0.0633589
0.191729 -0.139255 -0.0820363
-0.218497 0.105295 0.285401
-0.140156 0.058965 0.0754951
-0.0944377 0.0605853 0.397967
-0.218497 0.0669198 0.146122
0.179651 0.11861 0.361971
0.174912 -0.0152816 -0.061036
-0.142154 0.170578 -0.290799
-0.201189 -0.109677 -0.397967
-0.216031 0.0806326 -0.206165
-0.00542526 -0.139255 -0.233516
-0.15932 0.17047 0.111618
-0.0718808 -0.0124722 0.0788942
0.106342 -0.078795 -0.397967
0.165536 -0.0152816 -0.170531
-0.218497 -0.0592355 0.329977
0.0916245 0.11861 0.312519
0.0918862 0.112682 -0.295772
-0.159707 0.093556 0.203414
0.0279193 -0.0152816 -0.234895
-0.0124872 0.11861 0.34042
-0.189739 -0.139255 -0.178285
-0.122611 -0.139255 -0.0768487
0.0960168 -0.139255 0.0597998
-0.105216 0.204909 -0.18368
-0.143584 0.112446 -0.295615
0.218426 -0.138067 -0.195558
0.214418 -0.137106 0.163013
-0.09341 0.186176 -0.0936892
-0.037989 0.102393 -0.293829
-0.0751973 0.148387 -0.238819
-0.0525043 0.0708597 0.00519143
0.215895 -0.139255 -0.203675
0.214418 0.0219426 0.389849
-0.119743 0.0228466 0.157813
0.0360003 0.075113 0.293829
-0.0437754 -0.00404841 0.26304
-0.0857479 0.171435 -0.00732493
0.0867465 -0.139255 -0.36185
-0.0739926 0.018255 -0.290799
-0.0432168 0.0345951 -0.130114
-0.218497 -0.107439 0.00693356
-0.0834667 -0.119855 0.00125178
-0.0864841 0.04337 0.293829
-0.101167 0.199874 -0.0549846
0.175074 -0.0152816 0.17388
-0.0319019 -0.00106893 -0.293829
-0.115799 -0.139255 0.38087
-0.199709 -0.139255 0.128186
-0.0585136 -0.0152816 -0.104326
-0.154096 0.0836279 0.161948
-0.0615548 0.112293 -0.140025
-0.158023 0.186045 -0.245127
-0.216031 0.0741637 -0.0575816
-0.12819 0.0469091 0.214455
0.00363351 -0.0152816 -0.125647
-0.118823 0.0255839 -0.238382
-0.144565 0.0962212 0.0393296
-0.0818885 -0.0152816 0.00155948
-0.138583 0.0763043 0.060027
-0.089437 0.0975822 0.397967
0.00829913 -0.0152816 -0.0504683
-0.119953 0.0275832 -0.260074
-0.218497 -0.0340595 0.0716826
-0.0999447 -0.0121823 0.227267
-0.0288756 -0.0152816 0.23853
-0.158183 0.18314 -0.0710496
0.105798 0.11861 -0.334917
-0.114911 -0.139255 0.135402
-0.198431 -0.139255 0.248754
-0.0317241 0.11861 -0.386641
-0.218497 0.112225 0.241117
0.216885 0.0642477 -0.377839
0.0738303 0.0126327 0.397967
-0.20413 0.11861 -0.238032
-0.105664 0.0654297 -0.397967
0.18642 0.0628527 0.293829
0.176577 -0.150606 0.346926
-0.216031 -0.0782539 -0.255844
-0.0796233 -0.139255 0.235005
-0.173096 0.117245 0.00343374
0.169475 -0.139255 0.0431563
-0.0607748 0.109956 -0.247041
0.124614 0.0418239 -0.397967
0.0566816 -0.139255 0.24566
0.106732 -0.139255 -0.144171
0.216885 -0.046413 -0.381559
0.102244 -0.0236389 -0.292703
0.180849 -0.0152816 0.24105
0.102689 -0.132542 0.00290693
-0.153693 0.0872794 -0.193859
-0.146462 0.113147 -0.173671
0.132529 -0.0152816 -0.275928
-0.042883 0.0322332 -0.14903
0.0844519 -0.131914 -0.00259679
-0.16704 -0.139255 0.276869
0.214418 -0.062408 0.03536
-0.162091 0.189483 0.148403
0.175199 0.11861 0.350566
-0.0579877 -0.00891329 -0.00961012
0.214418 -0.12877 0.16469
-0.0230963 -0.0152816 -0.101091
0.191988 -0.139255 -0.261372
-0.159944 0.0983403 -0.193978
-0.065361 -0.114488 0.00125178
0.0897501 -0.0967227 -0.397967
-0.10762 0.0107073 -0.00263991
-0.00141224 -0.0625422 0.397967
-0.216031 0.0830691 -0.192315
0.11321 -0.0761551 -0.00125178
-0.216031 -0.0564793 -0.246524
0.00829358 0.0287216 0.293829
-0.00873498 0.11734 0.392255
-0.218497 -0.0120076 0.177328
0.00276157 0.111858 -0.2953
-0.218497 -0.101486 0.0217427
-0.123129 0.0836066 -0.397967
-0.137481 0.13666 -0.00318015
-0.160836 0.186006 0.272661
-0.216031 -0.106473 -0.161822
-0.153047 0.145181 -0.260075
-0.0203218 -0.139255 -0.326259
-0.0661961 -0.0839081 -0.00125178
-0.0955524 0.135611 -0.00318015
-0.140012 0.194839 0.0858476
-0.216031 0.00872061 -0.0896837
-0.204057 0.11861 0.226336
-0.014659 -0.139255 -0.292115
0.216885 -0.0209553 -0.0278607
0.216885 0.00859586 -0.350889
-0.0888907 -0.13275 -0.00125178
0.218231 -0.000836605 -0.39828
-0.188358 0.11861 0.011956
-0.0628127 0.101216 0.00318066
-0.216031 -0.107637 -0.186304
-0.218497 0.105541 0.390501
0.216885 -0.126073 -0.0377383
0.214418 -0.047775 0.254392
-0.0767541 0.11861 0.343314
-0.141637 -0.102274 -0.397967
0.205721 -0.139255 0.318543
-0.158507 0.18831 -0.0818514
-0.139617 0.0794254 0.136364
-0.04646 0.026276 0.00440351
-0.0947101 -0.0210022 0.233656
-0.184342 0.11861 0.287923
-0.14899 0.113392 0.27702
0.117502 -0.0152816 0.104209
0.0636303 0.103414 -0.397967
0.0761918 -0.139255 0.237439
-0.218497 0.0152886 0.0796983
0.0465689 -0.139255 0.297228
-0.107822 -0.139255 0.263509
-0.102653 0.0746962 -0.00318015
-0.0196277 -0.139255 -0.104597
0.0211952 0.11861 -0.312253
-0.0496919 0.0149992 0.290799
-0.136966 0.0714226 0.203042
-0.143791 0.139532 -0.00318015
-0.121196 0.0358573 -0.250966
0.185333 -0.0923691 0.00125178
-0.106114 0.204162 0.174013
0.0941425 0.00976951 0.293829
-0.0628302 -0.139255 -0.128335
0.176113 0.0132039 0.397967
0.035806 -0.0152816 -0.247981
0.193815 0.065519 -0.293829
0.0823522 0.0596355 -0.397967
0.214418 -0.0344993 0.181738
-0.17644 0.11861 -0.366041
-0.148443 0.120728 -0.00535674
-0.0487942 -0.0152816 -0.00840559
-0.110194 0.0111922 -0.212567
0.0601595 0.0309516 -0.293829
0.0124537 -0.134318 -0.00409457
0.0507984 0.112558 0.396865
-0.114995 0.0161971 0.212001
-0.151939 0.0469164 -0.397967
-0.100845 -0.0117439 0.196085
-0.218497 -0.128991 0.236979
0.214418 -0.020679 0.049459
-0.0979584 0.129383 -0.00318015
-0.129944 0.0408962 0.255671
-0.141244 0.093295 -0.0116642
0.19542 -0.114198 0.397967
0.144692 0.0776329 -0.397967
-0.147822 0.11897 -0.175102
-0.132586 -0.0360618 0.397967
-0.210817 -0.139255 0.213948
0.208564 -0.0152816 0.0336573
-0.0700854 0.135999 -0.247026
0.0211277 -0.139255 0.0777106
-0.0670513 -0.0152816 0.0980801
-0.0929192 -0.139255 -0.178173
0.0227841 -0.139255 -0.156821
-0.148337 0.0778037 -0.127597
-0.0569469 -0.00782101 0.265661
0.123507 0.0448877 -0.397967
0.10756 0.00826899 0.397967
-0.218497 -0.0732366 0.0927267
0.214418 -0.119668 0.219539
-0.188703 -0.139255 -0.266188
-0.142089 0.0667496 -0.133931
0.218074 -0.137345 -0.207088
-0.216031 0.0234469 -0.326392
-0.218497 -0.12532 0.0515254
-0.0563221 0.095039 -0.290799
-0.0858434 0.0889231 0.397967
-0.145059 0.10761 -0.217164
0.214418 -0.0551452 0.0769784
-0.0447155 -0.0152816 -0.0449461
0.0188755 0.0337125 -0.293829
0.216885 -0.0295866 -0.0407711
-0.100278 -0.0127832 0.139341
0.214418 -0.130791 0.347384
-0.128217 0.0208406 -0.00125178
-0.0454115 0.0186147 0.00454472
-0.218497 -0.061774 0.292915
0.144303 -0.139255 -0.275383
-0.212466 -0.0497588 0.00125178
-0.123455 0.0481479 -0.397967
-0.216031 0.0680913 -0.271379
0.216885 -0.087516 -0.249236
-0.204684 0.11861 0.0964875
-0.123365 0.041107 -0.233347
0.1982 -0.139255 0.105751
-0.218497 -0.037977 0.122113
0.216885 -0.0214167 -0.0178027
-0.0961249 -0.139255 -0.248822
0.19073 -0.0547555 -0.00125178
-0.0733048 0.0685499 0.00318066
-0.106223 -0.0395153 0.397967
0.176816 -0.139255 -0.288012
0.149244 0.0717611 0.293829
-0.0624229 0.107504 0.123439
-0.218497 -0.00900319 0.317929
-0.136688 0.0528281 0.246769
0.0797323 -0.139255 -0.218085
-0.212172 0.11421 0.39588
0.115587 -0.139255 -0.0710205
-0.218497 0.0265134 0.109259
-0.191644 0.11861 0.252327
-0.20705 -0.139255 -0.0916145
0.196934 -0.0171062 -0.286449
-0.216031 -0.0464449 -0.180563
-0.218497 0.0658219 0.00801813
0.216885 0.0689315 -0.370624
0.0195629 0.0955299 0.293829
-0.148097 0.109865 0.0266793
0.180784 0.0544152 0.397967
-0.0947796 0.188783 -0.159081
-0.218497 -0.0227633 0.0911849
-0.0239479 0.11861 0.376864
-0.155688 0.0864447 0.245794
-0.198357 -0.139255 -0.175291
-0.0060692 -0.0152816 0.283836
-0.218497 0.104118 0.182009
-0.136946 -0.139255 0.096605
0.0675704 0.0641439 0.397967
-0.141838 0.19427 0.288689
0.214418 0.0557429 0.318247
-0.128902 0.0488256 0.135854
0.0424095 -0.0152816 -0.0767716
0.163123 -0.0234543 0.296645
-0.06245 0.109106 -0.294228
0.000816613 -0.00677262 -0.397967
-0.216031 -0.0980073 -0.304427
-0.216031 -0.0554698 -0.359283
0.130048 -0.139255 -0.267303
-0.165295 -0.0668282 0.397967
0.155496 -0.008771 0.29916
-0.216031 -0.0418678 -0.25873
-0.123089 0.0190025 0.397967
-0.0369405 -0.0152816 -0.154974
0.125299 -0.0152816 0.243065
-0.16116 0.188005 0.0467146
-0.0427747 -0.00340697 0.147109
0.0585455 -0.0152816 0.245897
0.0286601 -0.139255 0.263311
-0.12258 -0.0876298 0.00125178
0.216885 -0.0416763 -0.127656
-0.135898 -0.139255 0.174112
-0.0533608 -0.139255 0.308366
-0.216031 0.070803 -0.293117
-0.113601 -0.139255 -0.283804
0.17881 -0.013086 -0.397967
-0.0131817 0.0937181 -0.293829
0.0675129 -0.117628 -0.00125178
-0.150219 0.130096 -0.00643028
-0.0705969 -0.139255 -0.365478
-0.126147 -0.139255 0.383507
-0.204664 -0.124683 -0.397967
-0.0859272 0.171813 -0.0199465
-0.147002 0.0754416 -0.0472847
-0.216031 0.0660105 -0.294175
0.182783 -0.0152816 0.10791
-0.216031 0.015561 -0.00572008
-0.0994292 -0.00981851 -0.0175115
-0.109952 0.028016 -0.397967
0.16885 0.0894902 -0.293829
0.188497 0.11861 0.386562
-0.0518921 0.0787351 -0.151545
-0.218497 -0.0128819 0.215421
-0.122117 0.200413 0.0562684
-0.120641 0.200105 -0.261915
0.140318 -0.0924466 0.00125178
-0.0336241 -0.139255 -0.0677186
-0.161541 0.101166 -0.0652739
-0.179125 -0.139255 -0.317443
-0.0895347 0.0634303 0.00318066
-0.117568 0.20183 0.166306
-0.218497 0.103974 0.261696
-0.125682 -0.0307006 0.00125178
0.127493 -0.0152816 0.265127
0.0260225 0.0112947 0.293829
0.214926 -0.139738 -0.229404
-0.181763 0.11861 0.377314
-0.13519 0.06606 0.156425
-0.189629 0.0661087 0.00125178
0.196505 -0.139255 -0.188565
-0.1279 0.0527652 -0.268111
-0.088106 0.0352941 0.397967
-0.218497 0.00935081 0.154288
0.1898 0.11861 0.3331
-0.109669 0.00502279 0.105264
-0.142896 0.0905014 0.0113401
0.0967729 -0.0171205 0.301887
-0.172988 0.117055 0.0680502
0.156589 -0.139255 -0.246922
0.171379 -0.0152816 -0.235687
-0.0423183 -0.0179298 -0.286546
-0.0184346 -0.136599 0.394466
-0.111107 -0.139255 0.289656
0.212598 -0.017269 0.118085
0.00886267 -0.0152816 0.150926
0.216885 -0.118235 -0.359848
-0.120255 0.200225 -0.11126
0.135364 -0.139255 0.106589
-0.0402417 -0.00226578 -0.00318015
0.134807 -0.139255 0.241391
-0.105768 0.204737 -0.0950014
-0.112116 0.20276 -0.144738
-0.0742484 -0.0132097 0.115948
-0.143892 0.0450797 -0.00125178
-0.113472 0.0902831 0.397967
-0.085832 -0.0175856 -0.0844541
-0.0775266 0.148066 0.172451
-0.131814 0.0135329 -0.00125178
0.0630321 -0.0152816 0.249169
0.0918852 -0.0152816 0.273277
-0.218497 0.0461448 0.185101
-0.114027 0.0140725 0.167518
-0.102434 -0.00341486 -0.0450678
-0.063203 -0.0152816 0.256094
-0.108223 0.00231174 0.262529
-0.163649 0.10053 0.228875
-0.216031 -0.0458232 -0.245096
0.17122 -0.139255 -0.0693737
0.216885 0.0690866 -0.318617
-0.110494 0.00648286 0.272112
0.132762 -0.0432012 0.397967
0.216885 -0.0229501 -0.14163
-0.144559 0.11861 0.322778
-0.216031 0.105505 -0.17804
-0.218497 0.0610439 0.106261
-0.216031 -0.115629 -0.131869
-0.214795 0.117896 0.391032
-0.158673 0.18993 -0.0691477
0.153534 -0.0152816 -0.00432611
-0.132425 0.0583077 0.286874
0.0987256 -0.0152816 -0.0515239
-0.201587 -0.139255 0.138697
-0.0511099 0.0755576 -0.0842389
0.161505 -0.139255 0.276329
-0.00717006 0.0985506 0.293829
-0.13734 0.0725504 0.0639296
-0.216031 -0.0119772 -0.0674405
0.153114 0.028862 -0.397967
-0.167239 -0.139255 0.308603
-0.0877432 -0.139255 0.190398
-0.131435 -0.139255 0.249886
0.214418 -0.0840013 0.193277
-0.0927326 0.0393715 0.290799
-0.216031 0.00411037 -0.219356
-0.134823 0.141008 -0.00318015
-0.159515 -0.139255 0.339651
0.214418 -0.125625 0.370369
-0.13852 0.0604334 -0.251273
-0.132056 0.127801 0.00318066
-0.148851 -0.139255 -0.296586
-0.216396 -0.0569327 0.397967
0.0914782 0.117271 -0.300848
-0.218497 0.0842664 0.233554
-0.216031 -0.0501834 -0.234813
0.180713 -0.139255 -0.123617
-0.0708655 0.0264748 0.397967
-0.218497 0.0639141 0.0898859
0.172612 -0.139255 0.148308
-0.218497 0.00202577 0.190771
-0.0397891 0.00224842 -0.165137
0.214418 -0.00230785 0.346824
0.214418 -0.0640489 0.212047
-0.0442133 0.0407479 -0.0428894
-0.15043 0.0157371 0.397967
0.0866372 -0.139255 0.272899
-0.141458 0.0940258 -0.258145
-0.134815 0.0723717 -0.190668
0.216885 -0.0816851 -0.304497
0.216291 -0.139255 -0.231907
-0.218383 -0.139255 0.355968
0.214418 -0.104153 0.152683
0.0996462 -0.139255 -0.200454
-0.136238 0.0520316 0.18497
-0.0211333 -0.0152816 0.0103592
0.150028 -0.139255 0.3242
-0.157204 0.189484 0.042109
-0.08944 -0.0152816 0.182604
0.110527 -0.139255 0.0957235
-0.182286 -0.205655 0.33921
-0.155437 0.160338 -0.233075
-0.128366 0.0736042 -0.290799
-0.136529 0.00861936 -0.397967
-0.216031 -0.0718693 -0.294723
-0.186901 -0.204267 0.350812
-0.147411 0.076165 -0.0522954
-0.216031 -0.0129091 -0.131164
-0.126114 0.0341201 0.139226
0.0134533 -0.139255 0.382853
-0.103436 -0.00164161 -0.189607
-0.195164 0.0150389 0.397967
-0.0925004 -0.0152816 -0.179883
-0.216031 -0.100031 -0.147054
-0.0552068 0.0821799 0.257575
-0.156952 0.171415 -0.0288863
0.0206393 -0.0152816 0.140484
-0.216031 0.0335074 -0.0464022
-0.145564 -0.101089 0.00125178
-0.110654 0.0071751 0.0907006
-0.139515 0.0791178 0.171809
0.0222961 -0.0806484 -0.00125178
0.146333 -0.0152816 0.199936
0.185499 -0.126426 -0.00126611
-0.119047 0.0250901 0.226123
0.131502 -0.139255 -0.380319
-0.0432316 -0.00149782 0.218301
0.207247 -0.0152816 0.222372
-0.0655819 0.116969 0.196668
0.104618 -0.128335 0.397967
0.104069 0.0903512 -0.293829
0.193387 -0.0152816 0.276829
0.0377433 -0.139255 0.296471
0.215356 -0.0152816 -0.185545
-0.0275169 -0.0152816 0.27553
-0.0597027 -0.0152816 0.265747
-0.218497 -0.0727553 0.285189
-0.216031 0.0723987 -0.193631
0.216885 0.0188006 -0.306521
-0.182079 -0.0736657 0.00125178
-0.0381048 -0.0152816 0.0411686
-0.0530942 0.0735991 0.0367722
-0.0517356 0.11861 0.327319
0.216885 -0.136764 -0.242638
-0.131483 0.0557713 0.263272
-0.135131 0.180154 0.290799
0.118902 -0.0152816 -0.213771
0.154763 -0.0152816 -0.284381
0.0501632 0.092715 0.293829
0.0688346 -0.139255 0.279958
-0.216031 -0.0361283 -0.340341
0.212463 0.116772 0.367889
0.129344 0.0873957 0.293829
-0.0174412 -0.139255 -0.17095
-0.0171543 -0.139255 0.372361
-0.157832 0.179794 -0.0693125
0.137165 -0.00140374 -0.397967
0.0523186 -0.138424 0.391615
-0.14601 -0.139255 0.123737
-0.141403 -0.0235573 0.00125178
0.0847656 0.116086 0.298889
0.185912 -0.0152816 -0.164602
-0.197682 0.11861 0.272852
0.108917 -0.114005 -0.397967
-0.14623 0.0740758 -0.00139038
-0.119226 0.021933 0.223631
-0.0949718 0.0756298 0.00318066
0.216885 -0.0830095 -0.32912
-0.218497 -0.0805424 0.121557
-0.0421395 0.000798134 0.0361868
-0.171308 0.118448 -0.275673
0.215187 -0.0145138 -0.0279715
0.0943127 -0.139255 0.253898
-0.0798794 -0.0487871 -0.397967
-0.085723 0.171383 -0.156798
-0.0476802 -0.0152816 0.181643
0.011918 0.10032 0.293829
0.0953058 -0.0152816 0.137278
-0.146058 0.0737721 -0.0524364
-0.043898 -0.0355384 0.397967
0.198899 -0.139255 0.181221
-0.029963 -0.0234861 0.292057
-0.119995 0.027171 0.154438
-0.0734575 0.144305 -0.171102
-0.11632 0.016159 0.2917
-0.00882259 0.118532 0.388411
-0.0580726 0.0872003 0.292196
0.034686 -0.139255 -0.345568
0.154902 -0.0152816 0.0646578
-0.0905568 -0.0152816 -0.0335499
0.180883 -0.0152816 0.275895
-0.0108769 -0.0152816 -0.122323
0.0785157 0.0284212 0.293829
-0.155255 0.14373 0.160961
-0.185444 -0.0467194 0.397967
0.176665 -0.0848941 0.397967
0.0538977 0.11861 -0.336599
-0.136938 -0.139255 -0.103312
0.212807 0.109303 0.39787
-0.216031 0.0683318 -0.0224445
0.0518518 0.0916921 -0.293829
-0.132725 -0.0393525 -0.397967
0.214418 -0.0614109 0.357276
0.199255 -0.0152816 -0.0646459
-0.216031 -0.120168 -0.342336
0.0219412 -0.139255 0.0889923
-0.218497 0.0335325 0.092765
-0.218497 -0.113683 0.354481
-0.0758439 -0.0137066 0.0581394
-0.0693535 0.127567 0.132767
-0.156441 -0.139255 -0.367734
0.117692 -0.0232399 -0.397967
0.167077 -0.126375 0.397967
0.214418 -0.0305352 0.273303
0.00174349 0.101909 0.293829
0.0596885 -0.139255 0.0750219
0.0437423 -0.0569837 0.397967
-0.125769 0.198507 -0.0706329
0.0986651 -0.0152816 -0.236442
-0.145221 -0.139255 0.0334782
0.064765 -0.0460192 -0.397967
0.216885 -0.114567 -0.197446
0.214418 -0.0636959 0.224368
0.214418 -0.127668 0.0333875
0.153275 -0.0152816 0.185688
-0.143884 0.0938869 0.156937
0.216885 0.0459094 -0.332146
0.0561162 0.0281699 0.293829
-0.0451982 -0.00492994 -0.0828339
-0.124804 0.119992 0.00318066
0.185591 -0.0152816 0.0904196
0.214418 0.00167781 0.296333
-0.127482 -0.139255 0.00434862
-0.0813256 -0.139255 0.0248801
0.118905 -0.139255 0.291495
-0.144545 0.105582 -0.209766
0.175056 -0.139255 -0.256386
-0.0774812 0.133914 0.290799
0.0869524 -0.123434 -0.397967
-0.216031 0.111779 -0.331063
-0.175604 -0.0692084 0.00125178
-0.131613 -0.0943855 -0.00125178
0.111955 -0.139255 -0.185702
-0.218497 0.0208007 0.383836
-0.218497 0.067853 0.0035222
-0.0840712 0.162709 0.231115
0.0666762 -0.139255 0.289453
-0.218497 0.030349 0.0545735
-0.0814833 0.162454 -0.163764
0.214428 0.00940613 0.395359
-0.0643898 0.113397 0.00542259
-0.0252254 -0.139255 0.135875
-0.0484653 -0.0152816 -0.013095
-0.113196 0.181796 -0.00318015
0.216885 -0.0818043 -0.0146922
0.216885 -0.116178 -0.035352
-0.157753 0.159272 0.104835
-0.0360755 -0.0152816 0.227778
-0.13673 0.0348253 -0.397967
-0.119547 -0.139255 -0.160237
-0.218497 0.111646 0.230489
-0.218497 0.0877117 0.340229
-0.157146 0.17326 -0.144157
0.0394444 -0.0169651 0.301915
-0.000316568 -0.0152816 0.231305
0.214418 -0.128547 0.0913493
0.0782491 -0.0152816 0.232787
0.155032 4.41172e-05 -0.293829
-0.107285 0.204265 -0.1272
-0.216031 -0.0302601 -0.231785
-0.1549 -0.139255 0.199245
-0.123096 -0.139255 0.370417
-0.0975889 0.189425 0.28838
0.183646 -0.0152816 -0.176116
0.218495 0.117894 -0.318784
0.101389 -0.0152816 -0.222117
-0.137489 0.0542452 0.0271841
-0.12411 -0.139255 -0.153018
-0.218497 0.0713004 0.277925
-0.0684959 0.125306 0.145912
-0.0971154 0.120825 -0.290799
0.107259 0.00554332 0.397967
-0.0612499 0.103835 0.136821
-0.0517876 0.0661142 0.288786
-0.0456092 -0.139255 0.00461576
-0.218497 0.0894788 0.0962361
-0.0417863 0.0231541 -0.221013
-0.113592 0.0131181 0.0905546
-0.0989359 0.175239 -0.290799
-0.164657 0.0189427 0.00125178
-0.195432 -0.139255 0.189896
-0.205956 0.11861 -0.0929671
-0.157198 0.0891174 0.0865084
0.0297898 0.000628219 -0.293829
-0.0910503 -0.0184427 0.0144716
-0.0511022 -0.0269155 -0.397967
0.216885 0.023456 -0.303678
0.00659133 -0.139255 0.182645
-0.19984 0.110589 0.00125178
-0.20147 -0.0940538 0.397967
0.212214 0.0528089 -0.293829
0.216885 -0.134906 -0.166291
-0.0231594 -0.139255 -0.227802
-0.0862388 -0.0169442 0.143455
-0.0379525 -0.0152816 0.208456
0.15443 -0.139255 -0.0349197
-0.111795 0.0087841 0.18509
-0.128526 0.0584295 -0.292155
0.0565726 -0.0152816 -0.197689
-0.216031 0.0829391 -0.0975817
-0.140464 0.0638728 -0.18749
-0.121858 0.0265896 0.261655
-0.0554598 0.0832073 0.0579187
-0.183755 0.11861 0.0315576
-0.216031 -0.00913324 -0.224186
-0.0826942 0.100655 0.00318066
-0.218497 -0.0268291 0.314645
0.0775593 -0.139255 -0.0918777
0.152004 -0.139255 -0.354277
-0.103384 0.00796523 0.293829
0.085759 0.0122991 -0.397967
0.197 -0.0152816 0.129667
-0.0878914 0.170754 0.0797523
-0.218497 -0.0670691 0.0669376
-0.143853 0.0937819 0.271634
-0.148235 0.0433695 0.00125178
-0.039508 -0.00491682 -0.397967
-0.0779696 0.106165 0.290799
-0.111827 0.0132043 -0.269164
-0.180164 -0.139255 -0.124312
-0.0922802 -0.0188258 0.202314
-0.107038 0.143713 -0.290799
0.216885 -0.0966149 -0.0619211
0.060603 -0.115887 -0.00125178
-0.158063 0.181999 -0.106669
0.216885 -0.0431971 -0.0342762
-0.0756023 0.11861 0.335299
0.213873 -0.139255 -0.32061
0.074413 0.11861 -0.353199
-0.130815 -0.139255 -0.0546493
0.211958 0.0037095 -0.397967
-0.0635272 0.110813 0.0823017
-0.060724 0.109804 -0.0809536
-0.0368514 -0.0102589 -0.397967
-0.102257 -0.00463311 -0.0480138
-0.0423591 0.00354218 0.0871278
0.138579 -0.0152816 -0.246273
0.0931894 0.034444 0.397967
-0.11523 0.0167148 0.0852731
0.216885 0.0737239 -0.33704
0.148584 0.0652297 -0.293829
-0.0461584 -0.049309 -0.00125178
-0.119525 0.0224617 0.176455
-0.0420515 -0.00505708 0.107518
-0.201211 0.11861 0.2209
-0.111798 0.0943662 0.293829
0.0594546 -0.139255 0.193565
-0.210008 -0.0931197 -0.397967
-0.191682 -0.10443 0.00125178
0.0191008 -0.139255 -0.255373
-0.0778842 -0.139255 0.127721
-0.218497 -0.0517878 0.221073
0.177119 -0.139255 0.177166
0.214418 -0.0507446 0.308747
0.216885 -0.0483456 -0.189706
0.214418 -0.106087 0.184461
0.0837753 -0.0152816 -0.0840178
-0.173405 -0.0484172 0.397967
-0.0529557 -0.139255 0.118359
0.207531 -0.139255 0.0292671
-0.181708 0.0584996 -0.397967
-0.114458 -0.0523161 -0.397967
-0.183978 -0.139255 -0.143374
-0.218497 0.0303962 0.0378214
0.216899 -0.0178886 -0.136107
0.191293 0.0704946 0.397967
-0.136425 0.0772326 -0.0296915
-0.076582 -0.0152816 0.147715
0.170663 0.0871794 -0.293829
-0.0912668 0.00122651 0.290799
-0.15061 0.120462 0.281276
-0.218497 -0.00921959 0.131267
0.0671183 -0.107326 -0.00125178
0.0101191 -0.0152816 -0.274932
0.106737 -0.139255 0.374395
0.102015 -0.139255 -0.3267
0.214418 -0.107188 0.112777
-0.0951593 0.0295162 -0.397967
0.175905 -0.0666442 0.397967
-0.218497 -0.0452081 0.13607
-0.218497 0.112095 0.018117
-0.137636 0.05887 -0.0421593
0.139427 -0.0152816 0.241624
-0.0699685 0.129188 0.0392382
-0.158377 -0.139255 -0.17345
0.109991 -0.0152816 0.137157
-0.167675 -0.0334139 0.397967
-0.041555 -0.00306864 -0.0742899
-0.145459 0.192374 -0.123103
-0.119846 0.0230298 0.208939
0.149713 0.112183 -0.39705
-0.218497 -0.0805883 0.0342155
-0.148644 0.0783463 -0.0324955
-0.0898269 -0.0152816 0.132515
0.0840708 0.11861 -0.315722
0.0253101 -0.0152816 -0.0209742
-0.108599 0.00306339 0.152153
0.128233 -0.0737589 0.00125178
-0.125665 0.188802 0.290799
-0.216031 0.0112539 -0.366589
0.216885 -0.0526102 -0.36247
0.216885 -0.0138984 -0.345419
-0.0594769 -0.109898 0.00125178
0.214418 -0.0867398 0.171304
0.19473 -0.0152816 0.0327925
0.196394 -0.139255 0.298623
-0.00117306 -0.00895654 0.299409
-0.0469551 0.11861 0.361038
-0.173657 0.118239 0.268036
-0.135648 -0.0816687 0.397967
-0.00661837 -0.139255 0.373501
-0.122323 -0.0898664 0.00125178
-0.0449901 -0.0651167 0.00125178
-0.127343 0.0447688 0.143374
-0.0140015 -0.0152816 0.151978
-0.105026 0.204613 0.117271
-0.00818046 -0.139255 0.200621
-0.0910897 0.177064 0.215921
-0.0135401 -0.139255 -0.187305
0.0269026 -0.0152816 0.0822505
-0.0405208 -0.0152816 -0.0118232
-0.216031 -0.0702815 -0.193938
0.214418 -0.0479871 0.253713
0.18076 -0.0152816 0.270158
-0.0399109 -0.0152816 -0.00743233
-0.0544692 0.079184 0.200336
-0.155643 -0.139255 0.183181
0.21373 -0.000926564 0.292555
-0.164508 -0.204267 0.344658
-0.0440253 0.0395874 -0.208063
0.129667 -0.0152816 0.243688
0.214418 0.110728 0.340895
-0.0402424 0.00791618 -0.281285
-0.116683 0.0199022 0.23455
-0.0813041 -0.0161753 -0.262631
-0.0414068 0.020013 -0.0987715
-0.138379 -0.139255 -0.24814
0.216885 -0.12885 -0.185954
-0.106951 0.130581 -0.00318015
0.21226 0.118458 0.303838
-0.098193 -0.0235645 0.293994
0.216885 -0.0241407 -0.324765
-0.216031 0.0996058 -0.178263
-0.160979 0.186277 0.127729
-0.0720634 0.141035 -0.176516
0.0166429 -0.0152816 -0.0819816
0.214418 -0.0688052 0.394898
-0.140606 -0.0176744 -0.397967
-0.205016 -0.0503151 0.00125178
-0.0834403 -0.133945 -0.396622
-0.142704 0.0634724 0.0498208
0.0205529 0.11861 -0.361194
0.101286 -0.139255 -0.137023
0.168544 -0.0854686 -0.397967
0.108413 -0.0957631 0.397967
0.216885 -0.113661 -0.257706
0.196076 -0.0689725 0.00125178
-0.0589834 -0.126432 0.397967
-0.122359 0.0847978 -0.00318015
-0.216031 0.105864 -0.221435
-0.0399071 0.00372404 -0.0995851
0.167142 -0.139255 -0.13181
-0.147202 0.118592 -0.00544015
-0.0196667 -0.11558 0.397967
-0.111976 0.0134683 -0.22769
-0.185403 -0.0484644 0.397967
-0.0954859 0.190053 -0.00677854
0.214418 -0.115471 0.111097
-0.114177 0.0144031 0.0189915
-0.0545465 -0.00722178 -0.00318015
0.216019 -0.120333 0.0016359
-0.137589 0.0807692 -0.107439
-0.0507873 0.0631225 0.00841484
-0.135627 0.055316 -0.0359128
0.118278 0.0524371 -0.397967
-0.158533 -0.0162107 -0.00125178
0.0957357 0.11317 -0.296098
-0.115479 -0.139255 -0.357116
0.214418 -0.129303 0.0669843
0.183323 -0.0152816 0.22257
0.113179 -0.139255 0.348755
0.0560147 0.0576863 -0.293829
0.029772 0.0363381 -0.293829
-0.0556211 -0.0208066 -0.300324
-0.106419 0.204691 0.245415
