ply
format ascii 1.0
comment Created by Open3D
element vertex 1324
property double x
property double y
property double z
end_header
0.0926233 -0.109894 -0.260036
0.0918595 -0.109422 -0.268474
0.0879641 -0.10904 -0.279379
0.0840064 -0.108671 -0.290158
0.0778294 -0.108559 -0.299611
0.0713259 -0.108485 -0.308859
0.0597001 -0.108718 -0.319606
0.0501293 -0.108983 -0.327275
0.0415083 -0.109404 -0.331289
0.0841223 -0.109805 -0.208568
0.0900314 -0.108553 -0.221846
0.0918357 -0.107782 -0.232292
0.0936146 -0.107022 -0.242591
0.0281473 -0.106213 -0.337219
0.0218478 -0.106621 -0.338327
0.00910282 -0.107446 -0.340569
0.000806093 -0.108057 -0.340821
-0.0101662 -0.108943 -0.339856
0.0647634 -0.108821 -0.181185
0.0740246 -0.107499 -0.192277
0.080946 -0.106445 -0.201701
0.0930077 -0.102402 -0.25579
0.0922406 -0.101962 -0.264264
0.0892892 -0.101503 -0.27577
0.0866419 -0.101274 -0.28298
0.0821699 -0.100987 -0.293438
0.0756606 -0.100918 -0.302695
0.0658891 -0.100942 -0.314425
0.0565989 -0.101162 -0.322202
0.0458269 -0.101531 -0.329278
-0.0284723 -0.106565 -0.335525
0.0841223 -0.101819 -0.208568
0.0900314 -0.100658 -0.221846
0.0918357 -0.0999434 -0.232292
0.000806093 -0.100198 -0.340821
-0.0101662 -0.10102 -0.339856
0.0647634 -0.100608 -0.181185
0.0936146 -0.0953472 -0.242591
0.0371724 -0.0942314 -0.333308
0.0218478 -0.0949896 -0.338327
0.00910282 -0.0957247 -0.340569
0.0740246 -0.0953294 -0.192277
0.080946 -0.0943942 -0.201701
0.0909367 -0.0924327 -0.227087
0.0927283 -0.0917789 -0.23746
0.0930077 -0.0908096 -0.25579
0.0922406 -0.0904192 -0.264264
0.0892892 -0.0900123 -0.27577
0.0866419 -0.0898087 -0.28298
0.0821699 -0.0895542 -0.293438
0.0756606 -0.0894933 -0.302695
0.0658891 -0.0895144 -0.314425
0.0565989 -0.0897095 -0.322202
0.0458269 -0.0900365 -0.329278
0.000806093 -0.0923392 -0.340821
-0.0284723 -0.0945012 -0.335525
0.0647634 -0.0923955 -0.181185
0.0841223 -0.0898402 -0.208568
0.0937815 -0.0873224 -0.247242
0.0371724 -0.086539 -0.333308
0.0218478 -0.0872353 -0.338327
-0.0101662 -0.0891349 -0.339856
0.0881675 -0.109697 0.29873
0.0918357 -0.108905 0.286611
0.0935045 -0.108348 0.276962
0.0940297 -0.107567 0.261166
0.0927969 -0.106996 0.247604
0.0912908 -0.106814 0.241896
0.087465 -0.106544 0.23147
0.0833372 -0.106312 0.221451
0.0747111 -0.106238 0.209185
0.0685335 -0.106237 0.20148
0.0610178 -0.106381 0.195189
0.0491757 -0.106656 0.186268
0.0397118 -0.107005 0.181861
0.0301857 -0.107356 0.177425
0.0182828 -0.107955 0.175255
0.0122508 -0.10826 0.174191
-0.00173318 -0.109066 0.17381
-0.00973165 -0.109571 0.174513
0.0740246 -0.0872163 -0.192277
0.080946 -0.0863607 -0.201701
0.0906177 -0.0824451 -0.272153
0.0879641 -0.0822585 -0.279379
0.0840064 -0.08198 -0.290158
0.0778294 -0.0818954 -0.299611
0.0713259 -0.0818398 -0.308859
0.0597001 -0.0820151 -0.319606
0.0501293 -0.0822153 -0.327275
0.00910282 -0.0840033 -0.340569
-0.0284723 -0.0864585 -0.335525
-0.0178045 -0.104961 0.175222
-0.0297841 -0.105832 0.179582
-0.0440747 -0.106926 0.186008
0.0841223 -0.0818544 -0.208568
0.0900314 -0.080921 -0.221846
0.0918357 -0.0803466 -0.232292
0.0930077 -0.0792169 -0.25579
0.000806093 -0.0805513 -0.340821
-0.0101662 -0.0812118 -0.339856
0.0881675 -0.0994923 0.29873
0.0918357 -0.0987742 0.286611
0.0935045 -0.0982693 0.276962
0.0940297 -0.097561 0.261166
0.0927969 -0.0970429 0.247604
0.0912908 -0.0968776 0.241896
0.087465 -0.0966332 0.23147
0.0833372 -0.0964225 0.221451
0.0747111 -0.0963556 0.209185
0.0685335 -0.0963542 0.20148
0.0610178 -0.0964852 0.195189
0.0491757 -0.0967344 0.186268
0.0397118 -0.0970507 0.181861
0.0301857 -0.0973692 0.177425
0.0182828 -0.0979123 0.175255
0.0122508 -0.0981891 0.174191
-0.00173318 -0.0989206 0.17381
-0.00973165 -0.0993787 0.174513
0.0647634 -0.0800761 -0.181185
0.0936146 -0.0758886 -0.242591
0.0415083 -0.0748556 -0.331289
0.0281473 -0.0753148 -0.337219
0.0218478 -0.075604 -0.338327
0.00910282 -0.0761891 -0.340569
-0.0178045 -0.0947209 0.175222
-0.0297841 -0.0955069 0.179582
-0.0440747 -0.0964946 0.186008
0.0740246 -0.0750466 -0.192277
0.080946 -0.0743104 -0.201701
0.0927283 -0.0722515 -0.23746
0.0930077 -0.0714884 -0.25579
0.0922406 -0.0711811 -0.264264
0.0892892 -0.0708608 -0.27577
0.0866419 -0.0707005 -0.28298
0.0821699 -0.0705001 -0.293438
0.0756606 -0.0704522 -0.302695
0.0658891 -0.0704688 -0.314425
0.0565989 -0.0706224 -0.322202
-0.0284723 -0.0743946 -0.335525
0.0881675 -0.0892879 0.29873
0.0918357 -0.0886434 0.286611
0.0935045 -0.0881904 0.276962
0.0940297 -0.0875547 0.261166
0.0927969 -0.0870897 0.247604
0.0912908 -0.0869414 0.241896
0.087465 -0.0867221 0.23147
0.0833372 -0.086533 0.221451
0.0747111 -0.0864729 0.209185
0.0685335 -0.0864717 0.20148
0.0610178 -0.0865893 0.195189
0.0491757 -0.0868129 0.186268
0.0397118 -0.0870968 0.181861
0.0301857 -0.0873826 0.177425
0.0182828 -0.08787 0.175255
0.0122508 -0.0881184 0.174191
-0.00173318 -0.0887749 0.17381
-0.00973165 -0.0891859 0.174513
0.0647634 -0.0718632 -0.181185
0.0841223 -0.0698757 -0.208568
0.0900314 -0.0690789 -0.221846
0.0458269 -0.0670485 -0.329278
0.0371724 -0.0673081 -0.333308
0.000806093 -0.0687633 -0.340821
-0.0101662 -0.0693272 -0.339856
-0.0178045 -0.0844808 0.175222
-0.0297841 -0.0851818 0.179582
-0.0440747 -0.0860627 0.186008
0.0740246 -0.0669334 -0.192277
0.080946 -0.0662768 -0.201701
0.0936146 -0.0642134 -0.242591
0.0218478 -0.0639726 -0.338327
0.00910282 -0.0644676 -0.340569
-0.0284723 -0.0663519 -0.335525
0.0881675 -0.0790836 0.29873
0.0918357 -0.0785128 0.286611
0.0935045 -0.0781115 0.276962
0.0940297 -0.0775485 0.261166
0.0927969 -0.0771366 0.247604
0.0912908 -0.0770053 0.241896
0.087465 -0.076811 0.23147
0.0833372 -0.0766435 0.221451
0.0747111 -0.0765903 0.209185
0.0685335 -0.0765892 0.20148
0.0610178 -0.0766934 0.195189
0.0491757 -0.0768914 0.186268
0.0397118 -0.0771429 0.181861
0.0301857 -0.077396 0.177425
0.0182828 -0.0778277 0.175255
0.0122508 -0.0780478 0.174191
-0.00173318 -0.0786292 0.17381
-0.00973165 -0.0789933 0.174513
0.0841223 -0.0618899 -0.208568
0.0900314 -0.0611842 -0.221846
0.0918357 -0.0607499 -0.232292
0.0930077 -0.0598957 -0.25579
0.0922408 -0.0596382 -0.264264
0.0892892 -0.0593698 -0.27577
0.0866419 -0.0592355 -0.28298
0.0821699 -0.0590677 -0.293438
0.0756606 -0.0590275 -0.302695
0.0658891 -0.0590414 -0.314425
0.0565989 -0.0591701 -0.322202
0.000806093 -0.0609046 -0.340821
-0.0101662 -0.0614041 -0.339856
-0.0178045 -0.0742407 0.175222
-0.0297841 -0.0748567 0.179582
-0.0440747 -0.0756309 0.186008
0.0647634 -0.0595438 -0.181185
0.0936146 -0.05643 -0.242591
0.0458269 -0.0555544 -0.329278
0.0371724 -0.0557696 -0.333308
0.0218478 -0.0562183 -0.338327
0.00910282 -0.0566534 -0.340569
0.0881675 -0.0688792 0.29873
0.0918357 -0.0683821 0.286611
0.0935045 -0.0680326 0.276962
0.0940297 -0.0675422 0.261166
0.0927969 -0.0671835 0.247604
0.0912908 -0.0670691 0.241896
0.087465 -0.0668999 0.23147
0.0833372 -0.0667541 0.221451
0.0747111 -0.0667077 0.209185
0.0685335 -0.0667067 0.20148
0.0610178 -0.0667975 0.195189
0.0491757 -0.06697 0.186268
0.0397118 -0.067189 0.181861
0.0301857 -0.0674094 0.177425
0.0182828 -0.0677854 0.175255
0.0122508 -0.0679771 0.174191
-0.00173318 -0.0684835 0.17381
-0.00973165 -0.0688006 0.174513
0.0740246 -0.0547637 -0.192277
0.080946 -0.0542265 -0.201701
0.0930077 -0.0521672 -0.25579
0.0922408 -0.051943 -0.264264
0.0892892 -0.0517092 -0.27577
0.0866419 -0.0515922 -0.28298
0.0821699 -0.051446 -0.293438
0.0756606 -0.0514111 -0.302695
0.0658891 -0.0514231 -0.314425
0.0565989 -0.0515352 -0.322202
-0.0284723 -0.0542879 -0.335525
-0.0178045 -0.0640006 0.175222
-0.0297841 -0.0645317 0.179582
-0.0440747 -0.065199 0.186008
0.0647634 -0.0513309 -0.181185
0.0841223 -0.0499112 -0.208568
0.0900314 -0.0493421 -0.221846
0.0918357 -0.0489918 -0.232292
0.000806093 -0.0491166 -0.340821
-0.0101662 -0.0495194 -0.339856
0.0881675 -0.0586749 0.29873
0.0918357 -0.0582514 0.286611
0.0935045 -0.0579537 0.276962
0.0940297 -0.057536 0.261166
0.0927969 -0.0572304 0.247604
0.0912908 -0.057133 0.241896
0.087465 -0.0569888 0.23147
0.0833372 -0.0568646 0.221451
0.0747111 -0.0568251 0.209185
0.0685335 -0.0568243 0.20148
0.0610178 -0.0569015 0.195189
0.0491757 -0.0570485 0.186268
0.0397118 -0.0572351 0.181861
0.0301857 -0.0574228 0.177425
0.0182828 -0.0577432 0.175255
0.0122508 -0.0579064 0.174191
-0.00173318 -0.0583378 0.17381
-0.00973165 -0.0586079 0.174513
0.0740246 -0.0466506 -0.192277
0.080946 -0.0461929 -0.201701
0.0936146 -0.0447548 -0.242591
0.0458269 -0.0440604 -0.329278
0.0371724 -0.0442311 -0.333308
0.0218478 -0.044587 -0.338327
0.00910282 -0.044932 -0.340569
-0.0284723 -0.0462453 -0.335525
-0.0178045 -0.0537605 0.175222
-0.0297841 -0.0542066 0.179582
-0.0440747 -0.0547672 0.186008
0.0841223 -0.0419254 -0.208568
0.0900314 -0.0414474 -0.221846
0.0918357 -0.0411532 -0.232292
0.0930077 -0.0405745 -0.25579
0.0922408 -0.0404001 -0.264264
0.0892892 -0.0402183 -0.27577
0.0866419 -0.0401273 -0.28298
0.0821699 -0.0400136 -0.293438
0.0756606 -0.0399864 -0.302695
0.0658891 -0.0399958 -0.314425
0.0565989 -0.040083 -0.322202
0.000806093 -0.041258 -0.340821
-0.0101662 -0.0415963 -0.339856
0.0881675 -0.0484706 0.29873
0.0918357 -0.0481208 0.286611
0.0935045 -0.0478748 0.276962
0.0940297 -0.0475297 0.261166
0.0927969 -0.0472773 0.247604
0.0912908 -0.0471968 0.241896
0.087465 -0.0470777 0.23147
0.0833372 -0.0469751 0.221451
0.0747111 -0.0469425 0.209185
0.0685335 -0.0469418 0.20148
0.0610178 -0.0470056 0.195189
0.0491757 -0.047127 0.186268
0.0397118 -0.0472811 0.181861
0.0301857 -0.0474363 0.177425
0.0182828 -0.0477009 0.175255
0.0122508 -0.0478357 0.174191
-0.00173318 -0.0481921 0.17381
-0.00973165 -0.0484152 0.174513
0.0647634 -0.0390115 -0.181185
0.0936146 -0.0369714 -0.242591
0.0458269 -0.0363978 -0.329278
0.0371724 -0.0365387 -0.333308
0.0218478 -0.0368327 -0.338327
0.00910282 -0.0371178 -0.340569
-0.0178045 -0.0435204 0.175222
-0.0297841 -0.0438815 0.179582
-0.0440747 -0.0443353 0.186008
0.0740246 -0.0344808 -0.192277
0.080946 -0.0341426 -0.201701
0.0866419 -0.032484 -0.28298
0.0821699 -0.0323919 -0.293438
0.0756606 -0.0323699 -0.302695
0.0658891 -0.0323775 -0.314425
0.0565989 -0.0324481 -0.322202
-0.0284723 -0.0341813 -0.335525
0.0881675 -0.0382662 0.29873
0.0918357 -0.03799 0.286611
0.0935045 -0.0377959 0.276962
0.0940297 -0.0375234 0.261166
0.0927969 -0.0373242 0.247604
0.0912908 -0.0372606 0.241896
0.087465 -0.0371666 0.23147
0.0833372 -0.0370856 0.221451
0.0747111 -0.0370598 0.209185
0.0685335 -0.0370593 0.20148
0.0610178 -0.0371097 0.195189
0.0491757 -0.0372055 0.186268
0.0397118 -0.0373272 0.181861
0.0301857 -0.0374497 0.177425
0.0182828 -0.0376586 0.175255
0.0122508 -0.037765 0.174191
-0.00173318 -0.0380464 0.17381
-0.00973165 -0.0382225 0.174513
0.0647634 -0.0307985 -0.181185
0.0841223 -0.0299467 -0.208568
0.0900314 -0.0296052 -0.221846
0.0918357 -0.0293951 -0.232292
0.0930077 -0.0289818 -0.25579
0.0922408 -0.0288572 -0.264264
0.0892892 -0.0287273 -0.27577
0.000806093 -0.02947 -0.340821
-0.0101662 -0.0297116 -0.339856
-0.0178045 -0.0332803 0.175222
-0.0297841 -0.0335565 0.179582
-0.0440747 -0.0339035 0.186008
0.0740246 -0.0263677 -0.192277
0.080946 -0.026109 -0.201701
0.0936146 -0.0252962 -0.242591
0.0458269 -0.0249037 -0.329278
0.0371724 -0.0250002 -0.333308
0.0218478 -0.0252013 -0.338327
0.00910282 -0.0253963 -0.340569
-0.0284723 -0.0261386 -0.335525
0.0881675 -0.0280619 0.29873
0.0918357 -0.0278594 0.286611
0.0935045 -0.027717 0.276962
0.0940297 -0.0275172 0.261166
0.0927969 -0.0273711 0.247604
0.0912908 -0.0273244 0.241896
0.087465 -0.0272555 0.23147
0.0833372 -0.0271961 0.221451
0.0747111 -0.0271772 0.209185
0.0685335 -0.0271768 0.20148
0.0610178 -0.0272138 0.195189
0.0491757 -0.0272841 0.186268
0.0397118 -0.0273733 0.181861
0.0301857 -0.0274631 0.177425
0.0182828 -0.0276163 0.175255
0.0122508 -0.0276944 0.174191
-0.00173318 -0.0279007 0.17381
-0.00973165 -0.0280299 0.174513
0.0841223 -0.0219609 -0.208568
0.0900314 -0.0217105 -0.221846
0.0918357 -0.0215564 -0.232292
0.0930077 -0.0212533 -0.25579
0.0922408 -0.0211619 -0.264264
0.0892892 -0.0210667 -0.27577
0.0866419 -0.0210191 -0.28298
0.0821699 -0.0209595 -0.293438
0.0756606 -0.0209452 -0.302695
0.0658891 -0.0209502 -0.314425
0.0565989 -0.0209958 -0.322202
0.000806093 -0.0216113 -0.340821
-0.0101662 -0.0217885 -0.339856
-0.0178045 -0.0230402 0.175222
-0.0297841 -0.0232314 0.179582
-0.0440747 -0.0234716 0.186008
0.0647634 -0.0184791 -0.181185
0.0937815 -0.0174645 -0.247242
0.0458269 -0.017241 -0.329278
0.0371724 -0.0173078 -0.333308
0.0218478 -0.0174471 -0.338327
0.0881675 -0.0178576 0.29873
0.0918357 -0.0177287 0.286611
0.0935045 -0.0176381 0.276962
0.0940297 -0.0175109 0.261166
0.0927969 -0.017418 0.247604
0.0912908 -0.0173883 0.241896
0.087465 -0.0173444 0.23147
0.0833372 -0.0173066 0.221451
0.0747111 -0.0172946 0.209185
0.0685335 -0.0172943 0.20148
0.0610178 -0.0173179 0.195189
0.0491757 -0.0173626 0.186268
0.0397118 -0.0174194 0.181861
0.0301857 -0.0174765 0.177425
0.0182828 -0.017574 0.175255
0.0122508 -0.0176237 0.174191
-0.00173318 -0.017755 0.17381
-0.00973165 -0.0178372 0.174513
0.0740246 -0.014198 -0.192277
0.080946 -0.0140587 -0.201701
0.00910282 -0.013675 -0.340569
-0.0284723 -0.0140746 -0.335525
-0.0178045 -0.0128001 0.175222
-0.0297841 -0.0129063 0.179582
-0.0440747 -0.0130398 0.186008
0.0647634 -0.0102662 -0.181185
0.0841223 -0.00998225 -0.208568
0.0900314 -0.00986842 -0.221846
0.0918357 -0.00979837 -0.232292
0.0930077 -0.0096606 -0.25579
0.0922408 -0.00961907 -0.264264
0.0892892 -0.00957578 -0.27577
0.0866419 -0.00955412 -0.28298
0.0821699 -0.00952705 -0.293438
0.0756606 -0.00952057 -0.302695
0.0658891 -0.00952281 -0.314425
0.0565989 -0.00954357 -0.322202
0.000806093 -0.00982333 -0.340821
-0.0101662 -0.00990389 -0.339856
0.0881675 -0.00765326 0.29873
0.0918357 -0.00759802 0.286611
0.0935045 -0.00755919 0.276962
0.0940297 -0.0075047 0.261166
0.0927969 -0.00746485 0.247604
0.0912908 -0.00745214 0.241896
0.087465 -0.00743333 0.23147
0.0833372 -0.00741713 0.221451
0.0747111 -0.00741198 0.209185
0.0685335 -0.00741187 0.20148
0.0610178 -0.00742195 0.195189
0.0491757 -0.00744112 0.186268
0.0397118 -0.00746545 0.181861
0.0301857 -0.00748995 0.177425
0.0182828 -0.00753173 0.175255
0.0122508 -0.00755302 0.174191
-0.00173318 -0.00760929 0.17381
-0.00973165 -0.00764452 0.174513
0.0740246 -0.00608486 -0.192277
0.080946 -0.00602517 -0.201701
0.0936146 -0.00583759 -0.242591
0.0458269 -0.00574702 -0.329278
0.0371724 -0.00576928 -0.333308
0.0218478 -0.0058157 -0.338327
0.00910282 -0.00586071 -0.340569
-0.0284723 -0.006032 -0.335525
-0.0178045 -0.00256004 0.175222
-0.0297841 -0.00258128 0.179582
-0.0440747 -0.00260798 0.186008
0.0647634 -0.00205325 -0.181185
0.0841223 -0.00199646 -0.208568
0.0900314 -0.0019737 -0.221846
0.0918357 -0.00195969 -0.232292
0.0930077 -0.00193213 -0.25579
0.0922408 -0.00192383 -0.264264
0.0892892 -0.00191517 -0.27577
0.0866419 -0.00191084 -0.28298
0.0821699 -0.00190542 -0.293438
0.0756606 -0.00190413 -0.302695
0.0658891 -0.00190457 -0.314425
0.0565989 -0.00190873 -0.322202
0.000806093 -0.00196468 -0.340821
-0.0101662 -0.00198079 -0.339856
0.0881675 0.0025511 0.29873
0.0918357 0.00253269 0.286611
0.0935045 0.00251974 0.276962
0.0940297 0.00250158 0.261166
0.0242808 0.00250353 0.176313
0.0122508 0.00251769 0.174191
-0.00173318 0.00253644 0.17381
-0.00973165 0.00254819 0.174513
-0.0178045 0.00256004 0.175222
-0.0297841 0.00258128 0.179582
-0.0440747 0.00260798 0.186008
0.0927969 0.00746481 0.247604
0.0912908 0.0074521 0.241896
0.087465 0.0074333 0.23147
0.0833372 0.00741709 0.221451
0.0747111 0.00741194 0.209185
0.0685335 0.00741184 0.20148
0.0610178 0.00742192 0.195189
0.0491757 0.00744108 0.186268
0.0397118 0.00746542 0.181861
0.0740246 0.00608484 -0.192277
0.080946 0.00602514 -0.201701
0.0936146 0.00583757 -0.242591
0.0458269 0.00574699 -0.329278
0.0371724 0.00576925 -0.333308
0.0218478 0.00581567 -0.338327
0.00910282 0.00586068 -0.340569
-0.0284723 0.00603197 -0.335525
0.0881675 0.0127554 0.29873
0.0918357 0.0126634 0.286611
0.0935045 0.0125986 0.276962
0.0940297 0.0125078 0.261166
0.0242808 0.0125176 0.176313
0.0122508 0.0125884 0.174191
-0.00173318 0.0126821 0.17381
-0.00973165 0.0127409 0.174513
-0.0178045 0.0128001 0.175222
-0.0297841 0.0129063 0.179582
-0.0440747 0.0130398 0.186008
0.0647634 0.0102662 -0.181185
0.0841223 0.00998225 -0.208568
0.0900314 0.00986842 -0.221846
0.0918357 0.00979837 -0.232292
0.0930077 0.0096606 -0.25579
0.0922408 0.00961907 -0.264264
0.0892892 0.00957578 -0.27577
0.0866419 0.00955412 -0.28298
0.0821699 0.00952705 -0.293438
0.0756606 0.00952057 -0.302695
0.0658891 0.00952281 -0.314425
0.0565989 0.00954357 -0.322202
0.000806093 0.00982333 -0.340821
-0.0101662 0.00990389 -0.339856
0.0927969 0.0174179 0.247604
0.0912908 0.0173883 0.241896
0.087465 0.0173444 0.23147
0.0833372 0.0173066 0.221451
0.0747111 0.0172946 0.209185
0.0685335 0.0172943 0.20148
0.0610178 0.0173178 0.195189
0.0491757 0.0173626 0.186268
0.0397118 0.0174193 0.181861
0.0740246 0.014198 -0.192277
0.080946 0.0140587 -0.201701
0.0936146 0.013621 -0.242591
0.0458269 0.0134097 -0.329278
0.0371724 0.0134616 -0.333308
0.0218478 0.0135699 -0.338327
0.00910282 0.0136749 -0.340569
-0.0284723 0.0140746 -0.335525
0.0881675 0.0229597 0.29873
0.0918357 0.022794 0.286611
0.0935045 0.0226775 0.276962
0.0940297 0.0225141 0.261166
0.0242808 0.0225316 0.176313
0.0122508 0.022659 0.174191
-0.00173318 0.0228278 0.17381
-0.00973165 0.0229335 0.174513
-0.0178045 0.0230402 0.175222
-0.0297841 0.0232314 0.179582
-0.0440747 0.0234716 0.186008
0.0647634 0.0184791 -0.181185
0.0841223 0.017968 -0.208568
0.0900314 0.0177631 -0.221846
0.0918357 0.0176371 -0.232292
0.000806093 0.017682 -0.340821
-0.0101662 0.017827 -0.339856
0.0927969 0.0273711 0.247604
0.0912908 0.0273245 0.241896
0.087465 0.0272555 0.23147
0.0833372 0.0271961 0.221451
0.0747111 0.0271772 0.209185
0.0685335 0.0271769 0.20148
0.0610178 0.0272138 0.195189
0.0491757 0.0272841 0.186268
0.0397118 0.0273733 0.181861
0.0930077 0.0212533 -0.25579
0.0922408 0.021162 -0.264264
0.0892892 0.0210667 -0.27577
0.0866419 0.0210191 -0.28298
0.0821699 0.0209595 -0.293438
0.0756606 0.0209453 -0.302695
0.0658891 0.0209502 -0.314425
0.0565989 0.0209959 -0.322202
0.0881675 0.0331641 0.29873
0.0918357 0.0329247 0.286611
0.0935045 0.0327564 0.276962
0.0940297 0.0325203 0.261166
0.0242808 0.0325457 0.176313
0.0122508 0.0327297 0.174191
-0.00173318 0.0329735 0.17381
-0.00973165 0.0331262 0.174513
-0.0178045 0.0332803 0.175222
-0.0297841 0.0335565 0.179582
-0.0440747 0.0339035 0.186008
0.0740246 0.0263677 -0.192277
0.080946 0.026109 -0.201701
0.0936146 0.0252962 -0.242591
0.0458269 0.0249037 -0.329278
0.0371724 0.0250002 -0.333308
0.0218478 0.0252013 -0.338327
0.00910282 0.0253963 -0.340569
-0.0284723 0.0261386 -0.335525
0.0927969 0.0373242 0.247604
0.0912908 0.0372606 0.241896
0.087465 0.0371666 0.23147
0.0833372 0.0370856 0.221451
0.0747111 0.0370599 0.209185
0.0685335 0.0370593 0.20148
0.0610178 0.0371097 0.195189
0.0491757 0.0372056 0.186268
0.0397118 0.0373272 0.181861
0.0647634 0.0307985 -0.181185
0.0841223 0.0299467 -0.208568
0.0900314 0.0296053 -0.221846
0.0918357 0.0293951 -0.232292
0.0930077 0.0289818 -0.25579
0.0922408 0.0288572 -0.264264
0.0892892 0.0287273 -0.27577
0.0866419 0.0286624 -0.28298
0.0821699 0.0285812 -0.293438
0.0756606 0.0285617 -0.302695
0.0658891 0.0285684 -0.314425
0.0565989 0.0286307 -0.322202
0.000806093 0.02947 -0.340821
-0.0101662 0.0297117 -0.339856
0.0881675 0.0433684 0.29873
0.0918357 0.0430554 0.286611
0.0935045 0.0428353 0.276962
0.0940297 0.0425266 0.261166
0.0242808 0.0425597 0.176313
0.0122508 0.0428004 0.174191
-0.00173318 0.0431192 0.17381
-0.00973165 0.0433189 0.174513
-0.0178045 0.0435204 0.175222
-0.0297841 0.0438815 0.179582
-0.0440747 0.0443353 0.186008
0.0740246 0.0344808 -0.192277
0.080946 0.0341426 -0.201701
0.0936146 0.0330796 -0.242591
0.0458269 0.0325664 -0.329278
0.0371724 0.0326925 -0.333308
0.0218478 0.0329556 -0.338327
0.00910282 0.0332106 -0.340569
-0.0284723 0.0341813 -0.335525
0.0927969 0.0472773 0.247604
0.0912908 0.0471968 0.241896
0.087465 0.0470777 0.23147
0.0833372 0.0469751 0.221451
0.0747111 0.0469425 0.209185
0.0685335 0.0469418 0.20148
0.0610178 0.0470056 0.195189
0.0491757 0.047127 0.186268
0.0397118 0.0472811 0.181861
0.0647634 0.0390115 -0.181185
0.0841223 0.0379325 -0.208568
-0.0101662 0.0376348 -0.339856
0.0881675 0.0535727 0.29873
0.0918357 0.0531861 0.286611
0.0935045 0.0529142 0.276962
0.0940297 0.0525328 0.261166
0.0242808 0.0525738 0.176313
0.0122508 0.052871 0.174191
-0.00173318 0.0532649 0.17381
-0.00973165 0.0535116 0.174513
-0.0178045 0.0537605 0.175222
-0.0297841 0.0542066 0.179582
-0.0440747 0.0547671 0.186008
0.0740246 0.042594 -0.192277
0.0900314 0.0414473 -0.221846
0.0918357 0.0411531 -0.232292
0.0930077 0.0405745 -0.25579
0.0922408 0.0404001 -0.264264
0.0892892 0.0402182 -0.27577
0.0866419 0.0401273 -0.28298
0.0821699 0.0400136 -0.293438
0.0756606 0.0399864 -0.302695
0.0658891 0.0399958 -0.314425
0.0565989 0.040083 -0.322202
0.000806093 0.0412579 -0.340821
0.0927969 0.0572304 0.247604
0.0912908 0.057133 0.241896
0.087465 0.0569888 0.23147
0.0833372 0.0568646 0.221451
0.0747111 0.0568251 0.209185
0.0685335 0.0568243 0.20148
0.0610178 0.0569015 0.195189
0.0491757 0.0570485 0.186268
0.0397118 0.0572351 0.181861
0.080946 0.0461929 -0.201701
0.0936146 0.0447548 -0.242591
0.0458269 0.0440604 -0.329278
0.0371724 0.0442311 -0.333308
0.0218478 0.044587 -0.338327
0.00910282 0.044932 -0.340569
-0.0284723 0.0462453 -0.335525
0.0881675 0.063777 0.29873
0.0918357 0.0633167 0.286611
0.0935045 0.0629931 0.276962
0.0940297 0.0625391 0.261166
0.0242808 0.0625879 0.176313
0.0122508 0.0629417 0.174191
-0.00173318 0.0634106 0.17381
-0.00973165 0.0637042 0.174513
-0.0178045 0.0640006 0.175222
-0.0297841 0.0645316 0.179582
-0.0440747 0.065199 0.186008
0.0647634 0.0513308 -0.181185
0.0841223 0.0499112 -0.208568
0.0900314 0.0493421 -0.221846
0.0918357 0.0489918 -0.232292
0.0930077 0.048303 -0.25579
0.0922408 0.0480953 -0.264264
0.0892892 0.0478789 -0.27577
0.0866419 0.0477706 -0.28298
0.0821699 0.0476352 -0.293438
0.0756606 0.0476028 -0.302695
0.0658891 0.047614 -0.314425
0.0565989 0.0477178 -0.322202
0.000806093 0.0491166 -0.340821
-0.0101662 0.0495194 -0.339856
0.0927969 0.0671835 0.247604
0.0912908 0.0670691 0.241896
0.087465 0.0668999 0.23147
0.0833372 0.0667541 0.221451
0.0747111 0.0667077 0.209185
0.0685335 0.0667067 0.20148
0.0610178 0.0667975 0.195189
0.0491757 0.06697 0.186268
0.0397118 0.067189 0.181861
0.0740246 0.0547637 -0.192277
0.080946 0.0542265 -0.201701
0.0936146 0.0525383 -0.242591
0.0154998 0.052543 -0.339443
-0.0284723 0.0542879 -0.335525
0.0881675 0.0739814 0.29873
0.0918357 0.0734475 0.286611
0.0935045 0.0730721 0.276962
0.0940297 0.0725454 0.261166
0.0242808 0.072602 0.176313
0.0122508 0.0730124 0.174191
-0.00173318 0.0735564 0.17381
-0.00973165 0.073897 0.174513
-0.0178045 0.0742407 0.175222
-0.0297841 0.0748568 0.179582
-0.0440747 0.0756309 0.186008
0.0647634 0.0595438 -0.181185
0.0841223 0.057897 -0.208568
0.0458269 0.0555545 -0.329278
0.0371724 0.0557696 -0.333308
0.0927969 0.0771366 0.247604
0.0912908 0.0770053 0.241896
0.087465 0.076811 0.23147
0.0833372 0.0766435 0.221451
0.0747111 0.0765903 0.209185
0.0685335 0.0765892 0.20148
0.0610178 0.0766934 0.195189
0.0491757 0.0768914 0.186268
0.0397118 0.0771429 0.181861
0.0740246 0.0628768 -0.192277
0.0900314 0.0611842 -0.221846
0.0918357 0.0607499 -0.232292
0.0930077 0.0598957 -0.25579
0.0922408 0.0596382 -0.264264
0.0892892 0.0593698 -0.27577
0.0866419 0.0592355 -0.28298
0.0821699 0.0590677 -0.293438
0.0756606 0.0590275 -0.302695
0.0658891 0.0590414 -0.314425
0.0565989 0.0591701 -0.322202
0.000806093 0.0609046 -0.340821
-0.0101662 0.0614041 -0.339856
0.0881675 0.0841858 0.29873
0.0918357 0.0835781 0.286611
0.0935045 0.083151 0.276962
0.0940297 0.0825516 0.261166
0.0242808 0.082616 0.176313
0.0122508 0.0830831 0.174191
-0.00173318 0.0837021 0.17381
-0.00973165 0.0840896 0.174513
-0.0178045 0.0844808 0.175222
-0.0297841 0.0851818 0.179582
-0.0440747 0.0860627 0.186008
-0.180658 0.0966525 0.306997
0.0647634 0.0677567 -0.181185
0.080946 0.0662768 -0.201701
0.0936146 0.0642134 -0.242591
0.0458269 0.0632172 -0.329278
0.0371724 0.063462 -0.333308
0.0218478 0.0639726 -0.338327
0.00910282 0.0644677 -0.340569
-0.0284723 0.0663519 -0.335525
0.0547971 0.0966689 0.448266
0.0479981 0.0966569 0.439512
0.0410973 0.096655 0.430892
0.0341408 0.0966584 0.422342
0.0271922 0.0966611 0.413781
0.0202785 0.0966604 0.405177
0.0133646 0.0966597 0.396573
0.0927969 0.0870897 0.247604
0.0912908 0.0869414 0.241896
0.087465 0.0867221 0.23147
0.0833372 0.086533 0.221451
0.0747111 0.0864729 0.209185
0.0685335 0.0864717 0.20148
0.0610178 0.0865893 0.195189
0.0491757 0.0868129 0.186268
0.0397118 0.0870968 0.181861
-0.111183 0.0966571 0.241831
-0.118113 0.0966579 0.233245
-0.125035 0.0966579 0.22465
-0.131952 0.0966576 0.216052
-0.138869 0.0966573 0.207454
-0.149245 0.0966568 0.194556
-0.156162 0.0966565 0.185958
-0.163079 0.0966562 0.17736
-0.173458 0.0966561 0.164466
-0.180377 0.096656 0.15587
0.0841223 0.0698757 -0.208568
0.0900314 0.0690789 -0.221846
0.0918357 0.0685886 -0.232292
0.0930077 0.0676242 -0.25579
0.000806093 0.0687633 -0.340821
-0.0101662 0.0693272 -0.339856
0.134061 0.0966657 0.411422
0.127481 0.0966692 0.403336
0.120937 0.0966688 0.3952
0.114394 0.0966684 0.387063
0.104675 0.0966578 0.374733
0.0981706 0.0966534 0.366548
0.0915923 0.0966566 0.358458
0.0850404 0.0966571 0.350334
0.0785002 0.0966565 0.342196
0.0719597 0.0966559 0.334058
0.0881675 0.0943901 0.29873
0.0918357 0.0937088 0.286611
0.0935045 0.0932299 0.276962
0.0940297 0.0925579 0.261166
0.0242808 0.0926301 0.176313
0.0122508 0.0931538 0.174191
-0.00173318 0.0938478 0.17381
-0.00973165 0.0942823 0.174513
-0.0178045 0.0947209 0.175222
-0.0297841 0.0955069 0.179582
-0.0440747 0.0964946 0.186008
-0.055707 0.0966564 0.175525
-0.0622511 0.0966562 0.167392
-0.0687964 0.0966561 0.159261
-0.0753422 0.096656 0.151129
-0.0851606 0.0966559 0.138933
-0.0917066 0.0966558 0.130802
-0.0982521 0.0966557 0.122671
-0.104795 0.0966554 0.114538
-0.11134 0.0966552 0.106406
-0.117893 0.0966558 0.0982812
-0.124447 0.0966564 0.0901564
-0.131001 0.096657 0.0820317
-0.137555 0.0966576 0.0739071
-0.144109 0.0966582 0.0657822
-0.15394 0.0966591 0.0535946
-0.160497 0.0966599 0.045472
-0.167027 0.0966585 0.0373287
-0.173556 0.0966571 0.0291859
-0.180085 0.0966557 0.0210432
0.0740246 0.0750466 -0.192277
0.080946 0.0743104 -0.201701
0.0922408 0.0711811 -0.264264
0.0892892 0.0708608 -0.27577
0.0866419 0.0707005 -0.28298
0.0821699 0.0705001 -0.293438
0.0756606 0.0704522 -0.302695
0.0658891 0.0704688 -0.314425
0.0565989 0.0706224 -0.322202
-0.0284723 0.0743946 -0.335525
0.16933 0.097907 0.362715
0.174305 0.096993 0.347671
0.174116 0.0966648 0.339815
0.167877 0.0966678 0.332137
0.161678 0.0966665 0.324406
0.155529 0.0966595 0.316609
0.146269 0.0966534 0.304967
0.140054 0.0966538 0.297259
0.130746 0.0966529 0.285679
0.121439 0.096652 0.274099
0.115232 0.0966516 0.266381
0.105895 0.0966538 0.254836
0.0996768 0.0966545 0.247132
0.0903498 0.0966556 0.235574
0.0855591 0.0965114 0.226276
0.0804606 0.0964002 0.21736
0.0718383 0.0963333 0.205099
0.0610178 0.0964852 0.195189
0.049966 0.0966569 0.185451
0.0406528 0.0966566 0.173878
0.034444 0.0966564 0.166162
0.0251306 0.0966561 0.154589
0.0189205 0.096656 0.146875
0.00960529 0.0966559 0.135304
0.000291944 0.0966556 0.123731
-0.00591516 0.0966552 0.116014
-0.0152255 0.0966547 0.104439
-0.021436 0.0966546 0.0967255
-0.0276531 0.0966552 0.0890177
-0.03387 0.0966558 0.0813097
-0.0431958 0.0966566 0.0697476
-0.0494132 0.0966572 0.0620394
-0.0587456 0.0966586 0.0504822
-0.0680804 0.0966602 0.0389263
-0.0742822 0.0966593 0.0312053
-0.0835763 0.0966574 0.0196176
-0.0897717 0.096656 0.0118926
-0.0990648 0.0966541 0.000305474
-0.108364 0.0966526 -0.0112764
-0.114579 0.0966529 -0.0189868
-0.123894 0.0966529 -0.0305571
-0.130103 0.0966527 -0.0382712
0.0647634 0.0800761 -0.181185
0.0841223 0.0778615 -0.208568
0.0936146 0.0758886 -0.242591
0.0458269 0.0747111 -0.329278
0.0371724 0.0750005 -0.333308
0.0218478 0.0756039 -0.338327
0.00910282 0.076189 -0.340569
0.179573 0.100616 0.324373
0.180564 0.10014 0.315093
0.181545 0.0996689 0.3059
0.181853 0.0989276 0.289911
0.181841 0.0985801 0.28222
0.181819 0.0978922 0.266998
0.181796 0.0972139 0.251988
0.180803 0.0966546 0.238401
0.174889 0.0966553 0.231071
0.166018 0.0966563 0.220078
0.157146 0.0966574 0.209083
0.151236 0.0966576 0.201748
0.142377 0.0966573 0.190739
0.133518 0.096657 0.179731
0.127612 0.0966568 0.172391
0.121706 0.0966565 0.165052
0.112847 0.0966562 0.154043
0.10694 0.0966561 0.146704
0.0980795 0.096656 0.135698
0.0921749 0.0966556 0.128357
0.0862702 0.0966553 0.121017
0.0774133 0.0966548 0.110006
0.0685567 0.0966543 0.098996
0.0626521 0.0966539 0.0916558
0.056739 0.0966544 0.0843239
0.0508257 0.096655 0.076992
0.0419544 0.0966559 0.0659951
0.0330765 0.0966574 0.0550036
0.0271581 0.0966584 0.0476756
0.0212394 0.0966594 0.0403475
0.0123628 0.0966608 0.0293535
0.00646782 0.0966595 0.022005
-0.00237417 0.0966576 0.0109826
-0.00826871 0.0966564 0.00363463
-0.0141691 0.0966557 -0.00370848
-0.023036 0.0966561 -0.0147102
-0.0319028 0.0966566 -0.0257122
-0.0378109 0.0966566 -0.033049
-0.0466712 0.0966564 -0.0440561
-0.0525777 0.0966563 -0.0513942
-0.0584843 0.0966562 -0.0587322
-0.0673443 0.096656 -0.0697392
-0.0732385 0.0966548 -0.0770856
0.0740246 0.0831597 -0.192277
0.0900314 0.080921 -0.221846
0.0918357 0.0803466 -0.232292
0.0930077 0.0792169 -0.25579
0.0922408 0.0788764 -0.264264
0.0892892 0.0785214 -0.27577
0.0866419 0.0783438 -0.28298
0.0821699 0.0781218 -0.293438
0.0756606 0.0780687 -0.302695
0.0658891 0.078087 -0.314425
0.0565989 0.0782572 -0.322202
0.000806093 0.0805513 -0.340821
-0.0101662 0.0812118 -0.339856
0.16933 0.107949 0.362715
0.174305 0.106941 0.347671
0.178574 0.106028 0.333742
0.181741 0.10022 0.215356
0.181719 0.0995419 0.201051
0.181698 0.0988731 0.186938
0.181676 0.0982132 0.173013
0.181666 0.0978865 0.16612
0.181645 0.0972396 0.152471
0.181141 0.0966559 0.139552
0.172695 0.0966554 0.129054
0.167065 0.0966551 0.122055
0.15862 0.0966546 0.111556
0.150175 0.0966541 0.101058
0.141729 0.0966536 0.0905599
0.133279 0.0966537 0.080067
0.124819 0.0966549 0.0695844
0.116355 0.0966563 0.0591041
0.110713 0.0966573 0.0521172
0.102249 0.0966587 0.0416365
0.0937849 0.0966602 0.0311555
0.0853283 0.0966608 0.0206672
0.0768959 0.096659 0.0101573
0.0684506 0.0966585 -0.000340819
0.0599963 0.096659 -0.0108312
0.0543602 0.0966592 -0.0178248
0.045906 0.0966596 -0.0283156
0.0374539 0.0966598 -0.0388081
0.0290055 0.0966597 -0.0493035
0.0205572 0.0966595 -0.0597989
0.0121222 0.0966581 -0.0703042
0.00369132 0.0966563 -0.0808121
-0.00192904 0.0966551 -0.0878171
-0.00754929 0.0966539 -0.094822
-0.0159963 0.0966537 -0.105317
-0.024447 0.0966538 -0.11581
0.0647634 0.088289 -0.181185
0.080946 0.0863606 -0.201701
0.0936146 0.083672 -0.242591
0.0415083 0.082533 -0.331289
0.0281473 0.0830393 -0.337219
0.0218478 0.0833582 -0.338327
0.00910282 0.0840033 -0.340569
-0.0284723 0.0864585 -0.335525
-0.156964 0.0966651 -0.280142
-0.162596 0.096665 -0.287139
-0.168176 0.0966606 -0.29416
-0.176524 0.0966525 -0.304699
0.180564 0.10991 0.315093
0.181545 0.109393 0.3059
0.181853 0.108579 0.289911
0.181841 0.108198 0.28222
0.181796 0.106698 0.251988
0.181774 0.105964 0.237184
0.181752 0.10524 0.222582
0.181594 0.100109 0.119125
0.181575 0.0994619 0.106087
0.181555 0.0988235 0.0932171
0.181546 0.0985074 0.086844
0.181527 0.0978813 0.074219
0.181508 0.097263 0.0617539
0.181448 0.0966572 0.0494874
0.173361 0.0966586 0.0394725
0.165274 0.09666 0.0294573
0.157187 0.0966613 0.0194417
0.149116 0.0966609 0.00941062
0.141038 0.0966613 -0.000613809
0.13296 0.0966617 -0.0106384
0.124881 0.0966621 -0.0206629
0.116803 0.0966625 -0.0306875
0.108724 0.0966629 -0.0407123
0.100651 0.0966628 -0.0507416
0.0925863 0.0966617 -0.060778
0.0872141 0.0966606 -0.0674722
0.0818425 0.0966594 -0.0741664
0.0737849 0.0966577 -0.0842073
0.0657278 0.096656 -0.0942479
0.0576687 0.0966545 -0.104286
0.0522854 0.0966546 -0.110971
0.0469018 0.0966546 -0.117655
0.0388262 0.0966548 -0.127681
0.0307493 0.0966551 -0.137706
0.0226722 0.0966553 -0.147732
0.0841223 0.0898402 -0.208568
0.0900314 0.0888157 -0.221846
0.0918357 0.0881853 -0.232292
0.000806093 0.0884099 -0.340821
-0.0101662 0.0891349 -0.339856
-0.103908 0.0966625 -0.304785
-0.111983 0.0966626 -0.314813
-0.120058 0.0966626 -0.324841
-0.128115 0.0966611 -0.334877
-0.136095 0.0966533 -0.344944
-0.144174 0.0966537 -0.354969
-0.152301 0.096658 -0.364975
-0.157735 0.0966621 -0.37164
0.181741 0.109543 0.215356
0.181719 0.108802 0.201051
0.181697 0.108071 0.186938
0.181645 0.106285 0.152471
0.181624 0.105587 0.139001
0.181614 0.105242 0.132332
0.181462 0.100007 0.0312685
0.181444 0.0993886 0.0193383
0.181426 0.0987782 0.00755477
0.181417 0.0984759 0.00171709
0.181399 0.0978766 -0.0098514
0.181381 0.0972846 -0.0212799
0.181364 0.0966997 -0.032571
0.171356 0.0966657 -0.0456558
0.163635 0.0966645 -0.0552667
0.155919 0.0966629 -0.0648811
0.148203 0.0966612 -0.0744953
0.140487 0.0966596 -0.0841092
0.132771 0.0966579 -0.0937226
0.125056 0.0966563 -0.103336
0.117334 0.0966554 -0.112943
0.109602 0.0966555 -0.122543
0.101869 0.0966558 -0.132141
0.0967134 0.096656 -0.138541
0.0889801 0.0966562 -0.148139
0.0812468 0.0966565 -0.157738
0.070936 0.0966568 -0.170537
0.0740246 0.0953294 -0.192277
0.080946 0.0943942 -0.201701
0.0930077 0.0908096 -0.25579
0.0922408 0.0904192 -0.264264
0.0892892 0.0900123 -0.27577
0.0866419 0.0898087 -0.28298
0.0821699 0.0895542 -0.293438
0.0756606 0.0894934 -0.302695
0.0658891 0.0895144 -0.314425
0.0565989 0.0897095 -0.322202
-0.0284723 0.0945012 -0.335525
-0.0553705 0.0966602 -0.32733
-0.0605245 0.0966602 -0.333731
-0.0682554 0.0966602 -0.343332
-0.0759867 0.0966602 -0.352933
-0.0837173 0.0966602 -0.362534
-0.0940104 0.0966589 -0.375341
-0.101666 0.0966525 -0.384972
-0.109423 0.0966547 -0.394562
-0.117187 0.0966576 -0.40415
-0.124965 0.0966615 -0.413733
0.181594 0.109007 0.119125
0.181575 0.108303 0.106087
0.181555 0.107608 0.0932171
0.181508 0.105909 0.0617539
0.181489 0.105244 0.0494448
0.181346 0.100212 -0.0437272
0.181329 0.0996168 -0.0547509
0.181312 0.0990285 -0.0656442
0.181295 0.0984472 -0.0764096
0.181279 0.0978726 -0.0870494
0.181262 0.0973047 -0.0975658
0.181246 0.0967433 -0.107961
0.174601 0.0966561 -0.117824
0.167184 0.0966564 -0.127031
0.162239 0.0966565 -0.133169
0.152349 0.0966569 -0.145445
0.144931 0.0966571 -0.154652
0.137514 0.0966574 -0.163859
0.130096 0.0966576 -0.173066
0.120211 0.0966575 -0.185346
0.112802 0.0966568 -0.194559
0.105393 0.0966562 -0.203772
0.0979841 0.0966555 -0.212985
0.0936146 0.0953472 -0.242591
0.0458269 0.0938679 -0.329278
0.0371724 0.0942314 -0.333308
0.0218478 0.0949896 -0.338327
0.00910282 0.0957247 -0.340569
-0.0107968 0.096658 -0.348034
-0.0182123 0.096658 -0.357242
-0.0231558 0.096658 -0.363382
-0.0305712 0.096658 -0.372591
-0.0379866 0.096658 -0.381799
-0.0429301 0.096658 -0.387939
-0.0528121 0.0966576 -0.400219
-0.0602169 0.0966566 -0.409432
-0.0675904 0.096653 -0.418657
-0.0750251 0.0966547 -0.427858
-0.0849544 0.0966584 -0.440121
0.181471 0.108856 0.0372895
0.181453 0.108181 0.0252849
0.181435 0.107515 0.0134282
0.181381 0.105564 -0.0212799
0.181364 0.104929 -0.032571
0.181216 0.0995433 -0.128396
0.181201 0.0989787 -0.13844
0.181186 0.0984204 -0.148371
0.181172 0.0978684 -0.15819
0.181158 0.0973226 -0.1679
0.181144 0.0967828 -0.177503
0.172752 0.0966575 -0.19015
0.165633 0.0966569 -0.199002
0.158514 0.0966562 -0.207854
0.151396 0.0966556 -0.216705
0.14665 0.0966552 -0.222607
0.137156 0.0966547 -0.234406
0.130019 0.096656 -0.243246
0.120521 0.0966559 -0.255043
0.113397 0.0966559 -0.263891
0.106273 0.0966558 -0.272739
0.0967737 0.0966559 -0.284535
0.0896493 0.0966559 -0.293383
0.0730256 0.0966559 -0.314027
0.0659012 0.0966559 -0.322875
0.056402 0.0966559 -0.334671
0.0492774 0.0966559 -0.343519
0.0421529 0.096656 -0.352366
0.0374035 0.096656 -0.358265
0.0279042 0.096656 -0.370061
0.0207796 0.096656 -0.378909
0.0136552 0.096656 -0.387757
0.00653076 0.096656 -0.396604
0.00178099 0.096656 -0.402503
-0.00771809 0.096656 -0.414299
-0.0148426 0.096656 -0.423147
-0.0243325 0.0966552 -0.434947
-0.0314468 0.0966543 -0.443798
-0.0385667 0.0966539 -0.452647
-0.0489323 0.097371 -0.452787
0.181346 0.108393 -0.0437272
0.181329 0.107749 -0.0547509
0.181262 0.105248 -0.0975658
0.181246 0.104641 -0.107961
0.18123 0.10404 -0.118237
0.181108 0.0992028 -0.201047
0.181094 0.0986631 -0.210286
0.18108 0.0981293 -0.219425
0.181067 0.0976012 -0.228465
0.181047 0.0968197 -0.241844
0.177939 0.0966541 -0.248533
0.171084 0.096654 -0.257047
0.166514 0.096654 -0.262723
0.157374 0.0966539 -0.274075
0.150519 0.0966539 -0.282589
0.141378 0.0966539 -0.29394
0.132237 0.096654 -0.305291
0.125382 0.096654 -0.313805
0.116241 0.096654 -0.325156
0.109386 0.096654 -0.333669
0.100245 0.096654 -0.345021
0.0933897 0.096654 -0.353534
0.0865343 0.096654 -0.362048
0.081964 0.0966541 -0.367723
0.0728233 0.0966541 -0.379075
0.065968 0.0966541 -0.387588
0.0568273 0.0966541 -0.39894
0.0476867 0.0966541 -0.410291
0.0408312 0.0966541 -0.418805
0.0316905 0.0966541 -0.430156
0.0248351 0.0966541 -0.43867
0.0156891 0.0966547 -0.450019
0.00605714 0.097132 -0.453825
-0.00399029 0.0978613 -0.453842
-0.0141896 0.0986016 -0.453858
-0.0245445 0.0993532 -0.453876
0.181279 0.109857 -0.0870494
0.181158 0.104956 -0.1679
0.181144 0.104374 -0.177503
0.181122 0.103513 -0.191707
0.18102 0.0994118 -0.259354
0.181007 0.0988895 -0.267971
0.180985 0.0981165 -0.280726
0.180971 0.0976078 -0.289119
0.180949 0.0968547 -0.301546
0.178276 0.0966586 -0.308095
0.171672 0.0966584 -0.3163
0.165067 0.0966582 -0.324506
0.158463 0.096658 -0.332711
0.151858 0.0966578 -0.340916
0.145254 0.0966576 -0.349122
0.136448 0.0966573 -0.360062
0.129844 0.0966571 -0.368267
0.121038 0.0966568 -0.379207
0.112232 0.0966566 -0.390148
0.105628 0.0966564 -0.398353
0.0968221 0.0966561 -0.409293
0.0880165 0.0966558 -0.420233
0.0814121 0.0966556 -0.428438
0.0726067 0.0966554 -0.439378
0.06598 0.0966574 -0.447574
0.0565404 0.0971568 -0.451073
0.0422435 0.0981314 -0.452782
0.025726 0.0993155 -0.453799
-0.0358797 0.103974 -0.453602
-0.0489323 0.105008 -0.452787
0.181179 0.10969 -0.153295
0.181047 0.104127 -0.241844
0.181033 0.103574 -0.250646
0.179654 0.0992482 -0.321083
0.178419 0.0988875 -0.328348
0.176235 0.0983912 -0.338945
0.173342 0.0979828 -0.349027
0.169746 0.0976597 -0.358625
0.165803 0.0973803 -0.367962
0.158869 0.0971997 -0.379441
0.153686 0.0970648 -0.388022
0.145387 0.0970391 -0.398737
0.136072 0.0971235 -0.408964
0.125452 0.0973458 -0.418621
0.116216 0.0976447 -0.425342
0.106923 0.0979455 -0.432104
0.0951321 0.0985036 -0.43788
0.0867752 0.0989231 -0.441593
0.0159618 0.103689 -0.453811
0.00605714 0.104463 -0.453825
0.181094 0.109833 -0.210286
0.18108 0.109238 -0.219425
0.181067 0.10865 -0.228465
0.180949 0.103899 -0.301546
0.18054 0.103415 -0.309483
0.0735501 0.103112 -0.446999
0.0622509 0.10385 -0.449705
0.0500411 0.104678 -0.452161
-0.00399029 0.10894 -0.453842
-0.0141896 0.109764 -0.453858
0.181007 0.109677 -0.267971
0.180985 0.10882 -0.280726
0.180971 0.108256 -0.289119
0.165803 0.104214 -0.367962
0.158869 0.104021 -0.379441
0.153686 0.103876 -0.388022
0.145387 0.103849 -0.398737
0.136072 0.103939 -0.408964
0.125452 0.104177 -0.418621
0.0422435 0.108837 -0.452782
0.179654 0.109695 -0.321083
0.178419 0.109297 -0.328348
0.176235 0.108748 -0.338945
0.173342 0.108297 -0.349027
0.169746 0.10794 -0.358625
0.116216 0.107923 -0.425342
0.106923 0.108256 -0.432104
0.0951321 0.108872 -0.43788
0.0867752 0.109336 -0.441593
