ply
format ascii 1.0
comment Created by Open3D
element vertex 1461
property double x
property double y
property double z
end_header
-0.16556 -0.313956 -0.232446
-0.165557 -0.313526 -0.211125
-0.160989 -0.315045 -0.191313
-0.136692 -0.317512 0.191266
-0.162843 -0.30652 0.191263
-0.165494 -0.305059 0.208388
-0.165491 -0.304653 0.228519
-0.122901 -0.320603 0.191268
-0.134913 -0.320548 -0.191309
-0.0937494 -0.321521 0.191271
-0.106959 -0.320796 -0.191305
-0.136692 -0.30157 0.191266
-0.152494 -0.299951 -0.191312
-0.165496 -0.287477 0.193255
-0.165493 -0.287094 0.213426
-0.0871754 -0.322901 -0.191302
-0.177428 -0.280617 0.173411
-0.177419 -0.279497 0.23292
-0.177416 -0.279125 0.252651
-0.134913 -0.301452 -0.191309
-0.177449 -0.280632 0.0377562
-0.177446 -0.280254 0.0580089
-0.177443 -0.279877 0.0782072
-0.17744 -0.279501 0.0983511
-0.177437 -0.279126 0.118441
-0.177434 -0.278752 0.138477
-0.165558 -0.287486 -0.221778
-0.165555 -0.287092 -0.200487
-0.177469 -0.280599 -0.0978101
-0.177467 -0.280313 -0.0823404
-0.177464 -0.279933 -0.0617631
-0.17746 -0.279553 -0.0412417
-0.177457 -0.279175 -0.0207758
-0.177454 -0.278797 -0.000365201
-0.177451 -0.278421 0.0199902
-0.17749 -0.280614 -0.238471
-0.177482 -0.279558 -0.180851
-0.177478 -0.279176 -0.160006
-0.177476 -0.278843 -0.141813
-0.177472 -0.278463 -0.121074
-0.177423 -0.272475 0.205705
-0.177426 -0.270279 0.188333
-0.177487 -0.272481 -0.217468
-0.177484 -0.272108 -0.196523
-0.177493 -0.270641 -0.259532
-0.177417 -0.261689 0.247723
-0.167406 -0.264943 0.127109
-0.166177 -0.264943 0.152651
-0.165193 -0.264943 0.173085
-0.164207 -0.264944 0.193519
-0.16322 -0.264945 0.213953
-0.162234 -0.264946 0.234387
-0.16747 -0.264944 -0.0216625
-0.166477 -0.264944 -0.00102949
-0.165483 -0.264944 0.0196035
-0.164614 -0.264944 0.0376574
-0.16362 -0.264944 0.0582904
-0.162627 -0.264944 0.0789234
-0.161633 -0.264943 0.0995564
-0.16741 -0.264944 -0.170762
-0.166407 -0.264944 -0.149925
-0.165529 -0.264944 -0.131693
-0.164525 -0.264944 -0.110857
-0.163522 -0.264944 -0.0900207
-0.162644 -0.264944 -0.0717889
-0.161641 -0.264944 -0.0509526
-0.153489 -0.264943 0.118342
-0.152486 -0.264943 0.139178
-0.151482 -0.264943 0.160015
-0.163184 -0.264939 -0.236017
-0.162162 -0.264942 -0.214977
-0.160762 -0.264944 -0.186044
-0.152782 -0.264944 -0.020325
-0.151896 -0.264943 -0.00191184
-0.150882 -0.264943 0.0191317
-0.143154 -0.264943 0.179589
-0.142265 -0.264944 0.198003
-0.141249 -0.264945 0.219047
-0.164177 -0.256331 0.248962
-0.152317 -0.264944 -0.167094
-0.151294 -0.264944 -0.145839
-0.142466 -0.264943 0.0374869
-0.141187 -0.264943 0.0640558
-0.140291 -0.264943 0.0826539
-0.132733 -0.264946 0.239412
-0.142667 -0.264944 -0.126288
-0.141633 -0.264944 -0.104817
-0.140212 -0.264943 -0.0752943
-0.131553 -0.264943 0.104524
-0.130648 -0.264942 0.123311
-0.177414 -0.246295 0.269872
-0.177493 -0.252468 -0.256896
-0.144877 -0.263469 -0.24571
-0.131383 -0.264943 -0.0548195
-0.122113 -0.264942 0.137688
-0.121067 -0.264943 0.15938
-0.120151 -0.264943 0.178359
-0.131611 -0.264941 -0.225683
-0.13068 -0.264944 -0.206509
-0.122371 -0.264943 -0.0339205
-0.121052 -0.264943 -0.00652571
-0.120129 -0.264943 0.0126506
-0.117491 -0.264942 0.0674401
-0.111152 -0.264944 0.198936
-0.110226 -0.264945 0.218113
-0.124527 -0.264889 -0.245051
-0.121568 -0.264943 -0.186979
-0.120502 -0.264943 -0.164833
-0.117436 -0.264943 -0.101165
-0.116503 -0.264943 -0.081788
-0.110905 -0.264942 0.0344748
-0.109972 -0.264942 0.0538519
-0.107439 -0.264942 0.106447
-0.101031 -0.264945 0.23932
-0.114687 -0.264943 -0.21739
-0.11105 -0.264943 -0.141858
-0.110107 -0.264943 -0.122276
-0.106874 -0.264942 -0.0551371
-0.104988 -0.264942 -0.0159727
-0.104449 -0.264942 -0.00478296
-0.101082 -0.264942 0.0651532
-0.0997347 -0.264942 0.0931276
-0.097442 -0.264942 0.140684
-0.0964975 -0.264943 0.160267
-0.0955528 -0.264943 0.179849
-0.0946077 -0.264944 0.199432
-0.104663 -0.264943 -0.186249
-0.100578 -0.264942 -0.101428
-0.0996255 -0.264942 -0.0816363
-0.0974472 -0.264942 -0.0363983
-0.0945882 -0.264942 0.0229763
-0.0905032 -0.264942 0.107797
-0.0853189 -0.264945 0.215239
-0.0843654 -0.264945 0.235031
-0.177413 -0.233715 0.274785
-0.0949726 -0.264942 -0.165867
-0.0897433 -0.264942 -0.0572656
-0.0850644 -0.264941 0.0399041
-0.0841011 -0.264941 0.0599096
-0.0824493 -0.264941 0.0942047
-0.0805193 -0.264942 0.134216
-0.0795543 -0.264943 0.154222
-0.161855 -0.236553 0.257164
-0.0921797 -0.264209 -0.24536
-0.0889647 -0.264943 -0.225937
-0.0850705 -0.264942 -0.14504
-0.0840967 -0.264942 -0.124816
-0.0824273 -0.264942 -0.0901455
-0.0800623 -0.264942 -0.0410297
-0.0790886 -0.264941 -0.0208055
-0.069899 -0.264943 0.16988
-0.0673881 -0.264945 0.221886
-0.0788768 -0.264946 -0.205546
-0.072418 -0.264941 -0.0711724
-0.0690424 -0.264941 -0.00106633
-0.0674952 -0.264941 0.0310656
-0.0646805 -0.264941 0.0894872
-0.0636941 -0.264942 0.109935
-0.0624259 -0.264942 0.136225
-0.0596073 -0.264944 0.194648
-0.0574982 -0.264943 0.238464
-0.131841 -0.24102 0.255388
-0.177496 -0.232032 -0.275366
-0.163447 -0.236182 -0.257367
-0.137424 -0.244324 -0.254114
-0.0714332 -0.264941 -0.243767
-0.0685851 -0.264942 -0.184693
-0.0674474 -0.264942 -0.161063
-0.0664517 -0.264942 -0.140387
-0.0646029 -0.264941 -0.101989
-0.062185 -0.264941 -0.0517754
-0.0611895 -0.264941 -0.0310994
-0.0574916 -0.264941 0.0456973
-0.0520785 -0.264943 0.157939
-0.049655 -0.264944 0.208154
-0.0606278 -0.264945 -0.217144
-0.0596275 -0.264943 -0.196232
-0.0560358 -0.264941 -0.121553
-0.0540222 -0.264941 -0.0797336
-0.0504264 -0.264941 -0.00505626
-0.0495634 -0.264941 0.0128663
-0.0485566 -0.26494 0.0337759
-0.046829 -0.264941 0.069621
-0.0449557 -0.264942 0.108453
-0.043947 -0.264942 0.129363
-0.0414973 -0.264943 0.180145
-0.0391914 -0.264945 0.227939
-0.0522193 -0.264941 -0.244287
-0.0488731 -0.264941 -0.174798
-0.0474184 -0.264941 -0.144586
-0.0431996 -0.264941 -0.0569699
-0.0424722 -0.264941 -0.0418637
-0.0381073 -0.26494 0.0487731
-0.0363584 -0.264941 0.0850279
-0.0334434 -0.264943 0.145453
-0.0306733 -0.264944 0.202858
-0.0290312 -0.264824 0.245064
-0.0409415 -0.264946 -0.217054
-0.0403563 -0.264944 -0.204828
-0.0361001 -0.264941 -0.116196
-0.0346285 -0.26494 -0.0856345
-0.0315382 -0.26494 -0.0214552
-0.0305082 -0.26494 -6.21825e-05
-0.0296252 -0.26494 0.0182747
-0.0269727 -0.264941 0.0732855
-0.0244662 -0.264942 0.125241
-0.022402 -0.264943 0.168027
-0.0198933 -0.264945 0.219984
-0.100543 -0.239882 0.255846
-0.166049 -0.224906 -0.261657
-0.0321063 -0.264942 -0.244831
-0.0288345 -0.264941 -0.176808
-0.028239 -0.264941 -0.16444
-0.0268991 -0.26494 -0.136613
-0.0239215 -0.26494 -0.0747749
-0.0224328 -0.26494 -0.0438559
-0.0182622 -0.26494 0.042717
-0.0157265 -0.264941 0.0952794
-0.0128923 -0.264943 0.154026
-0.010953 -0.264944 0.194222
-0.00857925 -0.264941 0.243691
-0.11555 -0.237216 -0.256946
-0.0203232 -0.264946 -0.21696
-0.0197287 -0.264944 -0.204444
-0.0155221 -0.26494 -0.116843
-0.0144676 -0.26494 -0.0949432
-0.0107017 -0.26494 -0.0167311
-0.00964719 -0.26494 0.00516827
-0.00723284 -0.264941 0.0552239
-0.0058744 -0.264941 0.0833804
-0.00481784 -0.264942 0.10528
-0.00345945 -0.264942 0.133437
-0.00149733 -0.264943 0.174108
1.30534e-05 -0.264944 0.205394
-0.162068 -0.215924 0.264644
-0.177413 -0.211218 0.274785
-0.0118771 -0.26469 -0.245126
-0.00768352 -0.26494 -0.175748
-0.00676882 -0.26494 -0.156752
-0.00478721 -0.26494 -0.115594
-0.00280541 -0.26494 -0.0744371
-0.00143343 -0.264939 -0.0459436
0.00238079 -0.26494 0.0332049
0.00528288 -0.264941 0.0933582
0.00818491 -0.264943 0.153512
0.00971246 -0.264944 0.185172
0.0119953 -0.264942 0.232661
0.0117317 -0.264688 0.245132
-0.0696542 -0.240639 0.25555
-0.133788 -0.221702 0.262692
0.000827253 -0.264946 -0.226474
0.00174743 -0.264944 -0.207246
0.00512803 -0.26494 -0.136746
0.00667077 -0.264939 -0.104703
0.010528 -0.264939 -0.0245952
0.0119181 -0.264939 0.0042436
0.0143917 -0.264941 0.0555127
0.0171744 -0.264942 0.113191
0.0201117 -0.264943 0.174074
0.0219686 -0.264945 0.212528
-0.177496 -0.211365 -0.280651
-0.0970818 -0.234106 -0.258184
0.00888371 -0.264304 -0.245301
0.014037 -0.264939 -0.184367
0.0149739 -0.264939 -0.164905
0.0173166 -0.264939 -0.11625
0.0191907 -0.264939 -0.0773264
0.0198155 -0.264939 -0.0643519
0.0207526 -0.264939 -0.0448901
0.0240369 -0.26494 0.023226
0.0249758 -0.26494 0.0426878
0.0256019 -0.264941 0.0556624
0.0265409 -0.264941 0.0751243
0.0293578 -0.264942 0.133511
0.0302967 -0.264943 0.152973
0.0318617 -0.264944 0.18541
0.0341974 -0.264941 0.234064
-0.0476807 -0.241177 0.255339
-0.146641 -0.217283 -0.264235
-0.0825865 -0.235331 -0.257693
-0.0505515 -0.244352 -0.254088
0.023508 -0.264946 -0.226609
0.024446 -0.264943 -0.206902
0.0253808 -0.264939 -0.187195
0.0263295 -0.264939 -0.167491
0.026962 -0.264939 -0.154355
0.0298081 -0.264939 -0.0952445
0.0336048 -0.264939 -0.0164305
0.0345555 -0.264939 0.00327296
0.0355062 -0.26494 0.0229765
0.0364569 -0.26494 0.0426801
0.0389919 -0.264941 0.0952233
0.0427947 -0.264943 0.174039
0.0446963 -0.264944 0.213447
0.045634 -0.264941 0.233149
0.0306239 -0.263899 -0.245485
0.0352764 -0.264947 -0.226679
0.0362235 -0.264943 -0.206724
0.0400522 -0.264939 -0.126914
0.0424538 -0.264938 -0.0770358
0.0434144 -0.264938 -0.0570845
0.0443761 -0.264938 -0.0371332
0.0453386 -0.264939 -0.017182
0.0463012 -0.264939 0.00276932
0.0491892 -0.264941 0.0626236
0.0501517 -0.264941 0.0825752
0.0522375 -0.264942 0.125804
0.0532002 -0.264943 0.145756
0.0551256 -0.264944 0.185659
0.0560894 -0.264944 0.205612
0.0565485 -0.26454 0.245206
0.0285041 -0.256649 0.248847
-0.0316364 -0.243508 -0.254421
0.04926 -0.264938 -0.186332
0.0502328 -0.264938 -0.166126
0.0512057 -0.264938 -0.14592
0.0531514 -0.264938 -0.105509
0.0550972 -0.264938 -0.0650985
0.0555841 -0.264938 -0.0549958
0.0589962 -0.26494 0.0157232
0.0602961 -0.26494 0.042664
0.0632209 -0.264942 0.103281
0.0651708 -0.264943 0.143693
0.0661459 -0.264943 0.163899
0.0695413 -0.26494 0.234617
-0.100396 -0.217628 0.264078
-0.124255 -0.215297 -0.264903
0.0534146 -0.263475 -0.245677
0.0597236 -0.264947 -0.226825
0.0606901 -0.264942 -0.206353
0.0641252 -0.264938 -0.134718
0.0651107 -0.264938 -0.114252
0.0664245 -0.264938 -0.0869633
0.0693856 -0.264939 -0.0255652
0.0703731 -0.264939 -0.00509901
0.0736648 -0.264941 0.063122
0.0746523 -0.264941 0.0835884
0.0756399 -0.264942 0.104055
0.0766275 -0.264942 0.124522
0.0790963 -0.264943 0.175688
0.0804141 -0.264944 0.202978
-0.0260741 -0.235198 0.257727
0.0652279 -0.263255 -0.245777
0.0743876 -0.264938 -0.185424
0.0753859 -0.264938 -0.16469
0.0767169 -0.264938 -0.137045
0.0797129 -0.264938 -0.0748437
0.0807133 -0.264938 -0.0541103
0.0840481 -0.26494 0.0150019
0.0850486 -0.26494 0.0357357
0.0863826 -0.264941 0.0633809
0.0873829 -0.264941 0.0841149
0.0898843 -0.264943 0.13595
0.0912181 -0.264943 0.163596
0.0937127 -0.264943 0.215431
0.0950274 -0.264938 0.243073
-0.0140415 -0.235402 0.257647
-0.0642126 -0.221838 0.262658
-0.177413 -0.191253 0.272329
-0.0709233 -0.223866 -0.261992
0.0854614 -0.264947 -0.226977
0.086453 -0.264941 -0.205963
0.0874504 -0.264937 -0.184951
0.0908222 -0.264937 -0.114924
0.0921721 -0.264937 -0.0869127
0.0947065 -0.264939 -0.0343925
0.096058 -0.264939 -0.00638141
0.0970718 -0.26494 0.0146269
0.100958 -0.264942 0.0951597
0.102309 -0.264942 0.123171
0.104844 -0.264943 0.175694
0.106195 -0.264944 0.203706
0.107194 -0.264941 0.224712
0.0750391 -0.25609 0.249112
-0.0773475 -0.215422 0.264829
-0.129079 -0.201627 0.269297
-0.149897 -0.196079 0.270853
-0.163638 -0.196717 -0.270722
-0.135775 -0.203992 -0.268675
-0.013447 -0.235905 -0.257452
0.102231 -0.264937 -0.15608
0.103256 -0.264937 -0.134789
0.105137 -0.264937 -0.0957574
0.106165 -0.264938 -0.0744674
0.107534 -0.264938 -0.0460806
0.111473 -0.26494 0.0355323
0.112842 -0.264941 0.0639197
0.115239 -0.264942 0.113598
0.116267 -0.264943 0.134889
0.116781 -0.264943 0.145534
0.118151 -0.264943 0.173922
0.121544 -0.264937 0.244886
0.0110597 -0.235827 0.257482
-0.177411 -0.186037 0.289505
-0.177497 -0.190716 -0.288586
-0.0859984 -0.21408 -0.265309
0.111407 -0.26486 -0.245029
0.11226 -0.264948 -0.234334
0.113618 -0.26494 -0.205552
0.114127 -0.264938 -0.194759
0.115509 -0.264937 -0.165985
0.116548 -0.264936 -0.144406
0.117934 -0.264937 -0.115632
0.122273 -0.264939 -0.0257169
0.122794 -0.264939 -0.014927
0.124182 -0.26494 0.0138464
0.125224 -0.26494 0.0354265
0.126612 -0.264941 0.0642
0.127653 -0.264941 0.0857803
0.132861 -0.264944 0.193683
0.13389 -0.264941 0.215262
0.135258 -0.264937 0.244032
0.0147865 -0.236767 -0.257103
0.0889394 -0.25558 -0.249316
0.126386 -0.264948 -0.234516
0.127762 -0.26494 -0.205338
0.128278 -0.264937 -0.194397
0.13302 -0.264937 -0.0959475
0.134075 -0.264938 -0.0740702
0.135483 -0.264938 -0.0449003
0.136891 -0.264939 -0.0157302
0.137419 -0.264939 -0.0047914
0.138826 -0.26494 0.0243788
0.143225 -0.264942 0.115537
0.144633 -0.264943 0.144708
0.145161 -0.264943 0.155647
0.146569 -0.264944 0.184818
0.147097 -0.264944 0.195757
0.148483 -0.264939 0.224925
0.0376443 -0.236278 0.257307
-0.0359951 -0.217415 0.264161
0.0256224 -0.236229 -0.257315
0.138322 -0.264424 -0.245226
0.144246 -0.264936 -0.164445
0.145673 -0.264936 -0.134867
0.1471 -0.264937 -0.10529
0.147635 -0.264937 -0.094198
0.149062 -0.264938 -0.0646202
0.15388 -0.26494 0.0352059
0.155307 -0.264941 0.0647843
0.155843 -0.264941 0.0758763
0.15727 -0.264942 0.105455
0.158698 -0.264943 0.135034
0.161029 -0.264192 0.24538
-0.0242245 -0.217376 0.264176
-0.105944 -0.196747 0.270672
-0.123448 -0.196122 -0.270882
-0.0461645 -0.215215 -0.264917
0.15584 -0.264947 -0.234898
0.157254 -0.264939 -0.204892
0.158685 -0.264935 -0.174891
0.16538 -0.264939 -0.0361537
0.165922 -0.264939 -0.0249046
0.16737 -0.26494 0.00509309
0.168818 -0.26494 0.0350909
0.174609 -0.264943 0.155084
0.176056 -0.264944 0.185083
0.177486 -0.26494 0.215079
0.0658479 -0.236755 0.257121
0.048072 -0.235114 -0.257756
0.166689 -0.263965 -0.245434
0.175007 -0.264936 -0.155209
0.175558 -0.264936 -0.143798
0.176476 -0.264936 -0.12478
0.000319183 -0.217295 0.264208
-0.0612972 -0.202175 0.269155
-0.0859489 -0.196129 0.270849
-0.0272081 -0.213683 -0.265433
-0.0124297 -0.217229 -0.264229
0.0186506 -0.224688 -0.261697
0.0682362 -0.236582 -0.257167
0.106944 -0.239955 0.255852
-0.157306 -0.176053 0.276184
-0.136212 -0.184783 -0.274067
0.0262969 -0.217209 0.264241
-0.127076 -0.180671 0.275151
-0.177497 -0.172493 -0.283295
-0.163192 -0.17576 -0.276295
-0.0720021 -0.197025 -0.27062
0.0927964 -0.235425 -0.257624
-0.177411 -0.16606 0.289505
-0.102793 -0.187 -0.273439
0.105543 -0.234824 -0.257861
0.156747 -0.240924 0.255473
0.132518 -0.235317 0.257705
0.0538386 -0.217118 0.264277
-0.0337811 -0.196861 0.270651
-0.0472831 -0.196708 -0.270705
0.037774 -0.215938 -0.264658
0.128216 -0.236375 -0.257238
0.0682407 -0.21707 0.264295
-0.106533 -0.177294 0.275913
-0.124459 -0.17648 -0.276127
0.0577101 -0.217039 -0.264282
0.10605 -0.222168 0.262574
0.0944354 -0.219564 0.263454
-0.00987148 -0.196188 0.270844
0.155912 -0.235139 -0.257726
0.176724 -0.239695 -0.255905
0.13439 -0.224909 0.261649
-0.0612713 -0.181757 0.27489
-0.0867454 -0.176143 0.276174
-0.157056 -0.1639 -0.278959
-0.0112613 -0.195355 -0.271079
0.0293418 -0.204112 -0.268615
0.0815415 -0.215364 -0.264845
0.177251 -0.230603 0.259593
0.0154139 -0.195477 0.271049
-0.160008 -0.157434 0.280367
-0.0815177 -0.177278 -0.275941
-0.0465494 -0.1847 -0.274076
0.0490561 -0.204986 -0.268366
0.143105 -0.224929 -0.261594
0.155828 -0.222265 0.262549
0.0391458 -0.197354 0.270526
-0.130015 -0.161265 0.279511
0.00901574 -0.193251 -0.271666
-0.03688 -0.178129 0.275736
-0.177497 -0.151768 -0.28594
0.0815246 -0.20489 -0.268388
0.0673773 -0.196636 0.270732
-0.177017 -0.146235 0.28228
-0.0971141 -0.165359 -0.278622
0.10338 -0.205805 -0.268081
0.164171 -0.218059 -0.263919
0.175014 -0.220245 -0.263176
0.106062 -0.201111 0.269483
0.0939589 -0.198656 0.27017
-0.0133558 -0.176896 0.276017
-0.109637 -0.157381 0.280387
-0.133499 -0.155274 -0.28079
-0.0319605 -0.175409 -0.276353
0.116258 -0.204788 -0.26841
0.134875 -0.203345 0.268861
-0.0146884 -0.175676 -0.27629
0.0115049 -0.175593 0.276313
-0.0558693 -0.162413 0.279264
-0.0817438 -0.157352 0.280397
-0.177409 -0.138499 0.299302
0.101822 -0.194798 -0.271217
0.153502 -0.204679 -0.268435
0.15566 -0.200123 0.269769
0.0353085 -0.176995 0.276002
-0.0915753 -0.154918 -0.280845
-0.0420454 -0.164221 -0.27887
0.0134562 -0.174643 -0.276518
0.0664624 -0.184596 -0.274087
-0.135341 -0.141572 0.283078
-0.15725 -0.137443 0.283775
-0.0622821 -0.157428 -0.280402
0.0325705 -0.174908 -0.276455
0.170644 -0.200344 -0.269649
0.0990831 -0.182287 0.274766
0.0630557 -0.175621 0.276315
-0.0407199 -0.15642 0.28057
-0.163905 -0.136053 -0.284059
0.0775637 -0.174902 0.276479
-0.0194951 -0.157287 0.280422
-0.177498 -0.131058 -0.291232
0.144175 -0.183355 0.274474
-0.115905 -0.137079 0.283843
-0.132483 -0.13624 -0.284022
-0.0201877 -0.155763 -0.280692
0.146846 -0.184789 -0.27402
0.175266 -0.185141 0.273977
0.0594025 -0.164929 0.278716
0.0153794 -0.15725 0.280435
0.0046736 -0.155384 0.280753
-0.0983122 -0.137428 0.283787
0.0494287 -0.164477 -0.278801
0.107285 -0.174328 -0.276575
0.164992 -0.179636 0.275429
0.123869 -0.172609 0.277002
-0.0530143 -0.142386 0.282953
-0.17741 -0.121071 0.294405
-0.111475 -0.134248 -0.284357
0.0700738 -0.164534 -0.278785
0.13051 -0.174613 -0.276507
0.174965 -0.182026 -0.274791
0.0415491 -0.155266 0.280778
-0.0695983 -0.136671 0.28392
-0.0904427 -0.134861 -0.284249
-0.0320616 -0.144396 -0.282622
0.0916222 -0.164595 -0.278769
0.103938 -0.162212 0.279334
-0.142955 -0.121781 0.285835
-0.0610321 -0.136665 -0.283939
-0.0290278 -0.13741 0.283801
-0.15695 -0.116918 0.286396
-0.16472 -0.117451 -0.286386
0.00315028 -0.143698 -0.282736
0.0203641 -0.146389 -0.282276
0.149696 -0.162398 0.279299
0.0360476 -0.144585 0.282592
0.162323 -0.164793 -0.278715
0.166989 -0.161393 0.279528
0.00505614 -0.136584 0.283946
-0.00541335 -0.13498 0.284217
-0.12468 -0.116716 0.286424
-0.177498 -0.110297 -0.291232
-0.139558 -0.115934 -0.286557
0.120699 -0.154797 -0.280838
0.127621 -0.151784 0.281383
0.144529 -0.154634 -0.280862
0.103179 -0.144637 0.282593
-0.0530046 -0.121816 0.285844
-0.0894262 -0.116496 0.286455
0.0352191 -0.135359 -0.284144
0.0676034 -0.136074 0.284043
-0.0705489 -0.116377 0.286471
-0.17741 -0.101101 0.294405
-0.0158736 -0.124927 -0.285494
0.0552424 -0.134799 -0.284235
0.0109164 -0.124828 0.285506
-0.124311 -0.107094 -0.287511
-0.0620469 -0.115519 -0.286593
0.0194824 -0.126551 -0.2853
0.0860728 -0.135561 -0.284101
0.0349126 -0.124918 0.285499
-0.0299821 -0.116123 0.286507
-0.144604 -0.100593 0.287873
-0.103886 -0.107006 -0.287513
0.108322 -0.134975 -0.284197
0.168417 -0.139295 0.283511
0.153795 -0.137364 0.283837
-0.159258 -0.0960457 0.288156
-0.0823789 -0.106914 -0.287515
-0.00463492 -0.116888 -0.286425
0.131583 -0.134362 -0.284297
0.12755 -0.130325 0.284889
-0.177498 -0.0921302 -0.291232
-0.154439 -0.0949916 -0.288273
0.0797871 -0.124221 -0.28556
0.167545 -0.135171 -0.284154
0.0509174 -0.117177 0.286396
-0.110772 -0.0969777 0.288105
-0.0515454 -0.104798 -0.287643
0.0771278 -0.117057 0.286415
-0.0461987 -0.102083 0.287795
-0.0655457 -0.0997348 0.287939
-0.0929548 -0.0964077 0.288143
-0.0271313 -0.104637 -0.287649
0.147092 -0.125153 -0.285441
0.14696 -0.121895 0.285867
0.104844 -0.116929 0.286434
-0.00129664 -0.104467 -0.287655
0.0164073 -0.10649 -0.287526
0.172058 -0.124271 -0.285539
0.0308351 -0.104972 0.287625
-0.0348846 -0.0974572 0.288087
-0.177411 -0.0811571 0.289505
-0.134393 -0.0865121 -0.2888
0.0353891 -0.105316 -0.287596
0.116057 -0.114249 -0.286711
0.165346 -0.116651 0.286475
0.0558456 -0.104513 0.287657
-0.0133677 -0.0968422 0.288129
-0.14917 -0.0817918 0.288944
-0.107769 -0.0866217 -0.288788
0.151068 -0.114378 -0.28669
0.00926292 -0.0961954 0.288173
-0.0864695 -0.0859919 -0.288824
-0.0719361 -0.0874994 -0.288727
0.0966216 -0.104983 -0.287607
0.124312 -0.104981 0.287638
0.0277898 -0.0945278 -0.288271
0.0563675 -0.0973916 -0.288088
-0.177466 -0.0729459 -0.0797652
-0.177464 -0.0728592 -0.0617631
-0.17746 -0.0727604 -0.0412417
-0.177457 -0.0726619 -0.0207758
-0.177454 -0.0725637 -0.000365209
-0.177451 -0.0724657 0.0199902
-0.177449 -0.0723802 0.0377562
-0.177446 -0.0722827 0.0580089
-0.177443 -0.0721855 0.0782072
-0.17744 -0.0720886 0.0983511
-0.177437 -0.0719919 0.118441
-0.177434 -0.0718954 0.138477
-0.177431 -0.0717992 0.15846
-0.177427 -0.0717034 0.178389
0.0839354 -0.0973731 0.28811
-0.116498 -0.077277 0.288992
-0.177499 -0.071393 -0.296528
-0.0403103 -0.084627 -0.288901
0.0770296 -0.0959733 -0.288172
-0.177482 -0.0708801 -0.186071
-0.177479 -0.0707832 -0.165212
-0.177476 -0.0706987 -0.147006
-0.177473 -0.0706023 -0.126253
-0.17747 -0.0705062 -0.105557
0.155725 -0.100901 0.287899
0.140719 -0.0994494 0.287988
0.0981836 -0.0953341 0.28824
-0.0106391 -0.0848052 0.288883
-0.0421296 -0.0817589 0.288961
-0.0620127 -0.0798357 0.288976
-0.0901427 -0.0771147 0.288997
-0.00674617 -0.0846781 -0.288891
0.0236011 -0.0849128 0.288881
-0.164592 -0.0673265 -0.289135
-0.140018 -0.0668039 -0.289135
0.0687498 -0.0847929 -0.288871
-0.177411 -0.0611799 0.289505
-0.11378 -0.0662459 -0.289136
0.0113697 -0.0765897 -0.289014
0.129809 -0.0840785 0.28895
0.0484785 -0.0773558 0.289017
-0.148555 -0.0610693 0.289145
-0.0928887 -0.0650803 -0.289143
-0.0709503 -0.0668163 -0.289123
0.0299055 -0.0747975 -0.289028
0.0491049 -0.0763169 -0.28901
0.176188 -0.084171 0.288952
0.0876098 -0.0771608 0.289025
0.0742491 -0.0761034 0.289032
-0.177464 -0.0549826 -0.0669022
-0.177424 -0.0540018 0.203225
0.160546 -0.079247 0.289016
-0.0312179 -0.0647452 0.289125
-0.0614426 -0.0624595 0.289143
-0.132842 -0.0570605 0.289079
-0.152731 -0.0549801 -0.289033
-0.0147418 -0.06493 -0.289132
-0.177452 -0.0521421 0.0149065
-0.177449 -0.0520805 0.0326845
-0.177446 -0.0520104 0.0529508
-0.177443 -0.0519404 0.0731627
-0.17744 -0.0518706 0.0933202
-0.177437 -0.051801 0.113424
-0.177434 -0.0517316 0.133473
-0.177431 -0.0516623 0.153469
-0.177428 -0.0515933 0.173411
0.012813 -0.0649086 0.289129
-0.0988692 -0.056856 0.289074
-0.177499 -0.0506242 -0.296528
-0.11404 -0.0549518 -0.289026
-0.177483 -0.0502776 -0.191295
-0.17748 -0.0502089 -0.170421
-0.177477 -0.0501489 -0.152204
-0.177474 -0.0500805 -0.131436
-0.177471 -0.0500123 -0.110726
0.0489581 -0.0642213 0.289141
-0.0809135 -0.0553143 0.289011
-0.0712123 -0.0549205 -0.289018
-0.0397922 -0.0569653 -0.289101
-0.177468 -0.047383 -0.0900713
-0.177462 -0.0472625 -0.0514954
-0.177459 -0.0471985 -0.0310018
-0.177456 -0.0471346 -0.0105636
0.101877 -0.0643713 0.289146
-0.00986511 -0.0571005 0.289097
-0.134826 -0.0452902 -0.288612
0.0204221 -0.054301 -0.288976
0.0492014 -0.0559714 -0.289044
0.161289 -0.0608601 0.289189
0.0743306 -0.0558138 0.289053
-0.173428 -0.0414371 0.288399
-0.0870215 -0.0451515 -0.288598
0.13021 -0.0554776 0.289046
-0.0634084 -0.0449233 0.288567
-0.143082 -0.0405802 0.288367
-0.0411754 -0.0445766 -0.288566
-0.177485 -0.0374243 -0.206988
0.176398 -0.0542541 0.289
0.0348215 -0.0470345 0.288672
-0.0117956 -0.0446573 0.288563
0.059478 -0.0449617 0.288587
-0.033843 -0.040531 0.288382
-0.101611 -0.0373135 0.288232
-0.119041 -0.036486 0.288194
-0.1775 -0.0324626 -0.301828
-0.177482 -0.0322182 -0.186072
-0.177479 -0.0321742 -0.165212
-0.177476 -0.0321358 -0.147006
-0.177473 -0.0320919 -0.126253
-0.17747 -0.0320482 -0.105557
-0.177454 -0.0318154 0.00472882
-0.177451 -0.0317779 0.0225308
-0.177448 -0.031735 0.0428245
-0.177445 -0.0316923 0.0630636
-0.177442 -0.0316497 0.0832482
-0.177439 -0.0316072 0.103379
-0.177436 -0.0315648 0.123455
-0.177433 -0.0315225 0.143478
-0.17743 -0.0314804 0.163447
-0.177427 -0.0314383 0.183363
0.128269 -0.0446557 0.288583
0.113598 -0.0440107 0.288553
-0.0837811 -0.0353336 0.28815
-0.0172071 -0.0363226 -0.288206
0.000272453 -0.0370297 -0.288233
0.158258 -0.0422964 0.288486
0.00938314 -0.0362752 0.288205
0.0180515 -0.0344661 -0.28812
0.0369455 -0.035164 -0.288147
-0.177467 -0.0268885 -0.0874935
-0.177464 -0.026852 -0.0669022
-0.177461 -0.0268156 -0.0463668
-0.177458 -0.0267793 -0.0258871
-0.177424 -0.026373 0.203225
0.0842988 -0.0358876 0.2882
-0.162795 -0.0251394 -0.28725
-0.144194 -0.0257611 -0.287307
-0.117912 -0.0266394 -0.287387
-0.0969931 -0.0273385 -0.287451
-0.0831284 -0.0248749 -0.287212
-0.0603188 -0.0255569 -0.287274
0.0301777 -0.0274349 0.287452
-0.147568 -0.0221216 0.286913
-0.170708 -0.0214299 0.286843
0.0540797 -0.0248381 0.287206
-0.038882 -0.0223861 0.286955
-0.177485 -0.0167764 -0.206988
0.168325 -0.0241383 0.287156
-0.124548 -0.0174433 0.286466
-0.140224 -0.0149901 -0.286268
-0.0302714 -0.0171173 -0.286457
0.150825 -0.0200865 0.286763
0.014605 -0.0174516 0.286487
-0.00845981 -0.0170055 0.286441
-0.0612721 -0.0159839 0.286335
-0.0806621 -0.0156089 0.286296
-0.0991629 -0.015251 0.286258
-0.177499 -0.0116845 -0.299178
-0.00526279 -0.0144007 -0.286193
0.012789 -0.0146865 -0.286218
0.0315717 -0.0149838 -0.286244
-0.177482 -0.0115986 -0.186072
-0.177479 -0.0115827 -0.165212
-0.177476 -0.0115689 -0.147006
-0.177473 -0.0115531 -0.126253
-0.17747 -0.0115374 -0.105557
-0.177453 -0.0114536 0.00472881
-0.177451 -0.01144 0.0225308
-0.177448 -0.0114246 0.0428245
-0.177445 -0.0114092 0.0630636
-0.177442 -0.0113939 0.0832482
-0.177439 -0.0113786 0.103379
-0.177436 -0.0113633 0.123455
-0.177433 -0.0113481 0.143478
-0.17743 -0.0113329 0.163447
-0.177427 -0.0113178 0.183363
0.118944 -0.0159301 0.286357
0.104426 -0.0157004 0.286332
0.0766101 -0.0152601 0.286286
0.0254105 -0.0144498 0.2862
-0.155002 -0.00668334 -0.285298
-0.115978 -0.00702651 -0.285344
-0.102064 -0.00714887 -0.285361
-0.177467 -0.00640203 -0.0874935
-0.177464 -0.00639333 -0.0669022
-0.177461 -0.00638466 -0.0463668
-0.177458 -0.00637602 -0.025887
-0.177424 -0.00627928 0.203225
-0.0504836 -0.00456135 -0.284966
-0.0257834 -0.00469167 -0.284982
0.0583963 -0.00499095 0.285031
0.00895566 -0.00473012 0.284984
-0.0138759 -0.00460966 0.284963
-0.0355737 -0.0044952 0.284942
0.141355 -0.00180959 0.284567
-0.139213 -0.00131618 0.284449
-0.162926 -0.00127448 0.284439
-0.177411 -0.00124899 0.284602
-0.0771893 0.0044201 -0.283622
0.0334374 0.00500372 -0.28352
-0.177485 0.00387147 -0.206988
0.106996 0.00524772 0.283505
0.0927851 0.00517274 0.283514
-0.0607966 0.00436244 0.283611
-0.0802552 0.00425977 0.283623
-0.0988191 0.00416183 0.283635
-0.177499 0.00908637 -0.296528
-0.177482 0.00902108 -0.186072
-0.177479 0.00900875 -0.165212
-0.177476 0.00899799 -0.147006
-0.177473 0.00898573 -0.126253
-0.17747 0.00897349 -0.105557
-0.177454 0.0089083 0.00472882
-0.177451 0.00889778 0.0225308
-0.177448 0.00888579 0.0428245
-0.177445 0.00887382 0.0630636
-0.177442 0.00886189 0.0832482
-0.177439 0.00884999 0.103379
-0.177436 0.00883813 0.123455
-0.177433 0.00882629 0.143478
-0.17743 0.00881449 0.163447
-0.177427 0.00880272 0.183363
-0.12297 0.0125348 -0.28241
-0.102291 0.0128621 -0.282358
0.00138265 0.0145028 -0.282097
0.0728071 0.0152032 0.282008
0.0340978 0.0145905 0.282093
-0.162218 0.0145608 -0.282111
-0.137137 0.0150459 -0.282035
-0.177467 0.0140845 -0.0874934
-0.177464 0.0140653 -0.0669022
-0.177461 0.0140463 -0.0463668
-0.177458 0.0140272 -0.025887
-0.177424 0.0138144 0.203225
0.127488 0.0196401 0.281352
-0.104313 0.0151554 0.281985
-0.123103 0.0174817 0.281633
-0.175888 0.0194941 -0.281373
-0.0609933 0.0225243 -0.280901
-0.0369059 0.0231596 -0.280802
-0.0200782 0.0236034 -0.280732
0.161294 0.0276684 0.28555
0.0918685 0.0258399 0.283292
0.0455292 0.0246194 0.281783
0.00464743 0.0235423 0.280746
-0.0179745 0.0229454 0.280832
-0.156919 0.0192795 0.281358
-0.177412 0.0187379 0.282149
-0.177409 0.0187162 0.299302
-0.0808377 0.0249361 -0.282171
0.0425072 0.0286302 -0.286698
0.112454 0.0298934 0.288276
-0.0443043 0.0252152 0.2825
-0.0561571 0.0248615 0.282063
-0.0788925 0.024183 0.281224
0.00296807 0.0306814 -0.289227
0.0234419 0.0313669 -0.290067
0.0559275 0.0324545 -0.291401
-0.177485 0.0245194 -0.206988
0.0238369 0.0304482 0.288944
-0.117027 0.0294768 -0.287761
-0.101606 0.0300476 -0.288461
0.135095 0.0377473 0.297304
0.086106 0.0359415 0.295399
0.070799 0.0353772 0.294803
-0.135489 0.0277751 0.285631
-0.177501 0.029881 -0.309784
0.0797291 0.040266 -0.299741
-0.177482 0.0296408 -0.186071
-0.177479 0.0296002 -0.165212
-0.177476 0.0295649 -0.147006
-0.177473 0.0295246 -0.126253
-0.17747 0.0294844 -0.105557
-0.177454 0.0292702 0.00472882
-0.177451 0.0292356 0.0225308
-0.177448 0.0291962 0.0428245
-0.177445 0.0291569 0.0630636
-0.177442 0.0291177 0.0832482
-0.177439 0.0290786 0.103379
-0.177436 0.0290396 0.123455
-0.177433 0.0290007 0.143478
-0.17743 0.0289619 0.163447
-0.177427 0.0289233 0.183363
0.0425133 0.0375979 0.297134
-0.058365 0.0376907 -0.297241
-0.0409142 0.0384596 -0.298049
0.002617 0.0391098 0.298707
-0.0225914 0.0380039 0.297553
-0.0751921 0.039912 -0.299448
0.0440287 0.0455842 -0.304361
0.0985919 0.0481796 -0.306351
-0.177467 0.0345709 -0.0874934
-0.177464 0.034524 -0.0669022
-0.177461 0.0344772 -0.0463668
-0.177458 0.0344305 -0.025887
-0.177424 0.0339081 0.203225
0.162402 0.0498053 0.307647
-0.0462124 0.0399184 0.29943
-0.0683086 0.0388714 0.298458
-0.0897489 0.0378558 0.297388
-0.162904 0.0383916 -0.297997
-0.14275 0.0394219 -0.299019
0.062502 0.0499111 -0.307675
0.124771 0.0515725 0.308796
-0.10976 0.039635 0.299166
-0.0094133 0.0494317 -0.307334
0.135127 0.0556868 0.311481
0.0616575 0.0516883 0.308863
0.0223122 0.049547 0.30743
-0.155934 0.0398507 0.299353
-0.123966 0.0459654 -0.304679
0.0152596 0.0540613 -0.310394
0.0756604 0.0575725 -0.312477
-0.177485 0.0425863 -0.206988
0.0845746 0.0563447 0.311834
-0.104157 0.0499796 -0.307748
0.125691 0.0641512 -0.315848
0.038791 0.0569405 0.312153
-0.177408 0.0436421 0.309086
-0.177503 0.048111 -0.323064
-0.0282585 0.0577894 -0.312612
0.0970613 0.0659566 -0.316667
-0.177482 0.0476829 -0.186071
-0.177479 0.0476178 -0.165212
-0.177476 0.0475609 -0.147006
0.174524 0.0690079 0.31802
0.0993826 0.0641252 0.315876
-0.133827 0.0489783 0.306968
-0.0724605 0.0578817 -0.312669
-0.0487347 0.0595119 -0.313559
0.0497361 0.0662764 -0.316819
-0.177473 0.0500634 -0.126253
-0.17747 0.0499952 -0.105557
-0.177454 0.0496321 0.00472882
-0.177451 0.0495734 0.0225308
-0.177448 0.0495066 0.0428245
-0.177445 0.0494399 0.0630636
-0.177442 0.0493735 0.0832482
-0.177439 0.0493072 0.103379
-0.177436 0.0492411 0.123455
-0.177433 0.0491751 0.143478
-0.17743 0.0491094 0.163447
-0.177427 0.0490438 0.183363
0.119953 0.0689952 0.318006
-0.00796121 0.0602354 0.313952
-0.0302217 0.0587114 0.313113
0.0344705 0.068578 -0.317824
0.127486 0.0752931 -0.320203
0.0579744 0.0680658 0.317651
-0.0559274 0.0598666 0.313743
-0.0758526 0.0584327 0.312954
-0.155169 0.0575632 -0.312507
-0.142446 0.0585272 -0.313033
-0.00736183 0.0687601 -0.317897
-0.177467 0.0550574 -0.0874934
-0.177464 0.0549826 -0.0669022
-0.177461 0.054908 -0.0463668
-0.177458 0.0548337 -0.025887
-0.177424 0.0540018 0.203225
0.0145013 0.0680986 0.317659
-0.0989265 0.059536 0.313556
0.013413 0.0736091 -0.319655
0.0700113 0.0780933 -0.320987
0.148153 0.0818263 0.322025
0.0797154 0.0764159 0.32054
-0.153928 0.0579557 0.312682
-0.177405 0.056037 0.328615
-0.116157 0.0661596 -0.316794
-0.0952407 0.0678915 -0.317573
0.113607 0.0851741 -0.322645
0.146596 0.0879029 -0.323173
-0.165202 0.0595961 0.31358
-0.177485 0.0632342 -0.206988
0.167769 0.0907836 0.323595
0.0990834 0.0848688 0.322616
0.0260751 0.0785836 0.321134
-0.0458447 0.0781147 -0.321009
-0.0300498 0.079533 -0.3214
0.0861222 0.0899614 -0.323459
-0.177458 0.0650353 -0.025887
-0.0144955 0.0781529 0.321008
-0.125591 0.0682031 0.317679
-0.177505 0.0689633 -0.333703
0.0310497 0.0883553 -0.323279
-0.177482 0.0683026 -0.186071
-0.177479 0.0682092 -0.165212
-0.177476 0.0681278 -0.147006
-0.177473 0.0680349 -0.126253
-0.17747 0.0679423 -0.105557
0.142699 0.0958554 0.324137
0.0544637 0.0876356 0.323153
-0.0320498 0.0795798 0.3214
-0.0516107 0.0777588 0.320893
-0.0104012 0.0876796 -0.323153
0.0501285 0.0935377 -0.32388
-0.177454 0.0699939 0.00472882
-0.177451 0.0699113 0.0225308
-0.177448 0.069817 0.0428245
-0.177445 0.069723 0.0630636
-0.177442 0.0696293 0.0832482
-0.177439 0.0695358 0.103379
-0.177436 0.0694426 0.123455
-0.177433 0.0693496 0.143478
-0.17743 0.0692568 0.163447
-0.177427 0.0691643 0.183363
0.104485 0.0957764 0.324127
-0.0677145 0.0791337 0.321271
-0.0856936 0.077397 0.320787
-0.143514 0.0775133 -0.320856
-0.0846432 0.0834217 -0.322329
0.00716764 0.092632 -0.323781
0.0692372 0.0988561 -0.32422
0.12813 0.104759 -0.324161
-0.177464 0.0728839 -0.0669022
-0.177461 0.0727851 -0.0463668
0.117562 0.100569 0.324312
-0.108899 0.0778846 0.320918
0.0976681 0.105274 -0.324132
0.148323 0.110529 -0.323778
-0.177424 0.0740955 0.203225
0.168944 0.109431 0.323904
0.0694569 0.0991068 0.324248
-0.0957193 0.0880924 -0.323246
0.0257536 0.0977783 0.32419
0.00517285 0.0955709 0.324102
-0.151492 0.0787797 0.32116
-0.0309147 0.0981658 -0.324209
0.12468 0.115398 -0.322927
-0.0599262 0.0979659 -0.324206
0.024313 0.107594 -0.32399
-0.177485 0.0838822 -0.206988
-0.177467 0.0832263 -0.0874934
0.149512 0.118347 0.322386
0.125248 0.11557 0.322935
-0.0137472 0.0996743 0.324257
-0.0326058 0.097519 0.32417
-0.171969 0.0877726 -0.323195
0.0402005 0.112774 -0.323462
0.0833975 0.117858 -0.322445
-0.0503159 0.0984327 0.324202
-0.131677 0.088851 0.323324
-0.16781 0.0845981 0.32252
-0.177505 0.0898135 -0.339029
0.0639601 0.119016 -0.322217
0.135913 0.127731 -0.31943
-0.177482 0.0889223 -0.186071
-0.177479 0.0888007 -0.165212
-0.177476 0.0886947 -0.147006
-0.177473 0.0885737 -0.126253
-0.17747 0.0884532 -0.105557
-0.177454 0.0878106 0.00472882
-0.177451 0.0877069 0.0225308
-0.177448 0.0875886 0.0428245
0.166085 0.127658 0.319507
0.108692 0.12068 0.321861
-0.0757077 0.0982898 0.324193
-0.130665 0.0981763 -0.324225
-0.00237852 0.114188 -0.323187
-0.177445 0.0900061 0.0630636
-0.177442 0.0898851 0.0832482
-0.177439 0.0897644 0.103379
-0.177436 0.089644 0.123455
-0.177433 0.089524 0.143478
-0.17743 0.0894042 0.163447
-0.177427 0.0892848 0.183363
0.0629146 0.118459 0.322351
-0.0996016 0.0981554 0.324184
-0.153597 0.0979979 -0.324221
-0.177464 0.0933426 -0.0669022
-0.177461 0.093216 -0.0463668
-0.177458 0.0930898 -0.025887
0.0906956 0.125375 0.320269
-0.100481 0.107687 -0.324002
-0.0200691 0.118283 -0.322377
0.097076 0.133698 -0.316673
-0.177424 0.0941892 0.203225
0.138765 0.135177 0.315976
0.0190924 0.119354 0.322167
-0.082194 0.113031 -0.323429
-0.0426754 0.118376 -0.322362
0.0295578 0.128137 -0.319307
-0.0103111 0.118554 0.322321
-0.156839 0.0986993 0.324197
-0.0575569 0.119382 -0.322164
0.176034 0.147622 0.307357
0.116315 0.139284 0.313553
-0.0294467 0.118975 0.322235
0.0524203 0.138017 -0.314376
0.0827519 0.142318 -0.311497
-0.177485 0.10453 -0.206988
-0.177467 0.103713 -0.0874934
0.157392 0.148711 0.306399
0.0728091 0.136601 0.315265
-0.0477636 0.119378 0.322153
-0.122872 0.108667 0.323906
-0.177505 0.108036 -0.339029
-0.170511 0.108951 -0.323929
-0.00202233 0.133495 -0.316787
-0.137267 0.109249 0.323865
-0.176132 0.103574 0.324232
-0.177482 0.109542 -0.186071
-0.177479 0.109392 -0.165212
-0.177476 0.109262 -0.147006
-0.177473 0.109113 -0.126253
-0.17747 0.108964 -0.105557
-0.177454 0.108172 0.00472882
-0.177451 0.108045 0.0225308
-0.177448 0.107899 0.0428245
-0.177445 0.107754 0.0630636
-0.177442 0.107609 0.0832482
0.139013 0.15334 0.301823
0.0871725 0.145538 0.309171
-0.0676697 0.122304 0.321286
-0.0895607 0.119025 0.322217
-0.145928 0.117952 -0.322462
-0.0841253 0.127387 -0.319577
-0.0286406 0.135847 -0.315633
-0.177439 0.109993 0.103379
-0.177436 0.109845 0.123455
-0.177433 0.109698 0.143478
-0.17743 0.109552 0.163447
-0.177427 0.109405 0.183363
0.0468007 0.14277 0.311219
0.0223311 0.139008 0.313725
-0.125936 0.12378 -0.320807
0.0319055 0.148379 -0.306665
-0.177464 0.113801 -0.0669022
-0.177461 0.113647 -0.0463668
-0.177458 0.113493 -0.025887
0.162373 0.164333 0.285796
0.119529 0.157543 0.296972
-0.105822 0.129764 -0.318637
-0.0540982 0.138009 -0.314397
-0.177424 0.114283 0.203225
-0.0110413 0.140064 0.313017
0.0502524 0.157967 -0.296306
0.12922 0.166328 0.281753
0.104865 0.162281 0.28988
-0.0303634 0.139981 0.313069
0.00168318 0.153294 -0.301863
-0.177486 0.122618 -0.209607
0.0741966 0.160627 0.292352
0.040899 0.155003 0.299913
-0.0555405 0.138779 0.313867
-0.108108 0.129959 0.318512
-0.168605 0.127617 -0.319511
-0.177467 0.124199 -0.0874934
-0.129365 0.129065 0.31895
-0.165149 0.122944 0.321053
0.0199843 0.162826 -0.288818
-0.177483 0.127628 -0.191295
0.0858247 0.169588 0.271693
0.0182194 0.157607 0.296858
-0.0896758 0.138679 0.31393
-0.139516 0.138003 -0.314413
-0.0745687 0.149465 -0.305732
-0.0280899 0.157644 -0.2968
-0.17748 0.130028 -0.170421
-0.177477 0.129873 -0.152204
-0.177474 0.129696 -0.131436
-0.177471 0.129519 -0.110726
-0.177454 0.128534 0.00472882
-0.177451 0.128383 0.0225308
-0.177448 0.128209 0.0428245
-0.177445 0.128037 0.0630636
-0.177442 0.127865 0.0832482
-0.177439 0.127693 0.103379
-0.177436 0.127522 0.123455
0.067523 0.169771 0.270766
0.0473179 0.166085 0.282235
0.00186354 0.166065 -0.282271
-0.177433 0.129873 0.143478
-0.17743 0.129699 0.163447
-0.177427 0.129526 0.183363
0.0263512 0.165566 0.28328
-0.0157406 0.157826 0.296524
-0.149544 0.133412 0.316806
-0.108154 0.149185 -0.305983
-0.0890331 0.152685 -0.302571
-0.0200918 0.16525 -0.283924
-0.177465 0.134306 -0.0720448
-0.177462 0.134123 -0.0514954
-0.177459 0.133942 -0.0310018
-0.177422 0.131777 0.213137
-0.00316608 0.16329 0.287886
-0.0713578 0.158851 -0.294999
-0.0451307 0.163714 -0.287036
0.0209774 0.171169 0.262972
-0.0472457 0.15803 0.296215
0.00452912 0.171223 0.262144
-0.0268347 0.165005 0.284407
-0.106453 0.149547 0.305628
-0.160164 0.14757 -0.307404
-0.177487 0.143343 -0.217468
-0.126911 0.148287 0.306729
-0.0564422 0.170458 -0.267329
-0.177468 0.14471 -0.0900713
-0.025865 0.171508 0.257778
-0.0534607 0.165784 0.282826
-0.0744109 0.161543 0.290963
-0.0926933 0.157857 0.296464
-0.177503 0.149534 -0.323064
-0.135607 0.15775 -0.296657
-0.120265 0.160808 -0.292086
-0.177484 0.148305 -0.196523
-0.177481 0.148102 -0.175635
-0.177478 0.147925 -0.157404
-0.177475 0.147724 -0.136623
-0.177472 0.147522 -0.115898
-0.0509391 0.169533 0.251621
-0.169339 0.145022 0.309585
-0.177405 0.143206 0.328615
-0.102411 0.167153 -0.279402
-0.0823391 0.171127 -0.263725
-0.177454 0.148947 -0.000365205
-0.177451 0.148745 0.0199902
-0.177449 0.14857 0.0377562
-0.177446 0.14837 0.0580089
-0.177443 0.14817 0.0782072
-0.177439 0.147971 0.0983511
-0.177436 0.147773 0.118441
-0.177433 0.147575 0.138477
-0.0690623 0.168768 0.250015
-0.0862508 0.164888 0.284637
-0.0955809 0.171261 -0.261672
-0.17743 0.149897 0.15846
-0.177427 0.149696 0.178389
-0.177423 0.149397 0.208183
-0.0864214 0.168035 0.248477
-0.0748662 0.170254 0.268316
-0.105366 0.163682 0.287079
-0.146665 0.154909 0.299992
-0.176042 0.157382 -0.297214
-0.177469 0.155008 -0.0952296
-0.177464 0.154719 -0.0669022
-0.177461 0.154509 -0.0463668
-0.177458 0.154299 -0.025887
-0.163891 0.162531 -0.289452
-0.137222 0.168164 -0.27643
-0.177489 0.159003 -0.233215
-0.17742 0.154213 0.227979
-0.119034 0.166659 0.245587
-0.105979 0.169194 0.273369
-0.139307 0.170196 -0.253379
-0.136351 0.165582 0.243708
-0.134622 0.165543 0.283303
-0.16172 0.170697 -0.266151
-0.174872 0.167508 -0.247414
-0.155088 0.166212 0.281945
-0.177 0.169869 -0.270299
-0.177486 0.169055 -0.206988
-0.177482 0.168823 -0.186072
-0.177479 0.168593 -0.165212
-0.177476 0.168391 -0.147006
-0.177473 0.168162 -0.126253
-0.146128 0.171049 0.264294
-0.177455 0.169373 -0.00546268
-0.177452 0.169144 0.0149065
-0.177449 0.168944 0.0326845
-0.177446 0.168717 0.0529508
-0.177443 0.16849 0.0731627
-0.17744 0.168263 0.0933202
-0.177437 0.168037 0.113424
-0.177434 0.167812 0.133473
-0.177431 0.167588 0.153469
-0.16534 0.169315 0.251143
-0.177466 0.172737 -0.0771908
-0.177463 0.172503 -0.0566275
-0.177428 0.16988 0.173411
-0.177424 0.169541 0.203225
-0.177411 0.168557 0.289505
-0.17746 0.174821 -0.03612
-0.177488 0.179594 -0.225338
-0.177421 0.174331 0.223035
-0.17747 0.183316 -0.105557
-0.177492 0.187701 -0.254261
-0.17746 0.18503 -0.03612
-0.177486 0.189703 -0.206988
-0.177482 0.189443 -0.186072
-0.177479 0.189184 -0.165212
-0.177476 0.188958 -0.147006
-0.177473 0.188701 -0.126253
-0.177413 0.183723 0.274786
-0.177455 0.189748 -0.00546268
-0.177452 0.189492 0.0149065
-0.177449 0.189268 0.0326845
-0.177446 0.189013 0.0529508
-0.177443 0.188759 0.0731627
-0.17744 0.188505 0.0933202
-0.177437 0.188252 0.113424
-0.177434 0.188 0.133473
-0.177431 0.187749 0.153469
-0.177467 0.193341 -0.0874934
-0.177464 0.193079 -0.0669022
-0.177428 0.190014 0.173411
-0.177424 0.189634 0.203225
-0.177418 0.18913 0.242792
-0.177488 0.197683 -0.225338
-0.177421 0.194398 0.223035
-0.17747 0.203827 -0.105557
-0.177486 0.20777 -0.206988
-0.177482 0.210063 -0.186072
-0.177479 0.209776 -0.165212
-0.177476 0.209525 -0.147006
-0.177473 0.209239 -0.126253
-0.177455 0.207577 -0.00546268
-0.177452 0.20984 0.0149065
-0.177449 0.209592 0.0326845
-0.177446 0.20931 0.0529508
-0.177443 0.209028 0.0731627
-0.17744 0.208747 0.0933202
-0.177437 0.208467 0.113424
-0.177434 0.208188 0.133473
-0.177431 0.207909 0.153469
-0.177428 0.207632 0.173411
-0.177467 0.213828 -0.0874934
-0.177464 0.213537 -0.0669022
-0.177461 0.213248 -0.0463668
-0.177458 0.212959 -0.025887
-0.177424 0.209728 0.203225
-0.177489 0.218393 -0.227963
-0.177421 0.214465 0.223035
-0.177471 0.224414 -0.110726
-0.177486 0.228496 -0.212227
-0.177483 0.228183 -0.191295
-0.17748 0.227871 -0.170421
-0.177477 0.227599 -0.152204
-0.177474 0.229857 -0.131436
-0.177456 0.22803 -0.0105636
-0.177453 0.227722 0.00981941
-0.17745 0.229994 0.0276094
-0.177447 0.229684 0.0478894
-0.177444 0.229375 0.0681148
-0.177441 0.229067 0.0882859
-0.177438 0.228759 0.108403
-0.177435 0.228453 0.128466
-0.177432 0.228147 0.148475
-0.177429 0.227842 0.168431
-0.177468 0.234354 -0.0900713
-0.177465 0.234075 -0.0720448
-0.177462 0.233758 -0.0514954
-0.177459 0.233441 -0.0310018
-0.177424 0.229822 0.203225
-0.177471 0.244932 -0.110726
-0.177484 0.248895 -0.196523
-0.177481 0.248554 -0.175635
-0.177478 0.248257 -0.157404
-0.177475 0.247919 -0.136623
-0.177456 0.248412 -0.0105636
-0.177453 0.248077 0.00981941
-0.17745 0.247784 0.0276094
-0.177447 0.249988 0.0478894
-0.177444 0.249651 0.0681148
-0.177441 0.249316 0.0882859
-0.177438 0.248981 0.108403
-0.177435 0.248647 0.128466
-0.177432 0.248314 0.148475
-0.177429 0.247982 0.168431
-0.177467 0.2548 -0.0874934
-0.177464 0.254454 -0.0669022
-0.177461 0.254109 -0.0463668
-0.177458 0.253765 -0.025887
-0.177426 0.25268 0.188333
-0.177472 0.262975 -0.115898
-0.177467 0.265044 -0.0874934
-0.17748 0.269068 -0.170421
-0.177477 0.268747 -0.152204
-0.177457 0.268886 -0.015668
-0.177454 0.268522 0.00472882
-0.177451 0.268205 0.0225308
-0.177448 0.267843 0.0428245
-0.177445 0.270018 0.0630636
-0.177442 0.269655 0.0832482
-0.177439 0.269293 0.103379
-0.177436 0.268932 0.123455
-0.177433 0.268572 0.143478
-0.17743 0.268213 0.163447
-0.177465 0.275006 -0.0720448
-0.177462 0.274633 -0.0514954
-0.177473 0.283693 -0.126253
-0.17747 0.283306 -0.105557
-0.177458 0.289471 -0.025887
-0.177455 0.289079 -0.00546268
-0.177452 0.288689 0.0149065
-0.177449 0.288348 0.0326845
-0.177446 0.28796 0.0529508
-0.177443 0.287572 0.0731627
-0.177467 0.293213 -0.0874934
-0.17744 0.289716 0.0933202
-0.177437 0.289327 0.113424
-0.177434 0.28894 0.133473
-0.177461 0.294971 -0.0463668
-0.17747 0.303817 -0.105557
-0.177464 0.303044 -0.0669022
