ply
format ascii 1.0
comment Created by Open3D
element vertex 1634
property double x
property double y
property double z
end_header
-0.170684 -0.0653744 -0.151054
-0.170684 0.412219 -0.0809034
-0.170684 -0.143285 -0.145946
0.160169 -0.437874 -0.143955
-0.12961 0.349819 0.129637
-0.12961 0.242396 0.112099
0.0255038 -0.0735968 -0.148276
-0.170684 0.069971 0.110965
-0.170684 0.0886309 0.110158
-0.12961 0.373247 0.0798022
0.0406928 -0.0735968 -0.0139918
-0.118308 -0.0850352 0.170684
-0.170684 -0.138543 0.123486
-0.047192 -0.0873447 -0.170684
-0.170684 -0.136022 -0.120783
-0.12961 0.00551799 0.0124037
-0.117664 -0.238597 -0.120663
-0.170684 -0.00465231 0.00401072
-0.170684 0.393442 -0.0474956
0.125325 -0.328241 0.14469
0.111095 -0.111914 0.0903075
-0.12961 -0.0448137 -0.0920824
-0.170684 0.145879 -0.138412
-0.0815216 -0.111914 0.0714717
-0.12961 -0.00761502 -0.132353
-0.165739 0.0723052 -0.170684
-0.12961 0.278817 -0.138325
-0.156849 -0.359378 -0.170684
-0.117664 -0.329629 -0.16559
0.0132666 -0.111914 -0.0911444
-0.170684 0.12113 -0.0555659
0.170684 -0.251434 -0.153207
-0.170684 0.242199 -0.0985821
-0.150793 -0.437874 -0.140954
-0.0553357 -0.0735968 -0.0186133
-0.144655 -0.414251 0.170684
-0.170684 0.347907 0.0550371
0.125325 -0.307962 0.166744
-0.12961 0.24635 -0.0215117
-0.0927869 -0.0735968 -0.0161235
-0.170684 0.204921 0.0108913
-0.12961 0.244815 0.0715039
-0.12961 0.265876 -0.0963017
0.0419857 -0.0735968 0.160087
0.0907773 -0.0735968 -0.160873
-0.12961 0.323749 -0.0267192
0.170684 -0.272191 -0.114928
-0.0202974 -0.111914 0.00159832
-0.170684 0.368044 0.130023
0.125325 -0.374372 -0.146592
-0.0299041 -0.111914 0.0929336
-0.170684 -0.0657966 -0.103639
0.12536 -0.111837 0.05336
-0.159477 0.351174 0.170684
-0.170684 -0.159166 -0.156585
-0.170684 0.123183 0.0912061
-0.12961 0.166994 0.0476936
0.0862356 -0.111914 0.0385168
-0.12961 0.375354 0.0769631
-0.12961 0.32256 0.128962
-0.155747 0.420642 0.0921931
0.125325 -0.351115 0.11468
0.0448884 -0.0735968 0.0372754
-0.0199025 -0.0735968 0.150867
0.125325 -0.341243 0.133576
0.125325 -0.264968 0.117182
-0.170684 0.188742 0.164108
-0.158974 -0.248107 -0.11023
-0.117664 -0.119744 0.130257
0.145542 -0.111837 0.10474
0.125325 -0.283605 0.133565
-0.0821271 -0.111914 0.125268
0.0682111 -0.0902178 0.170684
0.169265 -0.095691 0.170684
0.0991675 -0.111914 -0.00112623
-0.170684 0.164473 0.0675599
-0.12961 0.309986 -0.0783871
-0.12961 0.287812 0.122958
0.170684 -0.159128 0.14615
0.170684 -0.0903434 0.130267
0.0702858 -0.111914 0.0411501
-0.170684 -0.354757 0.16508
-0.12961 0.0316427 -0.155189
0.160507 -0.180836 -0.11023
-0.00931415 -0.0735968 0.0150175
-0.170684 0.29021 0.0560407
-0.0282923 -0.0735968 0.151641
0.125325 -0.309107 -0.169587
0.170684 -0.0950706 0.045587
-0.15098 -0.119026 -0.00153947
-0.170684 0.253785 0.13978
-0.12961 0.00794835 0.0512908
-0.12961 0.103541 -0.0262526
0.137959 -0.135348 0.111956
-0.12961 0.334003 -0.0737006
-0.170684 -0.0665059 -0.13528
-0.170684 0.226844 0.129259
0.0413014 -0.101506 -0.170684
-0.12961 0.349044 -0.164232
-0.147096 0.429221 -0.0652232
0.150161 -0.227348 -0.170684
-0.170684 -0.0125327 -0.0354071
-0.0609653 -0.0735968 -0.158757
-0.170684 -0.372226 -0.116842
-0.159387 -0.154518 -0.170684
-0.170684 0.327784 -0.116478
-0.12961 0.197055 -0.110493
0.167703 -0.245246 -0.170684
0.0117839 -0.111914 -0.0782762
-0.0577063 -0.111914 0.0036856
-0.123773 -0.119026 0.0602248
-0.170684 0.0496847 -0.163931
0.0847526 -0.111914 -0.125627
-0.132619 -0.0448973 -0.170684
-0.170684 0.286008 0.0447013
0.170684 -0.301254 -0.148721
-0.0431143 -0.0735968 0.0226038
-0.12961 0.275433 -0.136146
-0.0553866 -0.111914 -0.140689
-0.170684 0.386075 -0.0994086
-0.0898157 -0.0735968 -0.140411
0.170684 -0.250167 0.134813
-0.12961 0.266895 0.0219412
-0.0274276 -0.0932859 0.170684
-0.163262 0.411833 0.111621
-0.12961 0.260444 0.0065476
-0.12961 0.106956 0.0426813
-0.170684 0.119445 0.00188524
-0.170684 0.264531 0.101369
-0.115049 -0.0735968 0.1651
-0.12961 0.0322554 0.0725736
-0.0424559 -0.111877 0.170684
-0.12961 0.105478 -0.0846381
0.11644 -0.111914 0.0264016
-0.117664 -0.274582 -0.120289
-0.0395667 -0.111914 0.127291
-0.170684 0.184843 -0.0420775
0.170684 -0.322219 0.11991
-0.0577485 -0.0735968 -0.15156
-0.170684 -0.0149593 0.0506649
-0.170684 0.166451 0.0994078
-0.14142 0.405535 -0.124024
-0.12961 0.42461 0.000974797
-0.0800342 -0.0735968 0.117371
0.146991 -0.319771 0.111956
-0.12961 0.20188 0.126785
0.0243827 -0.111914 0.00352108
-0.12961 0.436775 0.00669738
-0.141584 -0.0407338 -0.170684
0.125325 -0.116564 0.147547
-0.139204 -0.366027 0.170684
-0.170684 0.331878 -0.00511609
-0.170684 -0.337172 0.145994
-0.0500059 -0.0735968 0.103854
-0.117664 -0.311555 0.170425
-0.144258 -0.119026 -0.0660399
-0.0858496 -0.111914 -0.0232409
-0.148289 -0.305006 -0.170684
0.0261478 -0.0735968 0.163855
-0.107275 -0.0735968 0.0426066
-0.0361308 -0.111914 -0.160252
-0.117664 -0.302085 -0.122651
-0.117952 -0.144279 0.170684
-0.170684 0.0553948 -0.155799
0.0060351 -0.111914 0.160463
0.0104785 -0.102952 0.170684
-0.170684 0.325071 -0.10813
0.0682777 -0.111914 -0.169741
-0.12961 -0.0701566 -0.057358
-0.12961 -0.01241 -0.0268062
0.00292454 -0.111914 0.0443485
-0.117664 -0.385068 0.141864
-0.147606 -0.287006 -0.170684
0.123033 -0.111914 -0.00793859
-0.143702 -0.0010732 0.170684
-0.170684 -0.134656 0.165821
0.0628422 -0.111914 0.0634408
-0.170684 0.0647872 0.133674
-0.12961 0.422631 0.0257983
0.167867 -0.280622 0.111956
0.125325 -0.395035 0.118745
0.138806 -0.17104 -0.170684
-0.0835122 -0.0735968 0.0796494
0.149677 -0.207127 0.111956
0.150105 -0.263203 0.111956
-0.133121 0.0867217 -0.170684
-0.117664 -0.115391 0.00836769
-0.117664 -0.262859 0.144833
-0.170684 -0.0547186 0.16686
-0.0178674 -0.106826 0.170684
0.0961642 -0.0735968 0.139819
-0.170684 0.369314 -0.085343
0.125325 -0.128712 0.157746
-0.170684 0.314491 0.0165766
-0.0610832 -0.111914 -0.0425691
-0.033705 -0.0735968 0.0750554
-0.170684 -0.00287942 -0.00509518
0.0838003 -0.111914 -0.0357559
-0.117664 -0.284443 -0.138327
-0.12961 -0.0270369 0.038635
-0.170684 -0.0201502 -0.0991537
0.129865 -0.0837444 -0.170684
0.160081 -0.227105 -0.11023
-0.117664 -0.223702 0.158563
-0.170684 0.0731598 -0.0186175
-0.12961 -0.0632771 -0.128929
-0.12961 0.340885 -0.132569
-0.12961 0.113329 0.0221194
-0.145067 -0.379784 -0.11023
-0.170684 0.0615941 0.0668248
0.134255 -0.300371 -0.11023
-0.119221 -0.376842 -0.170684
0.0399776 -0.0735968 0.0332436
-0.170684 0.301812 -0.0416125
-0.0430384 -0.111914 -0.0457543
-0.170684 0.320674 0.080027
-0.159102 0.135321 -0.170684
-0.119365 -0.425505 -0.170684
-0.117664 -0.321444 0.1222
-0.170684 0.00485119 -0.0920849
-0.156641 -0.223671 0.111956
-0.139808 -0.344734 0.170684
-0.170684 -0.194425 0.130014
-0.169854 0.151638 -0.170684
0.0542348 -0.111914 -0.0713146
-0.12961 0.153894 0.0948797
-0.170684 0.159911 0.142875
-0.170119 -0.297103 -0.11023
-0.117664 -0.342526 -0.146159
-0.0426565 -0.0925221 0.170684
-0.12961 0.334806 0.102274
-0.149463 -0.119026 -0.078856
-0.170684 0.135903 0.117743
-0.134352 -0.17019 0.170684
-0.12961 0.402178 -0.103345
0.170684 -0.177775 0.134017
0.125325 -0.132789 -0.167295
-0.12961 0.0583371 0.0851879
-0.12961 0.31774 0.0363009
-0.12961 0.109539 -0.106749
-0.170684 -0.365832 -0.1327
-0.117664 -0.23485 0.135918
-0.170684 0.117661 0.0472446
0.0241374 -0.111914 0.124272
0.114403 -0.111246 -0.170684
-0.170684 0.0636268 -0.00415414
0.051632 -0.111914 -0.00874542
-0.0389175 -0.0735968 -0.0593054
-0.170684 0.0184064 -0.165528
0.146308 -0.111837 -0.0312892
-0.117664 -0.342606 -0.123297
-0.12961 0.373525 0.0839271
-0.154111 -0.123515 0.111956
-0.117664 -0.399789 -0.163542
0.00659078 -0.111914 -0.0190996
0.0969721 -0.0735968 -0.023887
-0.12961 -0.0182665 0.0913148
-0.169386 0.0531973 -0.170684
-0.170684 -0.307148 -0.160536
-0.12961 0.0258444 0.0837921
-0.128778 -0.119026 0.0965749
-0.0667819 -0.0735968 -0.158403
-0.117664 -0.249686 -0.125674
-0.12961 0.206375 0.109285
-0.12961 0.190175 0.0594461
0.125325 -0.244369 -0.156478
-0.117664 -0.113193 0.114135
-0.153679 -0.0932314 0.170684
-0.170684 0.0681192 -0.143421
-0.12961 -0.0700856 -0.151405
-0.170684 -0.0554188 0.104461
0.125325 -0.342174 0.167421
0.0418086 -0.111914 -0.14329
-0.12961 0.287985 0.139742
-0.170684 0.0871787 -0.130268
-0.164251 -0.388119 -0.11023
0.136932 -0.183954 0.111956
-0.170684 0.359576 -0.073239
-0.144704 0.166315 0.170684
0.125325 -0.410116 0.15737
-0.0892067 -0.0735968 -0.163094
-0.168027 0.376157 0.166288
-0.170684 -0.106244 0.0231773
-0.131169 -0.0713827 0.170684
-0.170684 0.175797 -0.0648194
-0.170684 0.415281 -0.0485152
-0.170684 0.0255559 0.110267
-0.170684 0.0200191 -0.067686
-0.170684 -0.0500407 0.07422
-0.12961 0.17201 -0.0875371
-0.170684 0.30161 0.00458588
0.0725675 -0.111914 -0.0942976
-0.12961 0.200178 0.161844
-0.12961 0.318295 -0.136648
-0.141721 -0.2745 0.170684
-0.0281111 -0.111914 0.154595
0.170684 -0.2425 0.141173
-0.129669 -0.288046 0.170684
-0.170684 0.146024 0.0744856
0.125435 -0.228077 0.170684
-0.12961 -0.00199447 -0.0136313
-0.170684 0.221873 0.150468
0.125006 -0.0890633 -0.170684
0.0843139 -0.111914 0.159404
0.14136 -0.437874 0.159075
-0.146493 -0.244636 -0.170684
-0.170684 0.0560785 0.0239891
-0.12961 0.385943 0.0732475
-0.0293483 -0.111914 -0.0816835
-0.170684 0.396921 -0.0793893
-0.170684 0.0442243 -0.0492295
0.125407 -0.235985 -0.170684
-0.12961 0.105788 0.151923
-0.170684 0.321722 -0.0244122
0.0845244 -0.0735968 0.093101
0.0592471 -0.0735968 -0.0874869
-0.020179 -0.111914 0.0680075
-0.170684 -0.0736551 0.101645
0.132205 -0.337623 0.170684
-0.148171 0.271178 0.170684
0.0206565 -0.0735968 0.114857
-0.12961 0.0156061 0.0418754
-0.148068 -0.119026 -0.102027
-0.12961 0.103924 -0.102541
-0.170684 0.340735 -0.156037
-0.170684 -0.0532154 0.0894917
0.170104 -0.0735968 -0.109181
0.125325 -0.359986 0.164475
-0.170684 -0.0262511 -0.0355784
-0.12961 0.267112 -0.106359
-0.134367 -0.272281 0.111956
-0.109825 -0.111914 0.0467521
-0.170684 0.0280784 0.164535
-0.12961 0.280802 -0.043858
-0.170684 0.205331 0.100288
-0.12108 -0.437874 0.113022
-0.117664 -0.361085 -0.165838
-0.129947 -0.309097 0.111956
-0.142192 -0.323899 0.170684
0.101288 -0.0735968 0.102867
-0.117664 -0.350897 -0.167646
-0.0356168 -0.111914 0.1596
0.170684 -0.260555 0.138138
-0.145451 -0.24343 -0.11023
0.145545 -0.0735968 0.0706003
-0.117664 -0.368008 0.1581
-0.170684 0.190743 -0.00713833
-0.137834 0.345242 -0.170684
-0.145112 -0.119026 -0.0996488
-0.14071 -0.196607 -0.11023
-0.133618 0.0419033 0.170684
-0.12961 0.212449 0.0209459
-0.170684 -0.40718 0.130855
-0.155882 -0.200672 0.111956
0.0772412 -0.0735968 0.145125
-0.143896 -0.354481 0.111956
-0.129202 -0.0735968 0.0721583
0.133434 -0.306322 0.170684
-0.170684 0.214787 -0.0839798
-0.170684 0.209956 0.141809
0.136222 -0.0735968 0.140364
-0.12961 0.0570218 0.0992344
0.0154507 -0.0735968 0.123611
-0.132607 -0.346951 0.111956
-0.170684 -0.12868 -0.14612
0.170684 -0.258968 0.168502
-0.12961 0.107698 0.0109596
-0.12961 0.250536 -0.0974858
-0.170684 0.0446531 -0.138194
-0.168565 -0.437874 -0.139177
0.0213585 -0.0898837 0.170684
-0.170684 -0.0591812 0.0647577
-0.12961 0.214046 -0.0818227
-0.170684 0.080663 0.00640282
-0.170684 -0.114228 0.021714
-0.12961 0.203548 0.00714028
-0.12961 0.24973 -0.0868897
0.170446 -0.111837 0.0828416
-0.137895 -0.138146 0.111956
-0.134443 -0.119026 -0.101363
0.170684 -0.371774 -0.156866
-0.12961 0.396653 0.0704277
-0.148821 0.168282 0.170684
0.0611294 -0.111914 0.137493
-0.12961 0.026522 -0.0293715
0.170684 -0.129865 -0.11854
-0.129258 -0.124055 0.111956
0.136725 -0.437874 0.137505
-0.131199 0.404311 0.126033
-0.170684 -0.380776 0.168758
-0.170684 0.0439816 -0.0953144
-0.16749 -0.188689 0.111956
-0.170684 0.0366348 0.0488811
-0.0696848 -0.111914 -0.11458
0.170684 -0.300568 -0.115326
-0.070335 -0.0735968 -0.0414376
-0.170684 0.2494 0.0491437
-0.170684 0.0269939 0.0904058
3.19257e-06 -0.111914 0.118461
-0.170684 0.291442 0.100969
-0.170684 -0.0794699 0.0521646
0.170684 -0.209732 0.169367
-0.12961 0.170836 0.0518263
-0.12961 0.279908 0.0413355
-0.170684 0.206081 -0.0515133
0.139458 -0.117175 -0.170684
-0.159145 -0.332642 -0.11023
-0.110958 -0.111914 -0.123253
-0.170684 0.291187 -0.0996658
-0.170684 -0.0695241 -0.0518944
-0.12961 -0.0639941 0.137655
-0.122974 -0.0917665 0.170684
0.0980383 -0.111914 0.11001
-0.170684 0.3139 0.137892
-0.12961 0.104151 0.0457448
-0.162401 0.138093 0.170684
-0.0789426 -0.0735968 0.0797441
-0.057693 -0.105781 -0.170684
0.152643 -0.160671 0.170684
0.0345889 -0.0836199 0.170684
0.0246149 -0.111914 -0.0364495
-0.12961 0.132154 -0.0192903
0.170684 -0.126332 -0.124127
-0.170684 -0.314238 -0.118239
0.170684 -0.075818 0.124788
-0.12961 0.016403 -0.0466065
-0.170684 0.0719218 0.07025
-0.161682 -0.437874 0.155738
-0.12961 -0.000903472 0.0452624
-0.12961 0.229588 -0.10888
-0.12961 0.191621 0.0749241
-0.12961 0.340673 0.124434
-0.12961 0.128355 0.0484007
0.125325 -0.316482 0.12335
-0.12961 0.273269 0.0983156
-0.170684 0.295917 0.102238
-0.143328 -0.217887 -0.170684
0.157769 -0.133476 -0.170684
-0.170684 -0.36627 0.145908
-0.111784 -0.108692 0.170684
-0.123797 -0.334171 -0.170684
-0.16934 -0.223312 -0.11023
-0.12961 0.264686 0.092682
-0.170684 0.288197 0.012023
-0.170684 -0.157335 -0.111377
-0.170684 0.273109 -0.0499633
-0.12961 0.141501 0.169069
-0.028113 -0.0735968 0.072844
0.0377732 -0.08107 0.170684
-0.117664 -0.173961 0.143009
-0.042508 -0.0735968 -0.0847384
-0.152412 -0.274177 0.111956
-0.12961 0.0785389 -0.0887761
-0.117664 -0.290966 0.166347
-0.122752 -0.407117 -0.170684
-0.141016 -0.234884 0.170684
-0.170684 0.0125773 0.0681109
-0.170684 0.208156 0.101409
-0.170684 0.277396 0.053284
0.125325 -0.413505 -0.115161
0.0164534 -0.111914 0.121973
0.151607 -0.0735968 0.038533
-0.170684 0.122442 -0.0540557
-0.0803069 -0.111914 0.014811
-0.12961 0.401115 0.0403524
-0.170684 -0.175981 -0.130759
-0.12961 0.323722 0.119217
-0.170684 -0.154 -0.142072
0.170684 -0.380107 0.132401
0.125325 -0.297622 0.137591
-0.170684 -0.0875293 -0.0384749
0.0388581 -0.0735968 -0.0920358
0.170684 -0.351613 0.11429
-0.121518 -0.320299 0.111956
0.149122 -0.0735968 0.0510466
-0.100629 -0.111914 -0.0889133
-0.146583 -0.35091 -0.11023
0.151875 -0.329549 -0.11023
0.170684 -0.234121 -0.1135
0.13287 -0.142663 -0.170684
-0.12961 -0.00812052 -0.106424
0.0772307 -0.111914 0.15186
-0.170684 0.0997686 -0.145009
-0.12961 0.322172 0.0994971
-0.170684 0.0701355 0.0942696
-0.12961 0.142403 0.0470032
-0.170684 0.349538 -0.0441938
-0.170684 0.0815288 -0.00785904
-0.0766397 -0.0735968 0.0907588
0.169252 -0.260251 0.170684
-0.170684 0.320648 0.16648
-0.140259 0.302804 0.170684
-0.170684 0.0774167 0.148652
0.141403 -0.111837 0.0985033
-0.158191 -0.420954 -0.11023
-0.170684 0.0650879 0.0154007
0.170684 -0.28214 0.119468
-0.170684 0.0777 0.0177679
-0.170684 0.135183 -0.00730133
-0.12961 0.0935142 -0.0631602
-0.0440418 -0.0735968 -0.00919087
-0.12961 0.0264202 0.0920807
-0.170684 0.408232 0.0162275
0.137467 -0.205932 0.111956
-0.12961 0.0787741 -0.100823
-0.148148 0.38278 -0.157909
0.0588518 -0.104257 0.170684
-0.1658 -0.335962 -0.170684
-0.170684 0.378897 0.113773
-0.12961 0.257888 -0.0938294
-0.12961 0.244864 -0.0773179
-0.073425 -0.0735968 -0.0535945
0.0797028 -0.111914 -0.150703
-0.00799259 -0.111914 0.0158522
-0.12961 0.11323 -0.0784481
-0.170684 -0.062564 -0.148757
-0.12513 -0.437874 -0.166195
-0.12961 -0.0400994 0.0144204
-0.12961 0.281275 -0.124601
0.12415 -0.0735968 0.0833006
-0.139845 0.284751 -0.170684
-0.170684 0.0380976 -0.139085
0.125325 -0.137497 0.118234
0.170684 -0.321242 -0.116053
-0.170684 -0.357523 0.128171
-0.170684 0.300002 0.029894
-0.170684 -0.0768917 0.0705446
-0.12961 0.337364 -0.101434
-0.170684 -0.16545 -0.168868
0.170684 -0.303956 -0.149255
0.125325 -0.159888 0.138238
-0.170684 -0.0315731 0.0551455
0.0830664 -0.0735968 -0.0263816
-0.170684 0.271089 -0.143775
-0.12961 0.0602563 -0.101236
-0.152125 -0.407887 -0.11023
0.141384 -0.0735968 -0.0626329
-0.12961 0.197182 0.0967286
-0.144288 -0.261961 -0.11023
0.142365 -0.437874 -0.110764
-0.158163 0.364607 0.170684
-0.0567389 -0.0735968 0.154741
-0.12961 0.218358 -0.161578
-0.166389 -0.119026 0.0374471
-0.121572 -0.115526 0.170684
-0.12961 0.343909 0.125739
0.170684 -0.339861 0.167902
-0.170684 0.19828 0.0863671
0.107121 -0.0735968 -0.00840206
0.0426312 -0.111914 -0.154682
-0.12961 0.360317 -0.0259402
-0.12961 0.091453 0.16047
-0.170684 0.266856 0.0574016
-0.170684 -0.0702477 0.0530655
-0.137582 0.0117612 0.170684
-0.170684 0.178476 0.065393
-0.12961 0.35708 0.0515722
-0.12961 0.112404 -0.072192
-0.163774 0.432449 -0.0502196
0.00954299 -0.0735968 0.0809235
-0.0680341 -0.111914 0.0486473
-0.0599592 -0.0735968 -0.16453
-0.094139 -0.111914 0.161952
0.125325 -0.42597 0.154347
-0.134005 -0.261798 -0.170684
-0.150003 -0.375373 -0.170684
-0.170684 0.0241402 0.116994
0.170684 -0.0843737 -0.0878223
0.0387568 -0.0735968 0.0897725
-0.169619 -0.26338 0.170684
0.0689039 -0.0735968 -0.00931508
-0.12961 0.0692694 0.036348
-0.12961 0.26496 0.0244918
-0.170684 0.136398 -0.0309055
-0.12961 -0.0714348 0.0221472
0.170684 -0.0794809 0.0635801
0.125325 -0.380238 -0.119133
0.138882 -0.375499 0.170684
0.170684 -0.16408 0.131769
-0.170684 0.319741 -0.062616
-0.170684 0.220314 0.0952111
-0.142444 -0.425042 0.170684
0.151422 -0.0735968 0.157422
-0.170684 -0.0378392 0.120037
-0.12961 0.00692616 0.0648126
-0.117664 -0.164974 0.13841
-0.149731 -0.119026 0.0377859
-0.170684 -0.0386677 0.116983
-0.0261135 -0.0830223 0.170684
-0.12961 0.250506 0.00045855
-0.0954465 -0.111914 0.0592628
-0.12961 0.00928175 0.077002
-0.0178039 -0.111914 -0.0113422
-0.170684 0.212109 -0.137854
0.125325 -0.301193 -0.118067
-0.170684 0.189638 -0.0221547
-0.12961 0.379571 -0.155524
-0.12961 0.331213 -0.119388
-0.170684 0.0264026 0.13204
-0.123925 -0.334126 0.170684
0.162568 -0.276335 0.170684
-0.170684 -0.0203079 0.138265
-0.156269 0.423878 -0.0822513
0.0367125 -0.111914 0.00393406
0.125325 -0.273634 -0.16957
-0.153605 0.431154 -0.057241
-0.168469 0.412169 0.11088
0.125325 -0.140967 0.125319
-0.0735856 -0.111914 -0.0107985
-0.0799779 -0.0936594 -0.170684
-0.170684 -0.399801 -0.167211
-0.145778 0.383918 -0.156469
-0.12961 0.0444607 0.10978
-0.12961 0.226065 0.115836
-0.170684 0.0761291 0.135667
-0.150511 -0.374579 0.111956
-0.12746 -0.254286 -0.170684
-0.117664 -0.383773 0.15395
-0.0121856 -0.111914 -0.0410484
0.145508 -0.160782 -0.11023
-0.170684 -0.0194397 -0.161004
-0.132415 -0.0106949 0.170684
-0.118491 -0.17528 0.170684
-0.170684 0.0763993 -0.0165218
-0.117664 -0.151745 0.146502
-0.12961 0.283239 -0.0463577
-0.130032 0.435598 -0.0331563
-0.130484 -0.119026 -0.00983567
-0.170684 0.181031 -0.0796842
-0.117664 -0.131159 -0.110691
0.00173263 -0.111914 0.126143
-0.164278 -0.258156 -0.170684
-0.170684 -0.0343623 0.0266274
-0.12961 0.383346 -0.124295
-0.12961 -0.0419716 -0.13408
0.125325 -0.267758 -0.140309
-0.170684 0.125534 0.136147
-0.117664 -0.361324 0.141236
-0.117664 -0.403514 -0.167806
-0.12961 -0.0332953 -0.0747119
0.125325 -0.226935 0.14701
0.170684 -0.388854 -0.159699
0.125325 -0.241132 -0.13055
0.125325 -0.2124 0.113229
-0.00810903 -0.0735968 -0.17063
0.170684 -0.229143 0.144189
0.0471507 -0.0735968 0.136679
0.0557545 -0.111914 0.0223099
-0.170684 -0.0397555 -0.0718059
-0.126293 -0.0735968 0.0381425
-0.170684 -0.305552 0.155709
-0.170684 0.151602 0.0641728
-0.12961 0.0387289 0.033221
-0.153165 -0.181031 -0.11023
-0.146794 0.341934 -0.170684
-0.162079 0.0177781 -0.170684
0.0298067 -0.111914 0.0686368
0.0481806 -0.0735968 -0.106752
-0.12961 0.349495 0.0999609
-0.170684 0.0291548 0.0106791
-0.170684 0.217504 -0.163944
-0.12961 0.366525 0.14883
-0.170684 0.0204814 0.00845537
-0.12961 0.0583087 -0.0208976
-0.163818 -0.437874 -0.134043
-0.170684 0.0538626 0.11241
-0.12961 0.20318 0.114293
-0.170684 -0.198519 -0.129876
0.146722 -0.111837 -0.074771
0.160903 -0.319926 -0.170684
-0.12961 0.128299 -0.0847774
-0.12961 -0.0180338 -0.0556681
-0.0406451 -0.0735968 0.0272265
-0.164288 -0.332329 0.170684
-0.12961 0.103183 -0.00610659
-0.170684 0.110188 -0.0994853
-0.12961 0.0481429 -0.0948397
-0.170684 -0.0703724 -0.156639
-0.12961 0.0491522 -0.00787799
0.158912 -0.0735968 -0.129653
-0.0117573 -0.0735968 -0.0742538
-0.156646 -0.243472 -0.170684
-0.166338 -0.261114 -0.11023
-0.12961 0.0253559 0.0246253
0.125325 -0.302011 0.130891
0.170684 -0.298438 -0.139874
-0.117064 -0.0735968 -0.166923
-0.143478 0.110306 0.170684
-0.170684 0.361966 -0.108962
-0.117664 -0.298133 -0.122578
-0.12961 0.277115 -0.0489157
-0.154714 -0.427642 0.170684
-0.170684 -0.424584 -0.121596
-0.143563 0.174997 0.170684
0.0572581 -0.111914 0.0115711
-0.12961 0.351612 -0.131826
-0.12961 -0.0733281 0.160698
-0.0984112 -0.0735968 -0.138601
0.168884 -0.437874 0.140633
-0.13255 -0.162123 0.111956
0.075308 -0.0735968 -0.14148
-0.170684 -0.286928 -0.16772
-0.170684 -0.186894 0.15817
-0.0146077 -0.0735968 -0.017126
0.064214 -0.0735968 0.073648
-0.165531 0.152754 -0.170684
-0.170684 0.0295881 -0.146689
-0.170684 0.172822 0.0772348
-0.140076 -0.437874 0.14667
-0.0469835 -0.10051 -0.170684
0.138937 -0.253342 -0.170684
-0.12961 0.424284 -0.0682467
-0.12961 0.12725 0.148087
-0.170684 0.129442 0.000603035
-0.12961 0.353971 0.0279812
-0.12961 0.204506 -0.0884135
0.136829 -0.11858 0.170684
-0.159635 0.0933673 -0.170684
-0.170684 0.232252 -0.0554648
-0.170684 -0.163971 0.113659
-0.170684 -0.175479 -0.149937
-0.132242 -0.188126 0.170684
-0.0906444 -0.111914 -0.104894
-0.170684 0.258193 -0.155253
-0.0792177 -0.111914 0.000314042
0.151586 -0.293134 -0.11023
-0.170684 -0.0953362 -0.114409
-0.170684 -0.296479 -0.123974
-0.170684 0.337623 -0.126605
-0.170684 0.358789 0.0999742
-0.13832 0.243486 -0.170684
-0.12961 -0.065127 0.119171
-0.170684 0.304653 0.143823
-0.165799 -0.304994 -0.170684
0.0405067 -0.111914 0.147668
-0.12961 0.289519 -0.0134693
-0.138074 -0.171556 0.170684
-0.12961 0.186641 0.079363
-0.117664 -0.380067 -0.148091
-0.12961 -0.0137927 0.167052
-0.12961 0.36809 0.0672024
-0.170684 0.423856 -0.0590127
0.162943 -0.336434 0.111956
0.148035 -0.0735968 -0.127691
-0.0569392 -0.0735968 0.0573899
-0.170684 -0.025223 -0.0438952
-0.12961 0.0245144 -0.138921
-0.170684 0.165125 0.0578274
-0.170684 0.221124 -0.0963022
-0.12961 0.321452 -0.131431
-0.12961 0.290765 -0.0607603
-0.117664 -0.165987 0.112165
-0.0512677 -0.111914 -0.0308896
-0.154451 -0.33888 0.170684
0.080463 -0.111914 0.0530932
-0.170684 -0.0592861 -0.159652
-0.12961 0.00370201 -0.155542
-0.170684 -0.0480466 -0.120945
-0.170684 0.0764386 0.0805118
-0.12961 0.298068 0.0785278
-0.170684 -0.146746 -0.118969
-0.0877272 -0.111914 0.125362
-0.0619351 -0.111914 0.0270108
-0.12961 0.23389 0.0251787
-0.170684 0.250176 -0.107237
-0.16866 -0.312871 0.170684
-0.170684 0.375712 -0.0563477
-0.132879 0.20911 -0.170684
-0.170684 0.0734075 -0.0372463
-0.148823 0.216417 0.170684
-0.12961 -0.0193114 -0.0725329
-0.169641 -0.023682 -0.170684
-0.12961 0.029095 -0.0450845
-0.169605 -0.152529 0.170684
-0.117664 -0.137672 0.128518
-0.081218 -0.0735968 0.152508
-0.126391 -0.119026 0.0616749
-0.10098 -0.111914 -0.0833261
0.160496 -0.27672 -0.170684
-0.170684 0.236847 0.0799857
0.125325 -0.210032 -0.115984
-0.015836 -0.111914 -0.0740866
0.142894 -0.174674 -0.11023
0.0665993 -0.111914 0.0685253
-0.170684 0.225997 -0.119202
0.170684 -0.0894424 -0.0298507
-0.0787592 -0.0810247 -0.170684
-0.12961 0.417829 -0.0596019
-0.170684 0.221003 0.0910834
-0.165176 -0.0348495 -0.170684
0.12867 -0.111837 0.0251239
-0.170684 0.0759359 0.0970055
0.0567944 -0.0735968 0.0636034
0.16604 -0.0735968 -0.120269
-0.141442 -0.195797 0.170684
-0.170684 0.30012 0.109006
0.0201383 -0.111914 0.116505
-0.122449 -0.0735968 0.0190386
0.125325 -0.214265 -0.115681
-0.00352911 -0.111914 0.0549766
-0.143689 -0.119026 -0.108475
-0.0965741 -0.0735968 -0.0483475
-0.170684 0.0355227 -0.0247009
-0.170684 -0.0394407 -0.0470083
-0.117664 -0.207848 0.121114
-0.156805 -0.401151 0.111956
-0.0127062 -0.0735968 -0.140403
-0.170684 0.262142 0.10004
-0.170684 0.151209 0.0717201
-0.1613 -0.437874 0.166537
-0.0969604 -0.111914 0.0586942
-0.00861392 -0.111914 0.0221468
-0.170684 0.230744 0.126518
0.133454 -0.236589 -0.11023
-0.0321279 -0.0735968 0.166555
-0.170684 -0.0476747 -0.161942
-0.12961 0.22962 0.0724281
0.147431 -0.274221 -0.170684
-0.0192164 -0.111914 0.111347
-0.170684 0.046658 -0.0599692
-0.12961 0.303856 0.0660679
0.113683 -0.0735968 0.0482859
-0.12961 0.28441 0.078918
-0.170684 0.0771912 -0.0203135
-0.12961 -0.0735337 -0.0239845
0.125325 -0.237404 -0.166747
-0.170684 0.122874 -0.0677881
0.00967319 -0.111914 -0.0116445
0.152569 -0.0735968 -0.117029
-0.170684 -0.00203532 -0.125424
0.01096 -0.111914 0.00223157
-0.170684 -0.0389302 -0.162478
0.138074 -0.114104 0.111956
-0.170684 0.315328 0.109165
0.0842314 -0.0735968 -0.00152054
-0.0879481 -0.0735968 0.0155808
0.170684 -0.347538 0.134511
-0.170684 -0.385518 -0.162133
0.118288 -0.111914 -0.125065
-0.12961 0.11683 0.140344
0.170684 -0.434715 0.134158
-0.170684 0.342265 0.128091
0.170684 -0.300673 -0.133609
-0.12961 0.111186 0.0180348
0.00222064 -0.0735968 -0.105818
0.117799 -0.111914 0.154006
-0.170684 -0.31484 0.136649
-0.12961 0.211183 -0.00581959
0.145212 -0.111837 -0.0543932
0.133444 -0.437874 0.145697
-0.160383 -0.119026 0.0246525
-0.170684 0.381872 0.12624
-0.170684 -0.109989 0.0688211
-0.170684 -0.279528 -0.132786
-0.170684 0.426738 0.0617139
-0.157764 -0.291613 0.170684
-0.0374846 -0.0735968 0.108724
-0.12961 0.32844 0.149472
-0.170684 0.218709 0.0600058
-0.130085 -0.369428 0.170684
-0.166137 -0.433054 -0.11023
0.1004 -0.0735968 0.0105716
-0.0513919 -0.111914 0.155262
0.125325 -0.303431 0.169571
-0.12961 0.334269 0.122828
-0.170684 -0.029434 0.0764599
-0.0684261 -0.111914 0.0910644
-0.117664 -0.291275 -0.136228
-0.170684 0.019979 -0.0217441
-0.10449 -0.111914 0.0661871
-0.11195 -0.111914 -0.113466
-0.170684 0.127577 -0.0626106
-0.0228583 -0.111914 -0.0980616
-0.163963 0.10893 -0.170684
-0.117664 -0.432736 0.143955
0.132986 -0.0735968 -0.151544
-0.170684 0.133577 0.0749365
-0.170684 0.167202 -0.104312
0.163481 -0.203026 0.111956
-0.117664 -0.163642 0.147289
0.0381982 -0.0735968 0.105632
-0.170684 -0.0892061 -0.00201246
-0.12961 0.115602 0.0322854
0.0314225 -0.111914 0.029653
0.16181 -0.298712 -0.11023
0.0604033 -0.111914 0.122063
-0.12961 0.0129469 -0.0694525
-0.170684 0.360586 -0.0700783
0.170684 -0.175138 -0.11765
-0.121026 -0.119026 0.0775627
-0.031612 -0.0958462 0.170684
-0.170684 0.150846 -0.153044
-0.12961 0.270683 0.0759501
-0.167866 -0.119026 -0.0539821
0.0625061 -0.111914 -0.143107
-0.170684 0.110437 0.102921
0.150179 -0.0735968 -0.0644875
-0.12961 0.322778 -0.132856
-0.0506492 -0.111914 -0.11442
0.155062 -0.0993896 -0.170684
0.0729217 -0.0926927 -0.170684
-0.136816 0.419133 0.0955201
-0.12961 0.0836229 -0.129825
0.125325 -0.208943 -0.121272
-0.12961 0.145436 0.11743
-0.12961 0.343985 -0.0820817
0.150407 -0.162376 0.111956
-0.170684 0.270815 -0.028373
-0.170684 0.145813 -0.0404716
0.145421 -0.0735968 -0.00836211
0.168166 -0.248541 0.111956
-0.151176 -0.437874 0.115363
-0.143382 0.43646 0.0232356
-0.12961 0.343165 0.056043
-0.117353 -0.0735968 -0.0672629
0.145472 -0.437874 -0.113687
-0.16851 -0.201974 0.111956
0.162647 -0.111837 0.0958509
-0.117664 -0.291418 0.149716
0.122663 -0.0735968 0.149236
-0.170684 -0.308584 -0.154787
-0.12961 0.144579 0.105389
0.0559753 -0.111914 0.121312
0.156224 -0.0735968 -0.167932
-0.156734 -0.218143 -0.170684
0.118345 -0.108797 -0.170684
-0.12961 0.118535 -0.164306
-0.170684 -0.067309 0.0313998
0.170684 -0.335859 0.164484
-0.075389 -0.0735968 -0.10506
-0.170684 0.335463 -0.148398
-0.12961 0.137069 -0.106825
-0.117664 -0.323676 0.145706
-0.170684 0.336643 0.135533
0.125325 -0.402929 0.169839
-0.0185368 -0.0758343 -0.170684
-0.117664 -0.178297 0.134463
-0.12961 0.0333013 -0.0694536
0.125325 -0.367274 0.156643
-0.104534 -0.0735968 -0.0276859
0.170684 -0.156269 -0.117924
-0.0788727 -0.0735968 0.128745
-0.117664 -0.163583 0.170634
0.0794405 -0.111914 0.167197
-0.170684 0.295353 -0.101643
-0.170684 0.042976 -0.102982
-0.169738 -0.119026 0.0613893
-0.0587492 -0.111914 -0.00327776
-0.14951 -0.278041 0.170684
-0.170684 0.172958 0.0687669
-0.12961 0.0301875 0.0986151
0.0734978 -0.111914 0.0984383
-0.05437 -0.108603 -0.170684
-0.117664 -0.116152 -0.0784744
0.170684 -0.30301 -0.135144
-0.00927873 -0.0893933 0.170684
0.125325 -0.260702 -0.110949
0.145443 -0.237414 -0.170684
-0.12961 0.342748 0.144088
-0.148366 -0.119026 0.0602644
0.170684 -0.371133 -0.141553
-0.16535 -0.310365 -0.170684
-0.170187 0.265527 -0.170684
0.105919 -0.0950475 0.170684
-0.170684 -0.0212071 0.0231645
-0.12961 0.427366 -0.00949502
-0.170684 0.206366 0.102256
-0.170684 -0.368956 -0.167579
-0.0286158 -0.111914 -0.00134302
-0.0645075 -0.0735968 0.0983319
-0.170684 0.0296184 -0.00871136
-0.137184 0.263797 0.170684
-0.117664 -0.342998 -0.144983
-0.0507718 -0.094819 -0.170684
0.170684 -0.434127 0.168606
-0.138591 -0.310227 0.170684
-0.12961 0.26307 -0.0644208
0.141791 -0.437874 0.141417
-0.0959413 -0.0735968 0.160023
-0.0312989 -0.0735968 -0.153258
-0.0475901 -0.0735968 -0.0200594
0.159151 -0.397169 -0.170684
-0.12961 0.369827 -0.0980762
0.0763446 -0.111914 -0.132048
-0.12961 0.306149 0.0943952
-0.12961 0.221041 -0.00835852
-0.12961 0.357499 0.0344335
0.125325 -0.296673 0.128996
-0.155436 -0.119026 -0.0799005
-0.170684 -0.388793 0.119677
-0.133638 0.407167 -0.121347
0.145235 -0.411024 0.170684
-0.12961 0.239642 -0.120707
-0.170684 0.213227 0.11037
-0.12961 -0.0725942 -0.150136
-0.170684 0.0414269 0.0250409
0.104488 -0.111914 0.0631546
-0.12961 0.257271 -0.148686
0.170684 -0.339207 0.129983
-0.12961 0.0689548 0.00797569
-0.12961 0.221157 0.00016623
0.146055 -0.224085 -0.11023
-0.12961 0.0221142 -0.0257257
-0.12961 -0.0303691 0.11367
-0.170684 0.332823 0.1498
-0.170684 -0.39108 0.134508
0.0270977 -0.0971824 -0.170684
-0.139353 -0.0728032 -0.170684
0.132564 -0.16026 0.111956
0.140638 -0.208061 0.111956
-0.170684 0.0355141 -0.000183664
0.125325 -0.298365 -0.129372
0.167278 -0.0735968 0.147871
-0.125356 -0.437874 -0.152833
-0.170684 0.241046 -0.0769717
0.145494 -0.111837 0.10524
-0.160709 -0.238171 0.111956
-0.12961 0.0580151 0.0802453
0.125928 -0.255517 -0.11023
0.135235 -0.0735968 0.0713439
0.0375379 -0.111914 0.169935
-0.141161 0.118578 0.170684
-0.12961 0.163809 0.0502351
-0.0701426 -0.0735968 0.0266524
-0.117664 -0.422028 0.131838
-0.170684 0.169575 -0.135348
-0.170684 0.42319 -0.01756
0.143664 -0.177196 0.111956
-0.12961 0.270473 0.0764933
-0.12961 -0.0216502 0.0640203
0.160978 -0.27069 0.170684
0.125325 -0.133216 0.12187
-0.117664 -0.333539 -0.155608
-0.12961 0.0737596 -0.111256
0.125325 -0.255212 -0.167427
-0.121521 -0.195821 0.111956
-0.170684 0.0124489 0.0889701
0.00278858 -0.0735968 -0.164086
0.15637 -0.347221 -0.170684
-0.170684 0.232399 0.0521537
0.0279412 -0.111914 -0.09569
0.170684 -0.189016 -0.122108
-0.170684 0.359301 0.084983
0.155487 -0.437874 0.122196
-0.12961 0.369137 0.0304226
0.0687619 -0.0735968 -0.141599
-0.110736 -0.106957 -0.170684
-0.164876 -0.269446 -0.11023
-0.170684 0.222136 -0.101278
0.120633 -0.0735968 -0.0546266
-0.117664 -0.299061 -0.142778
-0.12961 0.385589 0.0933145
-0.170684 0.297362 -0.0321839
-0.170181 -0.380802 -0.170684
-0.12961 0.213008 -0.170338
-0.12961 0.18296 0.141804
0.0336659 -0.0853929 0.170684
0.125358 -0.437874 0.147898
-0.12961 0.123385 -0.117832
0.125325 -0.313228 -0.144014
-0.043466 -0.111914 -0.115106
-0.0882726 -0.111914 -0.0556021
-0.12961 0.369843 0.0934462
0.164414 -0.138145 0.111956
0.066176 -0.111914 0.043788
-0.0288533 -0.111914 -0.0512425
-0.170684 0.216699 -0.158372
-0.170684 -0.0138155 -0.0996569
-0.170684 0.321128 0.10976
-0.12961 0.0720504 0.032785
0.031455 -0.111914 0.0611455
-0.146588 -0.0977702 0.170684
-0.170684 -0.38952 -0.135775
-0.170684 -0.0141765 -0.0985943
-0.170684 0.015204 -0.140513
-0.170684 0.338792 0.160797
-0.117664 -0.252676 0.1677
-0.165751 0.433611 0.0439239
0.102651 -0.111914 -0.140986
-0.0323416 -0.0735968 0.0511966
-0.170684 0.282452 0.10989
0.115148 -0.0735968 0.0266347
-0.150551 -0.257076 -0.170684
0.128086 -0.111837 0.0204639
-0.12961 -0.0352152 -0.0942216
-0.170684 -0.0787461 -0.0819166
-0.170684 0.266828 0.0205213
-0.138929 -0.413283 -0.170684
0.0372246 -0.0735968 -0.149492
-0.170684 0.343888 -0.166115
0.139915 -0.0735968 -0.167237
-0.12961 0.0285341 0.125953
-0.170684 0.285189 -0.0160918
-0.170684 0.333855 -0.145031
-0.129985 0.0367876 0.170684
0.0495302 -0.111914 0.0697753
-0.142953 0.147206 0.170684
-0.170684 0.00465141 -0.152686
-0.117664 -0.389683 0.162582
0.144713 -0.405051 -0.170684
-0.16443 -0.119026 -0.0297683
-0.170684 0.326174 -0.134977
-0.170684 0.174772 0.15165
-0.0903572 -0.0829928 0.170684
-0.16137 0.399888 0.133292
0.125325 -0.373572 0.132454
0.12603 -0.225819 0.111956
-0.1307 0.314786 -0.170684
-0.12961 0.0570114 0.156763
0.170684 -0.0974015 -0.0471598
-0.170684 0.381754 -0.0142776
-0.148013 0.295653 -0.170684
0.125325 -0.18813 -0.150337
-0.170684 0.0854389 -0.0562367
0.129009 -0.0735968 -0.0593768
-0.12961 0.290929 0.0239096
-0.170684 0.14393 -0.0163678
0.0538739 -0.111914 0.167003
0.130944 -0.0735968 0.122736
0.152514 -0.28589 0.111956
-0.166369 -0.280938 -0.11023
-0.148676 -0.393528 0.111956
0.0119364 -0.0735968 -0.044422
-0.12961 0.304686 -0.144765
-0.170684 0.379452 0.0339624
0.153604 -0.437874 -0.122493
-0.169822 -0.151443 0.170684
0.170684 -0.277506 -0.168403
0.170684 -0.28887 0.122802
-0.141884 -0.119026 0.109594
-0.0897552 -0.111914 0.115576
0.170684 -0.082292 -0.103573
-0.117664 -0.295418 0.155933
-0.170684 0.0399178 -0.0375213
-0.170684 0.187907 -0.154039
-0.170684 0.122253 -0.0833457
-0.150814 -0.265415 0.170684
-0.117664 -0.11341 -0.0584611
-0.0743719 -0.0735968 0.121331
0.170684 -0.338773 -0.140505
-0.12961 0.352095 -0.095116
0.0218229 -0.111914 -0.124105
0.00904924 -0.0735968 -0.100754
0.0669085 -0.111914 0.155111
-0.141881 -0.276014 -0.170684
0.137463 -0.0735968 0.00260958
-0.170684 0.294196 0.0174506
-0.170684 0.39546 0.030127
0.133323 -0.318049 -0.170684
-0.134733 0.0381837 -0.170684
-0.0661264 -0.0735968 0.029829
-0.12961 -0.0224733 -0.0852885
-0.117664 -0.224116 -0.143577
-0.036314 -0.111914 -0.138862
0.152247 -0.437874 -0.131105
-0.170684 0.060935 0.128402
-0.12961 -0.0472538 0.0299489
-0.170684 0.281272 -0.00585773
-0.12961 0.402083 -0.0861658
-0.0762319 -0.0735968 -0.157567
-0.170684 0.370915 0.0868953
-0.170684 0.315717 -0.03172
0.15914 -0.305675 -0.11023
0.14383 -0.39583 -0.170684
-0.170684 0.0735082 0.135311
-0.12961 0.140669 0.0275773
-0.170684 0.160841 -0.169407
-0.170684 0.336931 -0.151322
-0.12961 -0.0607635 -0.0107441
0.121669 -0.0735968 0.126507
-0.127636 -0.148843 0.111956
-0.170684 0.0366867 -0.160509
0.0343096 -0.0735968 -0.0997597
-0.119161 -0.275954 0.111956
0.0767692 -0.0735968 0.0265179
-0.048096 -0.0812148 -0.170684
-0.105541 -0.0999651 -0.170684
-0.12961 -0.0617246 -0.143704
0.155809 -0.0735968 0.0649572
-0.106995 -0.111914 0.116193
0.125325 -0.212514 0.112267
0.139381 -0.234263 0.111956
-0.140963 -0.00370237 0.170684
0.115346 -0.111914 0.166049
0.132456 -0.0735968 0.146071
0.132598 -0.261727 0.111956
-0.170684 0.306263 -0.166386
-0.12961 0.0774994 0.156068
-0.12961 0.00425209 0.110404
0.0941546 -0.0735968 0.1281
0.125325 -0.288301 0.164563
-0.12961 0.415796 -0.0734582
-0.170684 0.357721 -0.0675075
0.125325 -0.241113 0.115128
0.149474 -0.0735968 -0.105919
-0.170684 0.0467674 0.109264
-0.12961 0.380871 0.1043
-0.117664 -0.334717 0.125331
-0.12961 0.0117899 0.0101601
-0.12961 -0.00399398 0.0854707
-0.170684 -0.153282 -0.14013
-0.12961 0.199071 -0.092029
-0.170684 0.340596 0.041027
-0.170684 -0.0428761 -0.122565
-0.12961 0.19566 0.139357
-0.12961 0.0359417 -0.119306
-0.125366 -0.119026 -0.0494114
-0.117664 -0.361648 -0.129938
0.170684 -0.141504 0.117137
-0.131196 -0.168075 -0.11023
-0.170684 0.301109 0.103906
-0.170684 -0.142621 -0.121369
0.0454765 -0.111914 0.117119
-0.170684 0.329449 -0.0863297
-0.170684 0.117776 -2.93776e-05
-0.134722 0.250098 -0.170684
-0.170684 -0.0645444 0.0145928
-0.12961 0.179384 -0.116361
-0.170684 0.218805 0.0278561
-0.170684 0.0956583 -0.161336
-0.134328 0.424575 -0.0800301
-0.170684 -0.40229 0.147184
-0.170684 -0.352315 0.117289
-0.0898808 -0.111914 -0.12337
-0.170684 0.0102712 -0.049628
-0.0252969 -0.111914 -0.0985266
-0.170684 0.145026 -0.162565
-0.12961 0.123077 -0.129516
-0.134494 0.171856 0.170684
-0.170684 0.193189 0.0609103
-0.12961 0.271629 0.117582
-0.0342024 -0.111914 0.0501493
-0.12961 -0.0447707 -0.0184851
-0.170684 0.196149 -0.0379025
-0.170684 -0.41628 0.136341
-0.106317 -0.0865197 0.170684
-0.170684 -0.32127 0.140413
-0.170684 0.290835 -0.0957043
0.125325 -0.218663 -0.142615
-0.117664 -0.209456 0.15047
-0.12961 0.267839 0.118251
-0.125047 -0.368805 -0.11023
-0.166527 -0.426936 -0.170684
-0.150175 -0.229826 0.111956
-0.134822 -0.266289 -0.170684
-0.12961 0.171725 0.157793
-0.170684 -0.24796 -0.156091
-0.023446 -0.111914 0.041889
-0.114857 -0.0735968 -0.136688
-0.170684 0.140945 -0.0556179
-0.156261 -0.205483 0.111956
-0.14543 0.434916 0.0368516
0.0315189 -0.111914 0.132537
0.0353589 -0.0735968 -0.0027748
-0.170684 0.393805 0.0777381
-0.158303 -0.403975 -0.170684
-0.117664 -0.327776 0.123505
-0.090862 -0.0775605 -0.170684
0.142684 -0.224679 -0.11023
0.0551176 -0.111914 -0.0749549
-0.170684 0.344264 0.0484675
-0.170684 0.165748 -0.140777
-0.12961 0.0379933 0.0596718
-0.152648 -0.331518 0.111956
-0.170684 0.133143 -0.166947
-0.10106 -0.0735968 -0.0632429
-0.12961 0.0397932 0.0417758
-0.170684 -0.00519639 0.138582
-0.12961 0.0832239 -0.0283185
-0.12961 0.358232 -0.10258
-0.170684 -0.224271 0.122881
-0.126267 -0.119026 0.0414964
-0.170684 0.0963086 -0.139459
-0.170684 0.0433775 -0.0631194
-0.14892 0.431438 -0.0557026
-0.117664 -0.308365 -0.12305
0.0333305 -0.084682 -0.170684
-0.170684 0.347189 -0.117851
-0.12961 0.209077 0.0690203
0.125325 -0.141777 -0.151442
-0.12961 0.249484 0.0103815
-0.12961 0.340296 0.00313852
-0.12961 0.0787002 0.102329
0.154854 -0.256814 -0.170684
-0.170684 0.395351 -0.128128
-0.12961 0.247367 0.0711837
-0.12961 0.420684 -0.018826
-0.165628 0.426879 -0.0726881
-0.170684 0.0819481 -0.119818
-0.170684 0.238945 0.0653249
-0.12961 -0.0482296 -0.104264
0.128314 -0.0735968 0.0797113
0.126916 -0.303215 0.111956
-0.117664 -0.408269 0.157254
-0.156641 -0.382074 0.170684
0.0672358 -0.0735968 -0.167256
-0.12961 0.143992 0.00950381
-0.12961 0.126834 -0.0911131
-0.16485 -0.437874 0.114948
-0.170684 0.251768 0.117047
0.169846 -0.181899 -0.11023
-0.170684 0.0820501 -0.0693847
-0.0351589 -0.111914 -0.106128
-0.131704 0.416691 -0.100908
-0.0495855 -0.111914 -0.00857646
-0.170684 0.0422813 0.0059849
-0.12961 0.176044 0.0710504
-0.147437 -0.217804 -0.170684
-0.170684 0.360732 -0.0843791
0.132812 -0.16854 0.170684
-0.12961 0.0160707 -0.140118
-0.12961 0.0587816 0.120181
0.170684 -0.417313 0.133938
-0.12961 0.142182 -0.0529473
0.0250813 -0.111914 -0.107455
-0.12961 0.302888 -0.109431
-0.150134 -0.342279 -0.11023
0.162029 -0.437874 0.15174
0.00687846 -0.0735968 0.0726235
0.170684 -0.194584 0.137761
-0.120754 -0.427512 -0.170684
-0.12961 0.103488 0.042574
-0.12961 0.282774 -0.0406579
-0.170684 -0.0987423 0.0265213
-0.170684 0.395515 0.137647
-0.114994 -0.0941214 -0.170684
-0.12961 0.303292 0.0925898
0.125325 -0.374442 -0.151204
-0.100918 -0.111914 -0.0117958
-0.170684 -0.395574 -0.133967
-0.12961 0.30518 0.103382
0.141833 -0.355956 -0.11023
-0.140776 0.108601 -0.170684
0.125325 -0.373266 0.116258
-0.170684 0.234108 -0.0597315
-0.12961 0.15233 -0.146984
-0.114676 -0.111914 -0.168764
0.170684 -0.320986 0.123011
-0.12961 0.16911 -0.143518
0.125325 -0.296657 0.131959
0.112311 -0.0735968 0.0905752
0.125325 -0.415126 0.141854
-0.0616857 -0.111914 -0.0642317
-0.157539 -0.119026 -0.0314769
-0.168591 0.423276 -0.0841715
0.00866433 -0.111914 -0.131252
-0.170684 0.0878645 -0.123219
-0.170684 0.073871 -0.0181855
-0.0720949 -0.0735968 -0.0875561
0.131492 -0.379096 0.170684
-0.0235479 -0.0735968 -0.148419
-0.170684 0.017145 -0.144193
-0.14535 0.429276 -0.0650481
-0.12961 0.252609 0.130021
0.14525 -0.0735968 -0.0399057
-0.170684 -0.0668481 -0.120565
-0.170684 0.239696 0.0266366
0.163126 -0.253338 0.111956
-0.12961 0.390199 0.120139
0.170401 -0.111837 -0.0899497
-0.12961 -0.0231151 0.0202588
-0.170684 0.189595 0.162816
0.161359 -0.437874 -0.144511
-0.170684 0.162916 -0.167068
0.163413 -0.0735968 0.0519587
-0.117664 -0.161412 -0.167829
-0.170684 -0.0751591 -0.0826565
-0.154321 0.196862 0.170684
-0.0261629 -0.0735968 -0.0349965
0.170684 -0.204851 0.140279
0.151955 -0.151383 0.111956
-0.12961 0.317705 -0.150956
0.145224 -0.0735968 0.0254516
-0.12961 0.118193 -0.160004
-0.170684 -0.0330503 -0.0994259
-0.170684 0.0492836 0.124206
0.0485677 -0.111914 0.0807263
0.152788 -0.252768 0.111956
0.025445 -0.111914 -0.0674858
0.108571 -0.111914 0.107652
-0.117664 -0.362067 0.153252
0.161684 -0.411187 0.170684
0.170684 -0.234254 0.139755
-0.170684 -0.0780019 0.127427
0.170672 -0.227913 -0.170684
-0.151694 -0.207826 0.111956
-0.12961 0.403582 -0.0256964
0.0565025 -0.0735968 0.0532172
0.124112 -0.111914 -0.0284479
0.0770077 -0.111914 0.0892919
-0.170684 0.0714585 -0.029232
0.125325 -0.210667 0.116134
0.16892 -0.111837 0.0799017
0.0092433 -0.111914 -0.0136021
-0.12961 -0.00802551 0.0472208
-0.0896156 -0.111914 0.0929286
-0.12961 0.0265808 0.0471734
-0.12961 0.102781 0.130446
-0.12961 0.0422721 0.123241
0.126387 -0.397763 -0.170684
-0.12961 0.316739 0.0237061
-0.164845 -0.120841 0.111956
-0.132036 -0.0839609 0.170684
0.153042 -0.192203 0.170684
-0.12961 0.28103 -0.0597943
0.154675 -0.275721 0.170684
-0.12961 0.0905032 -0.142533
-0.128231 -0.119026 0.0723804
0.131282 -0.0735968 0.0521865
-0.170684 -0.0423687 -0.0111854
-0.170684 -0.357804 -0.135036
-0.170684 0.00182668 -0.0717788
-0.170684 0.217776 -0.141909
-0.170684 0.288172 -0.0923191
-0.170684 0.0237007 -0.138503
0.144426 -0.236797 0.170684
-0.167841 -0.187453 0.170684
0.170684 -0.196902 -0.132286
-0.12961 0.0414188 -0.14592
-0.170684 0.378905 0.147559
-0.0420179 -0.111914 0.0629286
-0.170684 0.386121 0.0248023
0.0558882 -0.111914 -0.141656
0.170684 -0.382697 -0.149545
-0.12961 0.0300672 0.170014
-0.170684 0.345921 -0.093765
-0.170684 -0.398849 0.117638
-0.0936747 -0.0735968 0.0826629
0.0137836 -0.111914 -0.128277
0.170684 -0.35104 0.124964
-0.104106 -0.111914 -0.122744
-0.0679911 -0.111914 0.137958
-0.170684 0.343538 0.157555
-0.135901 -0.403265 -0.170684
-0.170684 0.0605158 -0.0122243
-0.170684 0.359379 0.147787
-0.170684 -0.247591 0.115562
-0.170684 0.355493 0.033318
-0.170684 0.336042 0.143515
0.0474739 -0.0735968 0.0771669
0.0662834 -0.111914 -0.104668
0.143761 -0.111837 0.102999
0.161035 -0.16795 -0.170684
-0.143264 -0.119026 0.0453462
0.0941908 -0.0735968 -0.161812
-0.170684 0.374489 0.0441561
-0.170684 0.109991 -0.0171486
-0.149246 0.291948 -0.170684
-0.12961 0.126975 0.140041
-0.170684 0.203307 -0.0926163
-0.170684 0.138028 0.127541
-0.12961 0.0855829 -0.0913279
-0.12961 0.308502 -0.0460538
-0.142362 0.309454 -0.170684
-0.0828808 -0.111914 0.0580452
-0.16716 -0.239702 -0.170684
-0.170684 0.351413 0.0352777
-0.170684 -0.170994 -0.133252
0.058181 -0.0964055 -0.170684
-0.170684 0.2711 0.0128849
-0.159179 -0.437874 0.135314
0.170684 -0.253357 -0.166038
-0.12961 0.387787 0.0602849
-0.0414199 -0.0735968 0.0607114
-0.170684 0.127545 -0.16721
0.103545 -0.0735968 0.035237
-0.12961 0.113021 -0.129537
-0.00937011 -0.0735968 0.117466
-0.12961 -0.0455235 0.12872
0.170684 -0.34415 0.149029
-0.0700291 -0.111914 -0.0441587
0.117869 -0.0735968 -0.0876396
-0.170684 0.0199257 0.0823125
0.125325 -0.133793 0.146582
0.125325 -0.258867 -0.167804
-0.00451713 -0.0735968 -0.11854
-0.12961 0.242524 0.0756139
0.0160426 -0.0735968 0.087587
-0.117664 -0.396944 -0.128261
-0.170684 0.130535 0.136875
0.170684 -0.397588 -0.140003
-0.12961 -0.0595655 0.143857
0.170684 -0.30812 0.137078
-0.170684 0.115288 -0.105069
-0.136098 -0.150797 -0.170684
-0.117664 -0.321178 0.157012
-0.16357 -0.437874 -0.112709
-0.102959 -0.111914 0.0845832
-0.170684 0.0231591 0.0565582
0.0915706 -0.111914 -0.10433
0.0500214 -0.0735968 -0.0957523
-0.133626 0.0391709 0.170684
-0.170684 0.0919569 -0.145022
0.170684 -0.266696 -0.112676
-0.129999 0.251551 0.170684
0.170684 -0.39771 -0.159394
-0.170684 0.295225 -0.119865
-0.12961 0.104701 -0.153999
0.140038 -0.374922 0.170684
0.032971 -0.0735968 0.11888
-0.170684 -0.0686671 -0.0193079
0.170684 -0.301529 -0.128457
-0.16106 0.184297 -0.170684
-0.120914 -0.3683 -0.170684
-0.165566 0.186722 0.170684
-0.130957 0.218657 0.170684
-0.00926201 -0.111914 -0.132204
-0.170684 -0.360871 -0.114434
-0.118409 -0.341067 0.111956
0.125325 -0.169833 -0.14169
-0.170684 0.36251 -0.0669287
-0.165498 0.216538 -0.170684
0.125417 -0.186996 0.170684
0.130728 -0.431576 0.170684
-0.12961 0.149624 0.0994406
-0.0201626 -0.0735968 -0.0875715
-0.12961 0.218587 0.00610358
-0.12961 0.0219438 -0.0403127
-0.170684 0.242983 -0.0472327
0.125325 -0.383497 0.136
-0.170684 0.00295444 0.0906605
-0.133231 -0.308759 -0.11023
-0.0770772 -0.0735968 -0.071205
-0.122322 -0.0735968 0.141629
0.170684 -0.285897 0.113052
-0.0453076 -0.111914 0.0526101
0.155433 -0.111837 0.0159386
0.170684 -0.26467 0.164916
0.170684 -0.0890008 0.0855442
0.021034 -0.0961547 -0.170684
-0.170684 0.0138742 -0.085629
-0.151145 -0.399078 0.111956
0.125325 -0.4084 0.145107
-0.12961 0.213826 -0.00978095
-0.170684 0.199615 -0.0322769
-0.170684 0.36217 0.111919
-0.170684 0.195472 -0.140311
-0.12961 0.0888713 -0.0127048
0.0971501 -0.0991835 0.170684
-0.146756 -0.437874 0.116724
-0.146081 -0.419602 0.111956
0.134186 -0.116391 0.170684
-0.12961 -0.00925648 -0.0640722
-0.160908 -0.119026 0.000843439
-0.0102555 -0.111914 -0.0261293
0.125325 -0.398902 0.141338
-0.170684 0.158274 0.147825
-0.170684 0.0139976 -0.120102
-0.158026 -0.143316 0.111956
-0.12961 -0.00634004 0.110092
-0.117664 -0.260274 -0.136868
-0.12961 0.0105499 0.0741119
-0.12961 0.23966 0.0281734
0.149528 -0.0735968 0.0385562
-0.15284 0.00652406 0.170684
-0.170684 0.236433 -0.140994
-0.0580541 -0.0735968 -0.019739
-0.170684 0.39386 0.106
0.162173 -0.235585 0.111956
-0.12961 0.18049 0.0111813
-0.170684 -0.115141 0.0358723
-0.170684 -0.206456 -0.121351
0.0269177 -0.0735968 -0.0871163
0.0957899 -0.0735968 -0.0148775
-0.170684 0.0878788 -0.112702
-0.12961 0.364628 -0.0305761
-0.145641 -0.437874 -0.127363
-0.0986801 -0.0735968 0.170608
-0.12961 0.0536731 -0.111093
-0.170684 0.280642 0.143999
-0.0301419 -0.111914 0.139144
0.0634566 -0.0735968 0.16668
-0.170684 -0.115177 -0.158061
-0.12961 0.0203783 0.0686844
-0.143015 -0.378149 -0.170684
-0.170684 0.273886 -0.157273
0.140695 -0.347732 0.170684
-0.170684 -0.110622 0.149756
-0.170684 -0.0392922 -0.0772598
-0.12961 0.0841576 -0.144662
-0.16497 -0.335956 -0.170684
-0.170684 0.398457 0.106951
0.170684 -0.391214 0.140195
0.170684 -0.0937872 -0.0602799
-0.143196 -0.308408 0.111956
0.134963 -0.437874 0.153136
0.170684 -0.407139 0.157776
0.170684 -0.0829802 -0.0263355
-0.0181407 -0.111914 0.0559929
-0.0739158 -0.0735968 -0.0603987
-0.170684 0.314602 -0.134484
-0.170684 0.354434 -0.123828
-0.0979766 -0.0735968 -0.13279
0.153851 -0.0735968 0.108233
-0.170684 -0.211429 0.158801
-0.170684 -0.161826 0.112116
-0.170684 0.28079 0.027358
-0.057522 -0.0929247 0.170684
-0.12961 0.110676 0.158013
-0.117664 -0.166189 0.127178
-0.144689 -0.314377 0.111956
-0.12961 0.282861 -0.0490771
0.170684 -0.0898011 0.00674013
0.161373 -0.0735968 0.0524435
-0.151607 0.413505 -0.107935
-0.117664 -0.245301 0.146398
-0.12961 -0.0685976 -0.0489525
-0.170684 0.214322 0.0277415
-0.159643 -0.437874 0.124696
-0.12961 0.144454 -0.0519107
-0.170684 0.200307 -0.16826
-0.0159158 -0.111914 0.139081
-0.12961 0.383176 -0.0246623
0.0156592 -0.111914 -0.0909724
-0.00867651 -0.0735968 0.150415
0.153413 -0.142554 0.111956
0.166023 -0.108067 0.170684
0.10786 -0.0735968 0.0617319
-0.12961 0.251929 -0.132511
-0.170684 0.0633654 -0.0922625
0.149512 -0.111837 0.0512754
-0.12961 0.389205 -0.0600879
-0.170684 -0.065902 -0.0521955
-0.117664 -0.186003 0.113281
0.0575281 -0.111914 -0.00882825
-0.12961 0.149895 -0.0937272
-0.170684 0.108284 -0.0966459
-0.170684 -0.130047 0.159548
-0.170684 0.282678 0.0184038
0.170684 -0.203708 0.151499
-0.167877 0.347299 0.170684
0.170684 -0.289446 -0.113903
-0.150532 0.361958 0.170684
-0.155365 -0.154484 -0.11023
