ply
format ascii 1.0
comment Created by Open3D
element vertex 1619
property double x
property double y
property double z
end_header
-0.108135 0.0386148 0.152103
-0.10821 -0.303742 -0.182832
0.119217 -0.0987155 -0.15834
-0.118196 0.102988 -0.170395
-0.135118 0.194217 -0.0772647
0.108036 -0.106562 0.0918826
0.148992 -0.367256 0.147298
0.0850964 -0.134019 0.0346735
-0.169778 0.369199 0.0679615
-0.171843 0.398897 -0.0433802
-0.162552 0.420362 0.0859525
-0.130362 0.240584 -0.143496
-0.129431 0.0671387 -0.142284
0.05435 -0.134019 0.0580735
-0.105906 0.0504101 0.0164855
-0.0902418 0.399579 0.0738252
-0.028275 -0.134019 0.0252017
0.153544 -0.134019 -0.149754
-0.101373 -0.334591 0.167202
-0.0862638 -0.138893 0.14012
-0.0375757 0.0843343 0.166555
0.0180337 0.0797616 -0.149233
0.0141369 -0.106562 -0.0288189
-0.109843 0.079105 -0.138237
-0.172729 0.349141 -0.0353091
-0.157163 0.313146 0.0253655
-0.105869 0.277227 0.157286
-0.0823924 0.377212 0.106527
-0.136619 0.420362 0.0930681
-0.0866852 -0.101382 0.19129
-0.119849 0.313146 0.0875393
0.11476 -0.134019 0.0752221
-0.113462 0.286095 -0.00221257
-0.121381 0.15363 0.0777176
-0.170745 0.319194 0.0594095
-0.105991 -0.334591 0.18575
-0.102867 0.420362 -0.00367416
0.0782206 0.071596 0.160483
0.174563 -0.274715 0.152351
0.146751 -0.186676 -0.15281
0.140734 -0.0987155 -0.132418
-0.124806 -0.0916997 -0.0495603
-0.121995 0.313146 -0.200481
-0.0955634 -0.0442601 0.160483
-0.122503 -0.0987155 0.0217173
-0.171917 0.408997 -0.042711
0.128909 -0.106562 -0.135716
-0.111099 -0.0550946 0.107205
0.101153 -0.0384937 0.186937
-0.139331 -0.0961236 0.0121539
-0.0754942 0.37362 -0.186576
0.146098 -0.164631 -0.182832
0.174563 -0.222731 0.170094
-0.116376 0.312831 -0.00355352
0.112043 0.0836368 -0.185271
0.115253 -0.134019 0.0816111
-0.109383 0.280645 0.0230108
-0.0820525 -0.365382 -0.14726
-0.149744 0.313146 0.0774125
-0.133635 0.281568 -0.155213
0.0283662 0.0585054 0.175269
-0.159982 0.384782 0.114761
-0.109595 0.187819 -0.0551621
-0.108211 -0.236974 0.188719
-0.121056 0.0576429 -0.13713
-0.136178 0.169352 -0.0565844
-0.0945233 0.313146 -0.0680628
-0.119875 0.336772 -0.170174
0.0417877 -0.106562 0.145563
-0.0746497 0.314902 0.129762
0.154773 -0.377752 -0.142664
-0.170542 0.313146 0.0206309
0.153155 -0.0987155 -0.0380567
0.166749 0.0706219 -0.185271
0.1731 -0.203267 -0.143508
-0.108211 -0.151263 -0.161047
0.174563 -0.246713 0.163873
-0.105571 -0.050439 0.162998
0.0935396 -0.0227481 0.155253
0.143697 -0.134019 -0.138619
0.0192409 0.0586898 0.155253
-0.133928 0.145122 0.148921
-0.0751704 -0.272617 -0.147411
-0.0781695 0.377868 -0.1134
-0.104298 0.210358 -0.142254
-0.0702394 -0.134019 -0.149234
-0.137244 -0.0987155 -0.0341694
-0.12676 0.326829 -0.167215
-0.0949082 -0.096275 -0.185271
0.0443637 -0.0987155 0.187567
-0.109005 -0.054383 0.150968
-0.172962 0.313146 -0.0171455
0.146751 -0.179217 0.172157
-0.0198341 -0.106562 -0.00926579
0.142379 0.0585054 -0.173516
-0.0814214 0.378679 0.188007
-0.00199361 -0.106562 0.0323763
-0.11198 -0.134019 0.135324
0.0709831 -0.1215 0.19129
-0.121941 0.313146 -0.137708
-0.0754875 -0.032011 -0.163022
-0.108211 -0.147776 0.166319
-0.0807587 -0.349184 0.147608
-0.173892 -0.131123 -0.0153877
0.169616 -0.167964 -0.159666
0.141522 -0.159972 -0.168506
0.156628 -0.0987155 -0.10127
-0.0831868 -0.134019 0.153238
0.171141 -0.0987155 0.025203
-0.121169 0.17986 0.144428
0.0921049 -0.134019 0.0953559
-0.0406706 -0.134019 0.166688
0.166384 -0.0987155 0.0391591
0.127373 -0.106562 0.108683
-0.0996523 -0.340708 0.183131
-0.127692 -0.134019 0.102036
-0.0791018 -0.0987155 -0.172999
-0.12607 0.193371 -0.00429046
-0.0751704 -0.251058 -0.134834
0.174563 -0.262746 -0.158736
0.146273 -0.0987155 -0.163462
0.106601 0.0843343 0.168785
-0.1251 0.313146 0.165549
-0.0923256 -0.134019 -0.0129904
-0.0704139 -0.106562 -0.0502008
-0.137148 0.227167 -0.0579456
-0.134517 0.0992796 0.106404
-0.0968427 -0.134019 0.0760019
0.164103 -0.416333 -0.143674
0.173833 -0.321997 0.14012
0.0475612 -0.11547 0.19129
-0.126503 -0.0987155 0.153009
0.152403 -0.228826 -0.133511
-0.10352 -0.144712 0.14012
-0.134438 0.262001 0.149354
-0.14444 -0.114931 0.163642
-0.0708105 -0.134019 0.0819436
0.102256 -0.0987155 0.171481
-0.0804341 0.36712 -0.18867
-0.136507 0.313146 -0.0261563
-0.0787509 0.0378426 0.160483
-0.169563 0.347216 -0.063106
-0.0851009 0.0457959 0.187367
0.141522 -0.283613 -0.164014
-0.0533961 -0.120179 -0.185271
0.174386 -0.110851 0.101527
-0.0967087 0.400235 0.0207107
-0.152156 -0.0987155 -0.133103
-0.119899 0.0642431 0.144595
0.164103 -0.394322 0.171535
0.141522 -0.30508 -0.160115
0.00516231 -0.134019 0.153716
-0.0910731 0.361579 -0.193179
-0.139026 0.129943 0.16365
0.0280408 -0.134019 0.0414768
-0.116544 0.092977 0.0280558
-0.165204 0.389152 0.0927849
-0.0776219 -0.270092 -0.182832
-0.126062 0.162039 -0.16775
-0.0386054 0.0252734 0.171992
-0.132431 0.283799 0.174771
-0.0983372 0.07697 -0.165828
-0.141448 -0.134019 -0.117516
0.0377809 0.0843343 -0.174147
-0.067592 -0.106562 0.0493549
-0.108211 -0.226307 -0.176256
-0.0714446 -0.0992994 0.146551
-0.139089 0.142489 0.16317
0.0786922 0.0802636 0.155253
-0.121611 0.0428445 0.14437
0.160161 -0.389565 0.180289
-0.105581 0.290369 0.0963912
-0.128035 -0.134019 0.142167
-0.0666831 0.0843343 -0.150246
-0.135586 -0.00615509 0.0226373
-0.132213 0.224257 -0.00145001
-0.0630561 -0.134019 -0.0804941
-0.0724979 -0.124035 -0.185271
0.155058 -0.143517 0.189441
-0.102872 0.138211 -0.144113
-0.0572778 0.0603212 -0.153155
-0.125544 -0.0987155 -0.146467
-0.138394 0.143331 0.0174985
-0.137803 0.00122114 0.08788
0.0265151 -0.0987155 0.18806
-0.102999 -0.0494753 0.190501
0.10299 -0.106562 0.0537657
-0.0803999 -0.175418 0.149797
0.154247 -0.134019 -0.179178
-0.139181 -0.0560614 0.0134192
0.0368508 0.0843343 -0.173369
-0.108211 -0.276881 -0.178723
0.114267 0.0221961 0.158047
0.163248 -0.0987155 0.171587
-0.107084 -0.0947515 0.101791
-0.0403801 -0.106562 -0.0674238
-0.0815733 -0.363644 -0.169147
0.12448 0.0585054 -0.176033
-0.10636 -0.167964 0.173397
-0.0359085 -0.0987155 -0.167865
-0.0873864 -0.106562 0.00463684
-0.0883617 0.420362 0.0886793
0.151981 -0.39506 -0.143835
-0.0930087 -0.134019 0.0554944
-0.0714227 -0.134019 0.0068861
-0.116182 0.0767701 0.0788998
0.0785251 0.0585054 -0.173808
-0.135103 -0.00826325 0.172322
0.132856 -0.120348 0.19129
-0.0786878 -0.302324 0.189441
0.103032 0.0543688 0.19129
0.169333 -0.16838 -0.148917
-0.0864291 0.0765252 -0.18004
0.151981 -0.392102 0.156266
0.136925 -0.0987155 0.113293
-0.108211 -0.249743 0.185262
-0.0697707 -0.134019 -0.133986
-0.120004 0.00103944 0.0778991
-0.130578 -0.0987155 0.0501931
-0.12389 0.163399 -0.138249
-0.0947729 0.333565 0.0443913
0.174563 -0.141938 0.162262
-0.112389 -0.0126619 0.0258216
-0.128825 0.0234436 -0.0506784
-0.155364 0.420362 0.102676
0.094104 -0.0143631 0.188901
0.0702127 0.0585054 -0.160747
-0.119661 -0.0626301 0.111233
-0.173899 0.400531 -0.0151875
-0.172179 -0.122846 0.0463408
0.0992949 0.025203 0.169968
-0.0556636 -0.118864 -0.185271
-0.132055 0.337989 0.148486
-0.0972031 -0.0233983 -0.182817
-0.111054 -0.031447 -0.0788147
0.0489998 -0.0987155 0.164193
-0.0694274 -0.017244 -0.168402
0.108807 -0.106562 -0.117252
0.13412 -0.134019 0.0513915
-0.120027 0.299385 -0.170154
-0.108211 -0.165296 -0.180129
0.050005 -0.106562 0.026095
-0.0786148 -0.205079 -0.182832
-0.106056 -0.0987155 -0.141429
-0.0979768 -0.134019 0.151653
-0.101894 -0.248068 0.189441
0.161656 -0.118807 -0.185271
0.0671873 -0.134019 0.0485878
-0.0336483 -0.126052 -0.185271
0.166821 0.0631712 0.18365
0.0732258 -0.134019 0.0609953
-0.0717807 0.321088 -0.131335
0.167129 -0.162852 0.14012
-0.0861671 -0.224975 0.189441
-0.125461 0.325508 -0.138938
-0.0751704 -0.213594 -0.139249
-0.102999 -0.0815041 0.172927
-0.12144 0.0905499 -0.00466259
-0.16727 0.420362 -0.0265285
0.156861 -0.379401 0.180289
0.070539 -0.106562 0.106203
0.135997 0.0843343 -0.15747
0.151981 -0.380571 -0.143182
-0.0966825 0.0756356 -0.149233
-0.174198 0.348659 -0.00698923
-0.0970324 0.335489 0.0118371
0.0860824 -0.0677522 0.167754
0.166293 -0.30101 0.189441
-0.126409 0.420362 -0.0589643
-0.0919935 0.36814 -0.0582998
0.1727 -0.134019 -0.174677
0.114462 0.0270037 0.157892
-0.0641791 0.368095 -0.149271
-0.16861 0.415686 -0.0682817
-0.108211 -0.143143 0.148175
-0.124844 -0.0987155 0.170139
-0.119126 -0.00296652 -0.136876
-0.0552975 -0.134019 -0.0255379
-0.133902 -0.00962111 0.106959
0.163503 -0.161051 0.189441
0.164053 -0.134019 -0.117679
-0.0876802 0.388907 -0.0802317
0.0854323 0.0843343 -0.17352
-0.160003 -0.102833 0.114682
-0.133318 -0.0176416 0.148453
0.174386 -0.108956 -0.0867247
-0.0794678 0.348724 -0.109586
-0.10567 -0.0323999 -0.0687095
-0.0908626 -0.0838321 0.160483
-0.080676 -0.211595 -0.133511
-0.0751704 -0.154007 0.166503
-0.139004 0.250858 0.0971351
0.174386 -0.128335 -0.112297
0.153386 -0.295427 0.14012
0.112625 -0.134019 -0.0986651
-0.0112664 0.0664991 -0.18004
-0.0867527 -0.0293344 0.187367
-0.107341 0.0670672 -0.167517
0.114175 0.0199247 -0.16044
-0.0189841 0.061442 0.160483
0.0460787 0.0843343 0.189882
-0.13716 0.41601 0.180819
-0.0181924 -0.134019 -0.103361
-0.0940831 0.368805 -0.0446569
-0.0803999 -0.17583 -0.150233
-0.0138723 0.0442512 -0.175684
0.122784 -0.134019 -0.0723813
0.0719689 -0.106562 0.0993896
-0.029847 0.0843343 -0.158515
-0.11091 -0.0985768 -0.0787037
-0.134399 0.313146 -0.120694
0.0927404 -0.0313336 0.19129
-0.121319 0.150997 -0.00464674
0.164491 -0.134019 0.15841
-0.106413 -0.0987155 -0.141475
0.039093 -0.0965793 0.158653
-0.147918 0.313146 0.104793
0.152344 -0.134019 -0.139201
-0.100134 0.420362 0.0908525
-0.0751704 -0.300688 -0.167128
-0.0751704 -0.306721 -0.156826
-0.0402606 0.0843343 -0.168121
-0.127004 0.420362 -0.0252126
-0.119961 -0.0561768 -0.0829179
0.0388671 -0.134019 -0.000927743
-0.152617 -0.100012 -0.13413
-0.0711928 -0.0987155 -0.159805
-0.0885781 -0.0987155 0.155368
-0.147152 0.351565 0.156209
0.161099 -0.350776 -0.137584
-0.136314 -0.134019 -0.17211
-0.118963 0.260219 0.0780363
-0.0692282 0.0182632 0.160483
-0.0824939 -0.0636054 -0.180163
-0.0925134 -0.198635 0.142735
0.0349414 -0.134019 -0.05572
-0.127293 0.159611 -0.0039735
0.0628347 -0.0947725 -0.149233
0.0813486 -0.0464364 -0.181563
-0.108739 0.246617 0.104545
-0.105465 0.216536 0.0955064
-0.0969894 0.342473 -0.00699465
-0.154396 -0.134019 -0.0541443
0.0506521 0.0810798 0.19129
-0.0324382 0.0336154 -0.185271
-0.120032 0.230335 0.0778955
0.0941792 -0.126495 0.19129
0.0606082 -0.091418 0.155253
0.141522 -0.3085 -0.17316
0.0282315 0.0715368 0.187367
0.0716692 -0.134019 0.0536418
-0.116193 0.0204402 -0.0505393
0.14346 -0.203267 0.182635
0.129647 -0.101993 -0.00311971
0.174563 -0.147765 0.160146
-0.126447 0.000272855 -0.0497762
-0.102999 -0.0027438 0.158533
-0.100797 -0.346395 -0.179403
0.0518857 -0.0936546 -0.183655
-0.108211 -0.15621 -0.174515
-0.173577 0.415058 -0.0240155
-0.133719 0.31896 -0.152574
0.0689053 0.0771508 0.187368
0.132504 -0.134019 0.134957
-0.136151 -0.134019 -0.0732204
0.07865 -0.106286 -0.140532
-0.134774 0.122966 0.17275
-0.0871518 -0.159994 0.14012
0.165855 -0.145265 -0.182832
0.0306222 0.0614372 -0.185271
-0.108211 -0.221729 -0.153264
-0.0754315 -0.0318746 -0.159088
-0.0607804 0.00191975 -0.185271
-0.0976002 0.420362 -0.0140628
-0.136386 0.0311571 0.0852105
-0.0825126 -0.106562 -0.00894406
-0.0544477 -0.106562 0.0892164
0.146751 -0.184037 -0.165575
0.173777 -0.285652 -0.133511
-0.153515 -0.0987155 0.0159145
-0.119359 0.211717 -0.136907
0.147727 0.075334 0.160483
-0.0829527 -0.0708467 -0.177343
-0.105584 0.294198 -0.0680571
-0.17421 0.31571 0.012682
-0.0810212 -0.349705 0.143026
-0.0994033 0.313146 0.0903634
-0.129009 0.349834 0.200051
-0.111157 0.220446 0.0819295
0.174563 -0.236636 0.184057
0.0768758 -0.106562 -0.112373
0.174563 -0.312152 -0.18057
-0.108211 -0.316227 0.178955
0.0775217 -0.0987155 -0.179907
0.112712 0.0293087 -0.149233
0.113303 0.0843343 -0.154696
0.0572953 -0.0987155 0.185
-0.108211 -0.15178 0.184913
0.159532 -0.134019 0.15093
0.118896 -0.134019 0.177034
0.0248836 0.0786722 -0.149233
-0.0938628 0.358063 0.052683
0.0450916 0.0585054 -0.183674
-0.15154 -0.134019 0.0315094
-0.123759 0.016715 0.0290273
0.174386 -0.11167 -0.061865
-0.0558566 0.314584 -0.178253
-0.105413 -0.0721019 0.0940618
-0.0897304 -0.203267 -0.135658
0.0764903 -0.106562 0.132218
0.067429 -0.134019 0.102932
0.139037 0.0762994 0.187368
0.169333 -0.168919 0.165353
-0.108211 -0.23633 -0.164159
0.115304 -0.106562 -0.0751428
-0.171708 0.348959 0.0506337
0.165321 -0.190806 0.185519
-0.136891 0.151799 0.103309
-0.108547 0.12302 0.170976
-0.108211 -0.303493 -0.177204
-0.102971 -0.248604 0.14012
0.0182801 -0.134019 -0.162032
-0.0312663 -0.106562 -0.120074
-0.070883 -0.020791 -0.185189
0.0269399 -0.134019 -0.100589
-0.136212 0.247791 0.151666
0.151192 -0.223546 -0.133511
-0.132802 0.420362 0.0806635
-0.168753 0.375453 -0.0675022
-0.146485 -0.10433 0.158169
0.153434 -0.0987155 -0.0423838
0.164113 -0.362402 0.143635
0.118363 -0.134019 0.17542
-0.122997 0.32593 -0.00469465
0.0776169 -0.0987155 0.17077
-0.100781 0.420362 -0.0371153
0.155606 -0.0987155 -0.0207452
0.0235534 -0.134019 0.109792
-0.13733 0.135983 0.0200669
-0.105116 0.420362 -0.0927929
0.0566615 -0.106562 0.101302
0.174563 -0.248948 -0.173353
-0.129849 0.308069 0.0273473
-0.141065 -0.0987155 0.124713
-0.0920011 0.410265 -0.0582584
-0.123665 0.0314992 -0.0830567
-0.133788 0.00272402 -0.153095
-0.137441 -0.0987165 0.0103264
0.16645 -0.319594 0.14012
0.158698 -0.132521 0.19129
-0.108211 -0.292536 -0.180173
-0.0597671 0.37102 0.1657
-0.102999 -0.0783752 -0.174871
-0.106259 0.0981358 0.0893793
0.0337762 -0.134019 -0.160512
-0.121107 0.322396 0.111424
-0.0972976 0.313146 -0.089646
0.164103 -0.416965 0.180013
-0.00182054 0.0827741 0.19129
0.168935 -0.31125 -0.133511
0.0976225 0.0483927 0.177164
0.0603009 -0.0890075 0.160483
-0.107518 0.180143 0.102838
-0.0262815 -0.0987155 0.183791
-0.0751704 -0.146699 -0.153497
-0.121464 -0.0987155 0.138581
-0.0608242 -0.134019 0.029062
0.0623404 -0.0743996 0.166502
-0.0201429 0.078537 -0.182635
-0.120202 0.0183208 0.111305
0.0699594 -0.134019 -0.078342
-0.165603 -0.127924 -0.0845946
0.0821956 -0.134019 0.0194647
-0.140476 0.416988 0.172994
-0.119421 0.337989 -0.147352
-0.0939485 0.365917 0.0519023
0.0661895 -0.134019 0.185398
-0.131918 0.28997 0.0806959
0.00477359 0.0592899 0.155253
-0.0792585 -0.134019 -0.0438462
0.086799 -0.0349672 0.172986
0.146751 -0.193197 0.16514
0.11157 0.08025 0.155253
-0.138794 0.240041 0.0904477
-0.112867 -0.0987155 0.141523
-0.13266 0.310926 -0.147697
-0.0626279 -0.134019 -0.0227592
-0.105518 0.0795463 -0.0675549
-0.159887 0.361589 -0.109106
0.0130377 -0.106562 0.0996193
0.0317955 -0.134019 -0.0103947
-0.102982 -0.169224 0.179793
-0.100678 0.313146 -0.0756224
-0.0834652 0.0825511 -0.149233
-0.0751704 -0.142219 -0.135985
0.143181 -0.100105 -0.185271
-0.174156 0.374959 0.0141536
-0.128543 0.0862379 0.176944
0.134141 0.0643022 -0.184925
-0.102999 -0.0473527 0.175967
-0.11725 0.251179 0.110721
-0.144162 0.416693 0.164298
-0.0970262 0.406445 -0.00598604
-0.126066 0.313146 0.198006
0.0117135 0.056306 0.191279
0.164103 -0.389337 0.150945
-0.0977516 -0.416596 0.156846
-0.137253 0.405668 -0.17458
-0.108211 -0.153317 0.172773
-0.138971 0.262524 0.164068
-0.0346845 -0.134019 0.00585057
0.174563 -0.295364 0.164596
-0.0859843 0.415409 -0.0867345
-0.117236 -0.0987155 -0.0148448
-0.00549582 -0.0987155 -0.168422
-0.0531052 -0.0987155 -0.150944
0.131725 -0.134019 -0.101456
0.0408953 -0.106562 -0.121407
-0.119269 0.251965 0.177865
-0.173987 0.313146 0.00376567
-0.0848904 -0.0987155 0.171334
-0.133608 0.164345 -0.155421
-0.13017 0.332259 0.19731
-0.138223 -0.0409445 0.155575
-0.132332 0.263182 -0.0798089
-0.124919 -0.0324423 -0.0828917
-0.0783151 0.313146 -0.161051
-0.125547 0.337989 0.00537668
-0.138964 -0.0674019 0.00937035
-0.0959073 0.395514 0.0340556
-0.151591 -0.0987155 -0.0786715
-0.064076 0.368536 0.155534
-0.0402084 -0.106562 0.057631
-0.119614 -0.0738775 0.144633
0.167371 0.0638875 -0.18191
-0.0482039 -0.106562 -0.109807
-0.157613 0.313146 -0.00262401
-0.0751704 -0.160709 0.157978
0.164132 -0.334591 0.146122
-0.061692 0.404621 0.161159
-0.0188237 -0.106562 0.103208
-0.0752659 0.419562 0.127952
-0.167376 0.352062 -0.0749754
0.164374 -0.352932 0.185464
-0.100988 0.0578342 -0.15931
0.116074 -0.134019 -0.128998
0.0882226 0.0819413 0.19129
0.169111 -0.134019 -0.0598245
-0.136487 -0.0933328 0.170518
0.141522 -0.263588 -0.1617
-0.0891374 0.315796 0.0798183
-0.0769991 -0.0163849 -0.153155
-0.102999 -0.0690212 -0.171204
0.0376251 -0.106562 0.120994
-0.127243 0.420362 0.170611
-0.129733 0.0305416 0.0273954
-0.067652 -0.106562 -0.0222699
-0.160231 0.420362 -0.0631565
-0.0801477 -0.0486767 0.15993
-0.0719776 0.0182174 0.187368
-0.0535919 0.407869 -0.17425
0.136106 -0.134019 0.176441
-0.110141 -0.0987155 0.164469
-0.00279919 0.0501368 0.158087
-0.0814083 0.420362 -0.132431
-0.111657 0.0199733 0.148227
-0.125408 -0.131119 0.19129
-0.147021 0.420362 -0.000597884
0.136958 0.0643022 0.155265
0.0728842 -0.0860684 0.173138
-0.0232083 -0.10731 0.19129
-0.0243383 -0.106562 0.144485
-0.117419 0.22411 0.11079
-0.171506 0.400941 -0.0464525
-0.142286 0.313146 0.124814
-0.0871874 0.387369 -0.191532
-0.112805 0.242308 -0.13711
0.0188583 0.0843343 -0.15186
-0.173944 0.379196 -0.0139649
-0.0965817 0.367109 0.0241925
0.055412 -0.0858044 -0.185271
-0.105485 0.177499 0.0935163
0.059431 -0.134019 -0.114094
-0.0741351 0.353403 -0.125255
-0.105801 0.138802 0.0911168
0.174563 -0.249298 0.162657
0.00688375 -0.106562 -0.000248954
-0.11519 0.313146 0.036387
0.114111 0.042845 -0.151535
-0.174336 0.393773 0.00923248
0.14509 -0.308246 -0.182832
-0.134006 -0.134019 -0.152355
0.0463668 -0.0987155 0.190465
-0.0648628 0.388689 0.153677
0.114559 0.0307732 -0.161743
-0.129964 -0.0262217 -0.164171
-0.117817 0.420362 0.0787015
-0.137043 0.0350188 -0.0747555
-0.129194 -0.134019 0.172638
-0.0311612 -0.134019 0.0350811
0.141522 -0.284821 0.167673
-0.131939 -0.134019 0.100334
-0.160871 0.35756 0.111352
-0.106322 0.313146 -0.1305
-0.0660607 -0.106562 0.037969
-0.148256 -0.0987155 0.103804
-0.0779629 0.313146 -0.114623
0.111299 -0.106562 0.122505
0.00224127 -0.106562 0.105502
-0.0782246 -0.134019 0.00980215
0.0649393 -0.106562 0.133639
-0.117346 0.263391 -0.136642
-0.102579 0.00411839 -0.149233
-0.13704 0.0784293 -0.0747587
0.174563 -0.232745 0.153139
-0.121564 0.105521 0.0291118
-0.137413 0.164867 0.168921
-0.128452 0.0193441 0.176981
-0.105089 -0.167964 -0.161709
0.0729736 0.0843343 -0.16107
-0.115317 -0.0118906 0.10992
-0.122103 -0.0987155 0.167876
-0.138929 0.16616 -0.06935
0.143442 -0.0987155 0.0526414
-0.128194 -0.0987155 0.186208
-0.134824 0.0722059 0.02363
0.174563 -0.248266 0.185995
-0.157842 -0.134019 0.0727959
-0.114176 0.329671 0.146413
-0.0815926 0.342137 -0.103342
0.0416247 -0.134019 0.135604
-0.0964193 -0.354251 0.185517
0.107894 -0.134019 -0.0489858
0.172049 -0.289251 0.14012
-0.0751704 -0.334467 -0.161675
-0.137413 0.075584 0.102239
0.169072 -0.303391 -0.182832
-0.0762257 -0.334591 -0.181589
0.174563 -0.217783 0.183658
-0.138423 0.337989 0.0917199
-0.0565546 -0.106562 -0.0551503
0.12125 0.0843343 0.171621
-0.0804396 0.0356979 0.160483
-0.036167 -0.106562 0.0705571
-0.0181851 0.0642122 0.187368
-0.139243 0.220422 0.012947
0.146751 -0.181903 0.172004
-0.134702 -0.0550913 -0.0546598
-0.146413 -0.134019 -0.12653
-0.0577697 -0.134019 0.142218
-0.0971443 0.392998 -0.00274678
0.0858859 -0.0445208 -0.185271
-0.157839 0.356743 0.122978
-0.105944 0.221885 -0.0706828
-0.136541 -0.0699293 -0.0570573
-0.0789662 -0.106562 -0.0926554
-0.114671 0.420362 0.0530722
0.174386 -0.132132 -0.016056
-0.172697 -0.104046 -0.0356036
-0.0952229 -0.100588 -0.0678252
-0.11199 0.315211 -0.001083
-0.135129 0.360086 0.185611
-0.0302963 0.083492 0.155253
-0.108068 0.130872 0.170352
-0.0856351 -0.00757421 -0.18004
-0.135311 0.214028 0.150492
-0.127034 0.0322564 0.110885
-0.133276 0.054154 -0.149205
-0.0751704 -0.327909 0.175413
0.143519 -0.210322 0.189441
-0.105639 0.0891157 -0.0639912
0.0707634 -0.106562 -0.0477884
-0.133555 0.19929 -0.151323
-0.114941 -0.0987155 -0.182457
-0.0609092 0.0843343 0.187043
-0.102982 -0.17659 -0.143561
-0.0967702 0.344048 -0.0130056
0.073988 -0.134019 0.0101087
-0.10879 -0.0968134 0.104611
-0.130576 -0.0987155 -0.150885
-0.0977516 -0.377207 0.17399
0.0312642 -0.134019 0.0126599
-0.0836224 0.0842783 0.185067
0.0505686 -0.106562 0.0672693
0.115487 0.0843343 0.169192
0.0108309 -0.106562 -0.0973684
0.135272 -0.0987155 0.185171
-0.0924592 -0.288278 -0.133511
-0.171162 0.319379 -0.0495841
-0.166526 0.401005 -0.0795896
-0.0816291 -0.134019 -0.121117
-0.102325 -0.0987155 -0.0101095
-0.105859 0.197236 0.157355
-0.133431 0.400796 0.189617
-0.127063 -0.0147302 0.0783043
-0.16782 0.392631 0.0785867
-0.165817 -0.129986 -0.0834385
-0.0775377 -0.134019 -0.170805
0.0581016 -0.106562 -0.0969131
0.17149 -0.206099 0.14012
0.174386 -0.118356 -0.0382357
-0.131792 0.230483 -0.0802231
-0.16376 0.313146 0.040549
-0.101453 -0.272507 -0.182832
-0.0122356 0.0452139 -0.151511
0.141522 -0.27053 -0.149347
0.0944938 -0.0987155 0.156328
-0.124283 -0.0499853 -0.0829754
-0.00556727 0.0843343 -0.175641
-0.11313 -0.134019 0.18838
-0.173585 0.343294 0.0298191
-0.12493 -0.0615475 -0.16847
-0.173395 0.329897 -0.0290004
-0.0797427 -0.237258 -0.133511
-0.0534677 0.00859254 -0.150223
0.0292922 0.0656258 0.160483
0.14719 -0.0987155 -0.101844
-0.139132 0.178219 -0.0678096
0.14968 -0.0987155 0.188488
0.0507173 0.0585054 0.16882
-0.102999 0.0076567 -0.157375
-0.12926 0.00850132 -0.00315835
-0.135952 -0.0987155 -0.048064
-0.0791654 -0.134019 -0.0550381
-0.134846 0.0761084 0.105975
-0.0853679 -0.335097 0.157985
-0.0878402 -0.134019 0.0736041
-0.109118 0.148854 0.105039
0.106495 -0.134019 -0.0281806
-0.0751704 -0.266056 0.185049
-0.102639 0.420362 -0.188274
-0.133412 -0.0818165 -0.150241
-0.0860787 0.420362 0.143758
-0.148817 -0.110915 0.151315
-0.102982 -0.171304 0.156289
-0.0509273 0.0146995 0.19129
-0.173581 0.384343 0.0299364
-0.122735 0.190919 0.144326
-0.173655 0.334269 0.0278906
-0.109603 -0.0733 0.15019
-0.112211 0.142507 -0.0527646
-0.0102725 0.0843343 -0.176772
-0.0778148 -0.134019 0.165599
0.149924 -0.0987155 0.18982
0.137893 -0.0987155 0.043543
0.0434707 0.0763846 0.187368
-0.103682 -0.134019 -0.0047613
0.148668 -0.342184 0.164037
-0.12964 0.420362 -0.165577
-0.107081 0.0226605 0.00502162
-0.0687408 -0.134019 -0.141055
-0.136238 0.301612 -0.0758047
-0.108211 -0.240814 -0.160779
-0.113712 0.0140724 -0.00240371
-0.138118 -0.0876908 0.0181644
0.0391175 -0.103854 -0.185271
0.146957 -0.358053 0.181031
-0.0483586 -0.106562 -0.0651279
0.0950151 -0.0521156 -0.161124
-0.130228 0.230434 -0.00275743
0.174386 -0.126946 -0.0607818
0.174386 -0.100348 0.185383
-0.138674 -0.0987155 0.056334
-0.0751704 -0.246465 0.170269
-0.0192107 0.0843343 0.189018
-0.00211997 0.0504912 -0.167795
-0.0836802 -0.338544 -0.159453
-0.108294 0.208202 0.170647
0.107213 -0.106562 -0.0404964
-0.113028 -0.134019 -0.161388
-0.0966415 0.331617 -0.0165353
-0.138366 0.138111 0.0175673
-0.122256 0.200601 -0.0832199
-0.100053 0.0637603 0.155253
-0.0611418 -0.106562 0.0734979
0.0589618 -0.134019 -0.0333594
-0.110594 0.235723 0.0244443
0.141522 -0.137272 0.150916
-0.0135295 0.0549109 0.160483
-0.117364 -0.134019 0.105199
0.0826409 -0.134019 -0.167522
-0.0805242 -0.261106 0.14012
-0.128742 0.420362 0.149534
-0.13617 0.344242 0.183154
-0.135058 -0.0655601 0.17238
0.151938 -0.134019 0.0596782
-0.0175501 -0.106562 0.0449508
-0.165205 0.313146 0.0073798
0.156031 -0.387569 0.180289
-0.0874714 -0.211391 -0.182832
0.12747 -0.106562 -0.134604
-0.0313645 -0.124969 -0.185271
-0.0984168 -0.312144 0.189441
-0.00695263 -0.134019 -0.0975184
-0.0842538 0.0637378 0.187367
-0.127267 0.167527 -0.166825
-0.117719 0.0104824 -0.00410957
-0.105793 -0.0691604 -0.069642
0.174386 -0.127362 0.144612
0.115277 -0.106562 -0.0785022
0.157839 -0.0987155 -0.0184465
0.130473 -0.0987155 0.178092
-0.0493909 0.0834752 0.155253
-0.145461 0.371747 0.161176
-0.0751704 -0.263564 -0.182651
-0.0193485 -0.106562 0.0982733
-0.105543 0.00139522 -0.0677461
-0.0751704 -0.232676 -0.154509
-0.0490508 0.0227079 -0.184793
0.0278584 -0.0987155 0.17162
-0.0839453 0.407548 0.100572
0.0512452 0.0843343 -0.157849
-0.130086 -0.0987155 0.170285
0.004942 -0.0987155 0.150115
-0.0505239 -0.134019 -0.012198
0.15806 -0.0987155 0.180886
-0.11939 0.337989 -0.158716
0.0119137 0.0563823 -0.184526
0.174386 -0.11379 -0.129449
-0.10544 0.279198 0.162
-0.0938468 -0.0987155 -0.150586
-0.13799 -0.0745761 0.00596034
0.169731 0.0729127 0.171301
-0.0842145 0.38465 -0.0935208
-0.115921 0.0875059 0.027798
0.0740011 -0.134019 0.0968164
0.0927332 0.0683665 0.160483
-0.109888 0.256573 -0.0776875
-0.123601 0.332674 -0.0494018
0.174386 -0.115864 0.175728
0.11641 -0.106562 0.0146299
0.157282 -0.0987155 -0.0634382
-0.0543723 -0.106562 0.0176328
-0.0656476 0.0138521 -0.18004
0.109272 -0.0133498 -0.1798
0.0369384 -0.134019 -0.123191
0.169333 -0.192445 0.170827
0.141522 -0.211327 0.154536
-0.114113 -0.134019 0.0679165
0.0484147 -0.134019 -0.0640714
-0.15181 0.397352 -0.136503
0.133936 -0.0987155 0.177682
-0.107414 -0.0987155 -0.163164
0.168531 0.065771 0.186219
0.141522 -0.1564 -0.171824
-0.128686 0.138496 0.0278291
-0.133761 0.146655 -0.0787126
-0.12559 0.297146 -0.00435359
-0.0963819 -0.284722 -0.133511
0.00297379 -0.106562 0.118465
-0.124515 -0.134019 -0.0413919
-0.139003 0.177713 0.158717
0.174563 -0.318764 -0.157419
-0.156241 0.393281 -0.123085
0.157886 -0.38372 -0.142664
-0.138795 0.337989 0.158823
-0.0863087 -0.357277 -0.180083
0.0894273 -0.0987155 -0.162462
-0.0751102 0.313146 -0.144017
-0.111434 0.225586 -0.000655868
-0.124313 -0.134019 0.179986
-0.13482 0.0662194 -0.0776536
-0.00948152 0.0690138 0.160483
-0.0943782 0.348616 -0.041968
-0.134208 0.313146 -0.0974993
0.146751 -0.181595 0.172605
-0.108211 -0.334095 0.182787
-0.0361187 0.0274297 -0.173001
0.0930408 -0.130032 0.19129
-0.124086 0.420362 -0.0215184
0.174563 -0.222665 0.153254
-0.108211 -0.312583 -0.154579
0.174386 -0.108272 0.0412666
0.125652 -0.134019 0.132192
-0.0803999 -0.195337 0.174665
-0.0808363 -0.348592 0.161169
0.105908 -0.00470148 0.155253
-0.0824896 -0.063578 0.188245
-0.131461 0.10382 -0.00202758
0.125186 -0.106562 0.0441351
-0.0828073 0.360812 -0.0989166
0.172129 -0.0987155 -0.0183884
-0.108549 0.0922039 0.104297
0.0986813 0.0394457 0.165594
0.141522 -0.30636 0.154735
-0.0749191 0.420362 0.154965
-0.0565419 -0.106562 0.0863403
0.169311 -0.354702 0.182765
-0.0963165 -0.324596 -0.133511
-0.115684 -0.134019 -0.0173376
-0.0277453 -0.106562 0.140779
-0.173534 0.31334 0.0312311
-0.100049 -0.134019 0.0952621
0.158097 -0.134019 0.144337
-0.0607855 0.379882 -0.180342
0.151438 -0.0987155 -0.183773
-0.150169 -0.0987155 0.00409158
-0.0321766 -0.0987155 0.190729
-0.046759 0.0768761 0.187367
-0.0969367 0.0591219 -0.14977
0.0904803 -0.134019 0.0154969
-0.0516561 0.0416848 -0.153155
-0.100294 -0.331435 0.14012
-0.105483 -0.134019 0.144178
-0.103891 0.315627 -0.142785
0.0787387 -0.0785588 0.177574
-0.0637334 0.392569 0.18051
-0.0612002 0.00656396 0.19129
-0.0272938 0.0660037 0.160483
-0.133755 0.304891 -0.154305
-0.114515 -0.0789746 0.176271
-0.170032 0.399319 -0.059882
-0.122284 0.217336 -0.137583
0.0975797 0.00269476 -0.172322
-0.0141694 0.0843343 0.187952
0.141522 -0.150636 -0.166257
-0.107079 0.191286 0.154081
-0.102248 -0.0987155 0.180326
-0.0762713 -0.232021 0.189441
0.151981 -0.407848 -0.154753
-0.0824793 -0.134019 0.180071
0.0908962 -0.0243911 0.167932
-0.0977516 -0.397363 0.171706
-0.132831 -0.0503103 0.0254091
-0.0962665 0.355668 -0.0247645
0.10764 -0.0191603 -0.180813
-0.071993 -0.134019 0.0565251
-0.102612 -0.349104 -0.15567
0.146751 -0.192912 0.182152
-0.119548 0.21071 -0.0828634
-0.101827 0.0450287 -0.149233
8.83602e-05 -0.106562 0.0388512
-0.0273684 0.0350172 -0.157829
0.0969222 -0.106562 0.0516697
0.170318 -0.134019 0.173188
-0.168819 0.335671 0.0731629
0.149411 -0.0987155 -0.0606662
-0.0972031 0.0278597 0.156895
-0.0827407 0.36277 0.105191
0.0974568 0.00169391 -0.156975
-0.146499 0.40403 0.158127
-0.139126 0.0496001 -0.0646125
0.170953 -0.0987155 0.0725345
0.160684 -0.134019 -0.180137
-0.0926934 -0.264988 0.189441
-0.131169 0.232669 -0.00225127
-0.0751704 -0.310458 -0.139827
-0.101322 0.405368 0.196442
-0.128781 0.288038 0.176845
0.139214 -0.0987155 -0.0263277
-0.0640409 0.34943 -0.149597
-0.13447 0.420362 0.0170505
-0.137257 0.375163 0.18059
0.0991758 -0.134019 -0.0143777
-0.1089 0.313146 0.107415
-0.100957 -0.0784697 -0.185271
-0.0751704 -0.248205 0.167101
-0.139623 0.420362 0.0596781
-0.133699 0.314309 -0.154732
-0.0999816 -0.0991363 -0.0204272
-0.0969223 0.420267 0.0148539
-0.0751704 -0.143806 -0.158965
-0.102982 -0.172793 0.143322
0.0800232 -0.125421 0.19129
-0.0911889 -0.180505 0.185519
-0.135799 0.1086 0.104733
0.0557498 0.0684138 0.160483
0.0441449 -0.106562 0.0439494
-0.0359851 0.0355695 -0.150635
0.0955935 -0.0131596 -0.185271
-0.103673 -0.134019 0.189376
0.145612 -0.134019 0.165394
-0.11277 0.280553 -0.0523361
-0.129747 -0.0585775 -0.0510604
-0.108641 -0.0677862 -0.168413
0.0365856 0.0619055 0.155253
-0.0636217 0.375264 0.156606
0.168987 -0.16477 -0.133511
0.0500743 -0.106562 -0.0402171
-0.128924 -0.0271379 -0.0507192
-0.112649 -0.0107779 -0.00158811
0.0843284 0.0666513 0.160483
0.151981 -0.389568 -0.158664
-0.108426 0.0168547 -0.0757818
0.174386 -0.111422 -0.122225
-0.11972 -0.134019 0.0771368
-0.126638 0.200842 0.111021
-0.101558 0.420362 0.175728
-0.0169229 0.0505391 -0.18004
0.161471 -0.389323 -0.174987
-0.119914 -0.0726535 0.077911
0.129647 -0.103637 0.14329
0.0408109 -0.0951837 0.184418
-0.144868 -0.0987155 -0.11947
-0.0720342 -0.0235961 -0.162059
-0.122762 0.101777 -0.0492915
-0.108211 -0.288944 -0.179453
-0.0885683 -0.151254 0.14012
-0.135646 0.402932 0.18439
0.141522 -0.312713 -0.174168
0.11124 0.0611548 0.19129
-0.0915278 -0.0854078 -0.153155
-0.0972031 0.0248823 -0.185134
-0.137227 0.0357277 0.102687
-0.138984 0.140839 0.0918904
-0.0751704 -0.277018 -0.164993
-0.163563 0.382163 0.101032
-0.0824789 -0.0635102 0.16321
-0.134235 -0.0987155 -0.0979977
0.154848 -0.167349 0.189441
0.167374 -0.366356 0.155279
-0.174037 0.34993 -0.0114104
0.174563 -0.299978 -0.163135
-0.0350646 0.0283437 -0.162457
-0.154801 0.420362 0.000517447
-0.113273 -0.0137096 0.0803053
-0.00885209 0.0648306 0.187368
0.17109 -0.236199 -0.133511
0.0355684 -0.106562 0.0826091
-0.116203 0.241425 -0.136663
-0.123052 0.158389 0.144368
-0.0970714 0.385788 0.19464
-0.136698 -0.134019 -0.103648
-0.0855392 -0.210592 0.189441
-0.0977516 -0.419249 0.171312
-0.105459 -0.0596594 -0.0653608
-0.135041 0.32089 0.00108508
-0.0823814 -0.221832 0.14012
0.127698 0.0585054 0.166833
-0.10915 0.312674 0.0227077
-0.0493874 -0.0987155 -0.142391
-0.132356 -0.00780426 0.108146
0.0323342 -0.134019 0.183133
0.163246 -0.0987155 0.116761
-0.13823 0.107127 0.0178937
-0.110488 0.0237299 0.0824423
0.104606 -0.106562 0.126711
-0.0883905 0.396702 0.0835275
0.0451686 0.0731234 0.187368
-0.139195 0.089333 -0.0673243
-0.11535 0.190407 0.079244
0.106631 -0.0987155 0.185473
0.141522 -0.204534 0.163904
-0.174081 0.351631 0.01623
-0.109187 -0.134019 -0.129807
-0.118204 0.0800865 -0.170394
0.151981 -0.393862 0.158299
-0.101456 -0.0987155 -0.160471
0.141522 -0.299812 -0.1782
0.0590151 -0.134019 0.0120642
0.00494913 0.064546 -0.18004
-0.123984 -0.0766671 0.0289978
-0.16212 -0.0987155 0.0861392
-0.0497548 0.0628635 -0.18004
0.0842577 0.0585054 0.182743
-0.129982 0.32798 -0.0813093
-0.0854907 0.415121 -0.0886274
-0.107465 -0.0412822 0.0864662
-0.100286 -0.00878745 -0.156842
-0.137867 0.317921 0.0880343
0.034648 0.0796035 -0.185271
0.0471417 -0.134019 0.166544
-0.173397 0.351712 -0.0289437
-0.140988 0.420362 0.114812
0.023586 -0.134019 -0.112799
-0.0766886 -0.216502 0.189441
0.159317 0.0650776 -0.150158
-0.162491 -0.119143 0.105139
-0.10756 0.320098 0.00386637
0.0531516 -0.134019 -0.167396
-0.103954 -0.0987155 -0.0722437
-0.120816 0.329741 -0.00458048
-0.173854 0.381737 -0.0164223
-0.164838 0.379839 0.094767
-0.0751704 -0.242738 0.150096
-0.105641 0.33251 0.00995728
-0.13815 -0.0987155 0.167429
0.0852036 -0.0386427 -0.156414
-0.10665 0.123765 -0.0723868
-0.0539722 0.0743513 0.187367
-0.108211 -0.256484 -0.171504
-0.0959236 -0.376189 -0.174987
-0.114539 -0.0602831 -0.136882
-0.153162 0.313146 0.0466505
0.159201 -0.341151 -0.177976
0.151603 -0.134019 0.0723087
-0.124931 0.053358 -0.13868
-0.123221 0.0741466 0.0777073
-0.100982 -0.203267 -0.181599
0.141522 -0.285046 0.178039
-0.124478 0.33428 0.144555
0.174386 -0.109861 -0.0691479
0.063665 0.0589217 0.19129
-0.0887448 0.343804 -0.07593
0.0892366 -0.0625968 -0.153385
-0.0896107 -0.244069 0.14012
-0.115771 0.150789 -0.00330269
-0.0321918 -0.106562 0.0365788
-0.0976754 -0.0922863 -0.149233
-0.108211 -0.222745 0.165514
0.0664689 -0.106562 0.0117371
-0.145376 -0.134019 -0.0908201
-0.0556586 -0.106562 0.101102
-0.0977516 -0.394469 -0.170342
-0.124145 -0.0566238 0.144511
0.0851172 -0.0692111 0.17421
-0.137909 0.100074 0.00576282
-0.138987 0.200189 0.158599
0.056544 -0.0987155 -0.168485
-0.116294 -0.0987155 0.100509
-0.0900384 -0.207337 0.189441
0.0576112 -0.106562 0.0780757
-0.0762243 0.348652 0.125136
-0.0751704 -0.323078 0.156044
-0.12676 -0.000151441 -0.0826442
-0.0939579 -0.0987155 0.140496
-0.10567 0.185235 0.0921101
-0.150979 0.313146 -0.0532804
-0.106416 0.291989 -0.0606438
-0.0814889 -0.311094 -0.182832
-0.126287 0.290577 0.144793
-0.10908 0.420362 -0.0715088
0.108754 -0.106562 -0.0879915
-0.091157 -0.160211 -0.133511
-0.0997761 -0.134019 -0.0990651
0.129647 -0.105922 -0.0892111
-0.107013 0.173118 0.101619
-0.0751704 -0.256179 -0.169747
-0.0963227 -0.134019 1.80462e-05
-0.047648 -0.106562 -0.0610353
0.0953016 0.0585054 0.175493
-0.115411 0.147575 -0.0508633
-0.153613 -0.0987155 -0.118262
-0.0618813 -0.134019 -0.177254
-0.0702229 0.313146 0.141639
-0.0301553 -0.106562 0.143057
-0.167733 -0.118131 -0.0730385
-0.0741773 0.0782716 0.188776
-0.119402 0.0587263 -0.170237
-0.117791 0.313146 0.197952
-0.107287 0.150789 0.0199095
-0.0544574 0.329175 -0.17766
0.0756553 -0.134019 0.0700541
-0.157132 0.316541 -0.11967
0.174563 -0.246914 0.152951
0.152949 -0.139356 0.14012
-0.12255 0.0838679 0.077619
-0.0191302 0.0406724 -0.164561
-0.103636 0.318287 0.197423
-0.135691 0.101625 -0.0765183
-0.149531 0.354152 -0.143198
0.167699 -0.343087 0.152513
-0.128423 0.0691509 -0.141211
0.105587 -0.134019 0.154261
-0.13308 -0.134019 -0.0439501
-0.111817 -0.0291755 0.107755
-0.0537647 -0.134019 -0.0973933
-0.138942 0.325344 -0.0632135
-0.102982 -0.172985 0.171826
-0.133459 0.0293712 0.173981
-0.123054 0.0475539 -0.137902
-0.11809 0.313146 0.0155698
0.0426355 -0.106562 0.10573
-0.0884274 -0.134019 0.108533
0.0984615 0.0426056 0.17791
0.168712 -0.361141 -0.157428
-0.165496 -0.0987155 0.0786194
-0.0992437 0.313146 -0.0719593
-0.147154 0.405902 0.156203
0.098294 -0.0987155 0.170833
-0.0753186 -0.290101 0.189441
0.0683297 -0.134019 -0.00180674
0.141762 -0.334591 0.168624
0.0759159 0.0585054 0.182246
-0.128061 0.313146 0.16728
0.16782 -0.139654 -0.182832
-0.00533555 -0.0987155 -0.156059
0.166443 -0.0987155 0.0374132
-0.108211 -0.306761 0.159045
0.0895366 -0.0285809 -0.178865
0.14905 -0.0987155 -0.167898
0.020614 -0.106562 0.129976
0.0826673 -0.0729142 0.187646
0.0207319 0.0843343 -0.153612
-0.123683 0.0641114 0.0777681
-0.127316 0.337989 -0.0534242
-0.0573785 -0.134019 0.0352959
-0.124905 0.25388 -0.0828935
0.174563 -0.162559 0.157998
0.0229567 0.0843343 0.178098
0.0992773 0.0843343 -0.161825
-0.0140521 -0.134019 -0.0162058
0.159163 -0.0987155 0.00133528
-0.118024 0.0369107 0.0286458
-0.0457212 -0.0987155 0.150197
-0.102777 -0.35037 0.144435
0.105995 0.0433879 -0.149233
-0.0441778 -0.134019 0.145902
-0.00598093 0.0484769 -0.170458
0.128602 -0.134019 0.17621
-0.114243 -0.0987155 0.0895065
0.150212 -0.283591 -0.182832
-0.0487147 -0.134019 -0.0471231
-0.0915495 0.313146 0.0920268
-0.165596 0.313146 -0.0662407
-0.136976 -0.0592173 0.0859793
-0.133479 0.256101 -0.000478766
0.00706824 -0.106562 -0.102625
-0.0909882 -0.136364 -0.182832
-0.086737 -0.134019 0.0707117
-0.0846425 0.326009 -0.190454
-0.105811 -0.262623 0.14012
-0.0751704 -0.314987 -0.134835
-0.150066 0.417697 0.147647
0.0616865 0.0843343 0.182006
-0.170669 0.320106 -0.0540798
-0.065151 0.340754 0.152998
0.0629819 -0.134019 -0.177874
0.0247704 -0.134019 -0.118736
0.174386 -0.119481 -0.0108837
-0.147268 0.420362 -0.00472166
0.155896 -0.137863 -0.133511
-0.00650387 0.0482041 0.163153
-0.00439267 0.0493055 0.179368
-0.156439 -0.0987155 -0.00817512
-0.0807301 -0.349402 0.146534
-0.0132372 0.0551467 0.187368
0.0806807 -0.0476437 0.161939
-0.107332 -0.134019 -0.175519
-0.0129932 0.0686048 -0.153155
-0.131084 0.406058 0.195155
-0.109058 0.048242 0.1509
-0.122891 -0.0644681 -0.0493083
-0.141705 0.420362 -0.122907
-0.128205 0.00169247 0.145459
0.0968354 -0.0987155 -0.167864
0.0503523 -0.0870171 -0.167052
-0.157243 0.313146 -0.0634
0.0306462 -0.134019 -0.161484
-0.120887 0.337989 0.0886547
-0.0954547 0.347966 0.0381791
-0.0437126 -0.0987155 0.171684
0.114075 0.0843343 -0.15857
0.163421 -0.41146 0.147966
0.139786 -0.0987155 0.183966
-0.012733 -0.106562 -0.0768669
-0.105372 0.0691317 0.0947992
0.0558376 0.0585054 0.182159
0.112722 0.0746284 0.187368
-0.140926 0.405803 -0.165913
-0.080261 -0.0493976 -0.153623
-0.132626 0.271342 -0.0528835
-0.0751704 -0.279301 0.153115
-0.0492667 0.0408425 0.160483
0.0299336 -0.134019 0.00313899
-0.03098 0.0368729 0.155253
-0.0458844 -0.0987155 -0.166889
0.174386 -0.115717 -0.145648
0.0501985 0.0585054 -0.181774
-0.100018 -0.369096 0.158581
0.157948 -0.389885 -0.142664
0.039474 -0.106562 0.131639
-0.15777 0.394618 -0.117224
-0.0971928 -0.420362 0.163472
-0.0557872 -0.106562 -0.0297366
-0.102999 0.0188602 0.160947
-0.0825908 -0.341311 0.17084
0.108771 0.0755486 0.187368
-0.103475 -0.237544 0.14012
-0.105722 0.153818 0.0974626
-0.138379 0.338498 -0.171924
-0.0959631 -0.317768 0.189441
0.174563 -0.2738 0.184553
-0.135213 -0.134019 0.0590996
0.11443 -0.134019 0.166716
0.0549969 0.0730902 0.160483
-0.0958628 0.415214 -0.0284419
-0.137151 0.30831 -0.0579513
-0.0627046 0.329954 0.180074
0.056308 -0.0811481 -0.176816
-0.11916 0.0374099 -0.0496546
-0.0751704 -0.322952 0.167253
0.0713722 -0.134019 -0.15206
0.0514245 -0.134019 -0.0328973
-0.167873 -0.134019 -0.0400174
-0.0784019 -0.134019 0.163813
-0.0751704 -0.218456 0.143954
-0.117743 0.0393073 0.110925
-0.0444769 0.0843343 0.186389
-0.171508 0.326017 0.0524518
0.152365 -0.18996 -0.137434
-0.0782993 0.326191 0.119038
-0.117446 -0.0942044 -0.0824465
-0.0185152 -0.0987155 0.147547
-0.0422092 -0.106562 0.0301651
0.0460139 -0.106562 -0.0797112
-0.171013 -0.107991 0.0569611
-0.0882089 -0.134019 -0.0866221
-0.023957 -0.0987155 0.153214
-0.165757 0.344941 -0.083762
-0.139164 0.0442884 0.162601
0.100825 -0.0393873 0.171413
0.0837864 -0.126394 0.19129
0.158176 -0.134019 0.0182398
0.0173115 -0.106562 0.11362
-0.168044 0.381912 0.0773711
-0.138827 -0.0637131 -0.062344
-0.108211 -0.143013 0.189408
-0.110355 -0.0883061 0.106634
-0.142279 0.380039 0.168742
0.101748 -0.106562 -0.0863444
-0.083416 0.413496 -0.189934
-0.151781 0.313146 -0.0515479
0.141522 -0.167881 -0.178651
-0.102982 -0.178884 0.146921
0.162817 -0.0987155 0.126094
0.141522 -0.256904 -0.163575
0.174386 -0.11623 -0.165259
-0.126589 -0.130351 0.19129
-0.0993198 0.0512878 0.155253
-0.133741 0.0461572 -0.15441
-0.00895599 -0.119138 -0.185271
-0.155875 0.356693 -0.124491
0.150471 -0.338676 -0.14066
0.163736 -0.41814 -0.174987
-0.0751704 -0.290759 -0.15403
0.0975398 0.048888 0.167926
-0.150404 -0.0987155 0.0728773
0.174386 -0.113666 -0.134243
-0.0964397 0.364847 -0.0220677
-0.113787 -0.0987155 -0.162645
-0.10575 0.0291068 0.009128
-0.102999 -0.0614949 0.179148
0.0934992 -0.01637 -0.15322
0.144981 -0.134019 -0.144316
0.00243158 -0.134019 0.0989939
-0.1523 -0.0987155 0.072959
0.141522 -0.159874 -0.14904
-0.121538 0.241904 -0.00467555
0.174078 -0.134019 0.181462
-0.1495 0.381813 0.14931
-0.0796263 -0.134019 -0.167798
0.0418427 -0.108578 -0.185271
-0.161377 0.313146 0.0825284
-0.102785 -0.0245748 -0.149233
0.170489 -0.289885 0.189441
-0.173627 0.385943 0.0286615
-0.0510193 0.0296143 -0.18004
0.0415365 -0.106562 -0.052089
-0.157945 0.410849 -0.116553
-0.0872243 0.377193 -0.0819801
0.136969 -0.134019 -0.00824402
-0.08563 -0.38448 0.149496
-0.17246 0.332899 0.0437823
0.174386 -0.100309 -0.0104522
-0.106557 -0.134019 0.14825
-0.0751704 -0.156254 0.175003
-0.0794171 0.381486 0.115754
-0.0751704 -0.225071 0.188542
-0.101883 0.420362 0.0543088
-0.055724 -0.108691 -0.185271
-0.0934923 0.00296236 0.187367
-0.0905446 -0.134019 -0.146956
-0.118181 -0.0116142 -0.170397
0.0974098 0.0518362 -0.185271
0.0907871 -0.0990686 -0.185271
-0.137526 -0.134019 -0.110382
-0.108076 0.178419 -0.0753246
-0.0891622 -0.376206 -0.174987
-0.0751704 -0.140518 -0.1795
0.141522 -0.263502 0.171508
0.0288205 -0.130901 -0.185271
0.117828 0.0843343 0.164564
0.129647 -0.0987873 0.0888919
-0.139102 0.0766935 0.0963887
-0.0816604 -0.330213 -0.182832
-0.100506 0.0828968 -0.149004
0.166631 -0.236283 0.189441
-0.0798254 0.396591 0.187331
-0.0731709 0.0418435 0.187368
0.0457807 0.0718292 -0.18004
-0.0674896 0.317063 -0.183184
0.108654 0.0335908 -0.180784
0.148187 -0.0987155 -0.143858
-0.130978 -0.040278 0.026831
-0.102999 -0.00326055 -0.153812
-0.045392 0.0585135 -0.18004
-0.0632578 -0.134019 0.0420781
0.0769712 -0.0987155 -0.161691
-0.0817208 -0.0351245 0.155253
-0.166519 -0.0987155 -0.0340093
-0.165583 0.420362 -0.0346453
-0.0740006 -0.028389 0.167295
-0.166283 0.381387 -0.0809085
0.174386 -0.117229 0.0845298
-0.1204 -0.0987155 -0.134505
-0.0891216 0.0107197 -0.153155
-0.114818 -0.0987155 0.119137
-0.0366171 -0.134019 -0.0708277
-0.102828 -0.315712 0.189441
-0.173879 -0.116915 -0.015731
0.0770651 -0.134019 -0.155301
0.074596 0.0782716 -0.149808
-0.159652 0.334422 -0.110008
-0.126589 0.126757 0.144833
-0.103932 0.420362 0.163553
-0.026169 -0.134019 0.153046
-0.102999 0.0274643 0.164591
0.161655 -0.134019 0.0544897
0.0395552 -0.134019 0.126282
-0.0722973 0.0843343 -0.179372
-0.139042 0.183742 -0.0639772
-0.142593 0.420362 -0.0477792
-0.0993179 -0.331848 0.189441
-0.142793 0.420362 0.152755
-0.132766 0.214093 -0.00102594
0.131252 -0.0987155 -0.100248
0.0729376 -0.106562 -0.0436413
-0.137754 0.324095 -0.173398
-0.150468 0.323328 0.146465
-0.0444153 -0.134019 -0.127615
-0.139254 0.210136 -0.0655882
-0.101789 0.0597258 -0.161243
-0.174546 0.396896 0.00346906
-0.151126 0.408338 0.144531
0.106965 0.0552233 0.156915
-0.161217 -0.134019 -0.0108793
-0.151166 0.347353 -0.138394
-0.0202492 0.0843343 -0.180329
-0.151895 0.420362 0.133882
-0.105737 0.0290157 -0.0692231
-0.0691727 0.0592684 -0.153155
-0.120196 0.219604 -0.170132
-0.0292187 0.0334128 -0.159737
0.0535725 0.0731247 -0.153155
0.082231 -0.106562 0.0036208
-0.139254 -0.0232068 0.093947
0.174543 -0.285708 0.189441
-0.173557 0.38358 -0.0245579
0.0958295 -0.0503357 0.16923
-0.117362 0.182821 0.145093
0.0770514 -0.134019 0.105408
0.097538 -0.128193 0.19129
0.167892 0.0782728 0.184788
-0.158368 -0.134019 -0.113378
-0.1073 0.200128 -0.0739565
-0.0874314 0.359349 0.0872048
-0.129036 0.127753 -0.141768
-0.122666 0.00869571 -0.137741
0.0623902 -0.106562 -0.115347
0.0428026 -0.134019 0.060241
-0.113465 0.204383 -0.0806641
-0.092543 0.0746739 -0.184662
0.174386 -0.118006 -0.149732
0.174563 -0.222211 0.141756
0.141522 -0.289442 0.177148
-0.0814825 -0.106562 -0.121453
-0.0949243 0.387852 0.0430123
0.0075347 -0.13113 0.19129
0.158066 -0.18325 0.185519
0.110872 -0.00568388 -0.167943
0.0927838 -0.134019 -0.172121
-0.0693455 -0.0170443 0.189042
-0.103133 -0.314352 -0.182832
-0.132696 -0.0845764 -0.00107973
-0.105793 0.144038 -0.0696457
-0.165686 0.403496 0.090167
-0.0727532 0.407143 0.135061
0.0492689 -0.106562 -0.0341218
0.143316 -0.134019 0.0216912
-0.08563 -0.375451 0.161453
-0.0852569 -0.340985 0.145028
-0.113364 0.333398 0.108942
-0.107467 0.0121947 0.00409093
0.146751 -0.178824 -0.163084
-0.0610559 0.0671824 -0.153155
0.0501922 -0.106562 0.0688707
-0.134899 0.127148 0.105906
0.146961 -0.134019 -0.0351469
-0.0365098 -0.134019 0.144309
0.103984 -0.0307673 0.167308
-0.106603 0.420362 -0.0632372
0.0952448 0.0782716 0.188061
0.0271301 0.0628373 -0.185271
-0.127186 0.420362 0.0996053
-0.117163 0.0466024 -0.0501375
-0.0782724 0.322605 0.119117
-0.105819 0.327664 -0.0626234
0.0529318 0.0782966 -0.149233
-0.106988 0.156842 -0.139903
0.146751 -0.19816 0.144282
0.161276 -0.134019 -0.173205
-0.106977 0.00412706 0.0876451
0.0984034 0.00940466 -0.15105
-0.112315 0.420362 0.120295
-0.106289 -0.0881611 -0.140439
-0.174472 -0.118121 0.00549189
-0.126362 0.251401 0.144803
-0.154063 -0.131536 0.135901
-0.0488306 -0.106562 0.0264966
0.0108365 0.0595687 0.155253
-0.032921 0.0302025 -0.168888
0.0894734 -0.134019 0.127733
-0.116851 -0.0364721 0.0786227
-0.101624 -0.343969 -0.171182
-0.116991 -0.05168 0.110613
-0.0914843 0.377847 -0.0610632
0.0472702 -0.0899361 0.166441
-0.108211 -0.31515 0.148479
0.108657 0.0274311 -0.149233
-0.121509 0.0885397 0.17816
-0.15953 0.383222 -0.110475
-0.103707 -0.203267 -0.138133
0.0703581 -0.106562 -0.0254242
0.12314 -0.134019 0.0459115
0.0944327 -0.106562 -0.0522389
-0.123993 0.303955 0.0289965
0.148408 -0.242266 -0.133511
0.00422595 0.0843343 0.185271
-0.0565632 0.35407 0.177471
-0.0951627 -0.234044 0.14012
-0.123088 0.313146 0.0795606
-0.0581254 -0.0987155 -0.156378
-0.140223 -0.134019 -0.0484532
-0.127817 0.359334 -0.196843
0.0959096 0.0596624 -0.149233
0.0382628 -0.106562 -0.0519427
-0.0319756 -0.108422 -0.185271
0.0623826 -0.134019 -0.112979
-0.130133 0.420362 0.0559952
-0.0557896 0.340397 -0.169065
-0.126027 -0.0890803 -0.0827459
0.035792 -0.0987155 -0.156059
0.106983 0.0761122 0.187368
-0.170413 0.319646 0.0624272
-0.121247 0.0415999 -0.137155
-0.0649669 -0.134019 -0.0157958
-0.00957417 -0.105883 0.146551
-0.0383504 0.0843343 -0.169574
0.141522 -0.317196 -0.136677
0.0183802 -0.134019 0.177075
-0.08563 -0.381912 -0.162397
-0.0766189 -0.312049 -0.182832
0.00119392 0.0730072 0.187367
-0.149898 0.313146 -0.00216077
-0.0927005 -0.134019 -0.150077
0.127486 -0.0987155 -0.185124
-0.0791095 -0.148052 -0.182832
-0.0595039 -0.106562 -0.0729285
-0.100139 0.21607 -0.155728
-0.139076 0.20231 0.163268
-0.0770959 0.420362 -0.186884
0.150823 -0.0987155 -0.0286636
-0.0817417 -0.334591 0.158796
-0.0972031 0.038554 0.158426
0.100532 -0.134019 0.178636
-0.124859 0.271066 0.0288827
-0.115476 0.336124 0.0276135
-0.119059 0.215164 0.144706
0.149274 -0.0987155 -0.125342
-0.0751704 -0.211385 0.156777
-0.0858676 0.406535 -0.0871819
-0.114218 -0.134019 0.175288
0.144984 -0.0987155 0.133867
-0.1142 0.140138 0.17614
-0.0056794 -0.106562 0.0531346
-0.136602 0.0151712 -0.0571369
-0.0412149 -0.106479 0.19129
0.174386 -0.106008 0.103891
-0.117315 0.276456 0.0283754
-0.125813 0.41848 0.206822
-0.0807963 0.36509 0.111701
-0.127974 0.337989 -0.165778
-0.137032 -0.0541308 -0.0576974
-0.101686 0.169109 -0.146155
-0.131181 0.135836 -0.0806924
0.121196 -0.106148 -0.140532
-0.0751704 -0.277129 0.143931
-0.137319 0.149889 0.0200923
0.0909292 -0.134019 0.0400976
-0.0751704 -0.237363 -0.149895
-0.0876111 -0.334591 -0.177105
-0.134999 0.137068 -0.0550472
-0.0410468 -0.106562 -0.0475966
-0.12286 0.295564 -0.00471268
0.174563 -0.140691 -0.15366
-0.11344 0.269431 -0.170123
-0.102524 0.314413 -0.144567
-0.106205 0.102417 0.00713566
-0.0782132 0.420362 0.161876
-0.116259 -0.0765818 0.176993
-0.0584807 0.403909 -0.162715
0.00890089 0.0552343 0.160416
0.123581 -0.106562 -0.119212
0.15101 -0.230667 0.189441
0.0423442 0.081513 0.19129
-0.170407 -0.111199 -0.0564681
-0.102999 -0.0823314 -0.17125
-0.12891 0.115546 0.176791
-0.106074 0.420362 0.0621093
-0.0836407 -0.0987155 -0.167599
0.0405017 -0.134019 -0.0602306
-0.0446793 -0.106562 -0.00550818
0.0304248 -0.134019 0.00904011
-0.089811 0.405284 -0.0701438
-0.161971 0.411875 0.107135
-0.093955 -0.134019 -0.149786
-0.139099 0.221872 -0.0644136
0.00565068 -0.123133 -0.185271
-0.108211 -0.285468 0.171435
0.00690924 -0.0987155 0.149163
-0.0751704 -0.147339 0.164393
-0.0667338 0.0184159 0.160483
-0.118648 0.337989 0.00856114
0.0672904 -0.0684862 0.158934
-0.0969132 0.365519 0.0151048
-0.00426546 0.0629573 -0.18004
-0.09906 0.0760601 0.160316
-0.15164 -0.0987155 0.0301037
