ply
format ascii 1.0
comment Created by Open3D
element vertex 718
property double x
property double y
property double z
end_header
-0.175834 -0.221733 0.374821
-0.133334 -0.225219 0.37433
-0.198953 -0.206794 0.383228
-0.0721378 -0.226632 0.37439
-0.209922 -0.19185 0.37549
-0.133275 -0.205649 0.374333
-0.0721624 -0.214619 0.374389
-0.186825 -0.187291 0.374274
-0.00143868 -0.225001 0.374454
-0.216735 -0.172353 0.377468
-0.13345 -0.186025 0.374325
0.0815705 -0.226661 0.374538
-0.170476 -0.22426 -0.383627
-0.00137782 -0.205589 0.374456
-0.186825 -0.166335 0.374274
-0.185608 -0.217843 -0.38743
-0.185533 -0.216954 -0.37463
-0.145536 -0.225287 -0.374592
-0.133463 -0.174833 0.374324
-0.124359 -0.226024 -0.374574
-0.0722954 -0.184576 0.374383
-0.102336 -0.22679 -0.374556
-0.218479 -0.152039 0.375039
-0.145535 -0.214473 -0.374593
-0.204779 -0.200136 -0.387042
-0.180691 -0.204013 -0.37463
-0.124361 -0.214998 -0.374572
-0.0794255 -0.223761 -0.374529
-0.0616109 -0.227235 -0.374515
0.0814416 -0.205552 0.374533
-0.199771 -0.196869 -0.374651
-0.00150532 -0.186139 0.374451
-0.0369893 -0.224103 -0.374489
-0.024277 -0.226498 -0.374481
0.179742 -0.217038 0.374626
-0.112456 -0.159078 0.375304
-0.186768 -0.14539 0.374277
-0.213639 -0.184078 -0.37466
-0.102337 -0.204298 -0.374555
0.00196493 -0.223247 -0.374453
0.022414 -0.226962 -0.374434
-0.215073 -0.181128 -0.385945
-0.0794212 -0.204637 -0.374532
-0.0242826 -0.21447 -0.374477
0.043556 -0.226568 -0.374414
-0.0798022 -0.159079 0.376827
-0.155816 -0.187442 -0.374606
-0.11893 -0.193898 -0.374574
-0.0616108 -0.203929 -0.374516
0.0580516 -0.22487 -0.3744
0.0813633 -0.184456 0.37453
-0.218479 -0.131934 0.375039
-0.135047 -0.187437 -0.374585
-0.0369861 -0.204272 -0.374492
0.0224119 -0.214469 -0.374432
0.0880619 -0.225739 -0.374373
-0.00150901 -0.166715 0.374451
-0.0456079 -0.159079 0.375546
-0.186768 -0.134911 0.374277
-0.185535 -0.175298 -0.374629
0.0435531 -0.213863 -0.374412
0.119499 -0.226648 -0.37434
0.179923 -0.19402 0.374632
-0.0269875 -0.159079 0.376357
0.144087 -0.226217 -0.374317
-0.209057 -0.164553 -0.374658
-0.145537 -0.174822 -0.374591
-0.024277 -0.194427 -0.374481
0.160988 -0.224379 -0.374304
-0.19032 -0.164127 -0.37464
-0.170882 -0.167205 -0.37462
-0.124364 -0.17457 -0.37457
-0.061616 -0.184506 -0.374512
0.00196826 -0.194574 -0.374456
0.0580518 -0.203454 -0.3744
0.119498 -0.213183 -0.374339
0.032499 -0.159079 0.375828
-0.219202 -0.156807 -0.386288
-0.102344 -0.174308 -0.374549
-0.0369918 -0.184438 -0.374488
0.0224164 -0.193647 -0.374435
0.0880588 -0.203822 -0.374371
0.178297 -0.217809 -0.374282
0.0544013 -0.15908 0.376716
-0.0794275 -0.174036 -0.374527
0.179612 -0.174763 0.374622
0.0795214 -0.159081 0.384257
0.144086 -0.203367 -0.374317
0.100006 -0.15908 0.375228
-0.218479 -0.11183 0.375039
-0.160882 -0.154575 -0.374613
-0.13452 -0.159074 -0.388339
-0.0242864 -0.174381 -0.374474
0.0435493 -0.184218 -0.37441
0.169587 -0.202494 -0.374292
0.196054 -0.206332 -0.374266
0.124971 -0.15908 0.376163
-0.209054 -0.144197 -0.374661
-0.108481 -0.159074 -0.387645
0.00195944 -0.174091 -0.374449
0.0728753 -0.184138 -0.374381
0.151111 -0.15908 0.377142
-0.180688 -0.144728 -0.374633
-0.0811864 -0.159074 -0.386917
-0.0369868 -0.164607 -0.374491
0.103587 -0.184054 -0.374352
0.119495 -0.186254 -0.374337
-0.219202 -0.136573 -0.386288
-0.0525447 -0.159074 -0.386154
-0.186768 -0.106095 0.374277
-0.0237495 -0.159074 -0.389159
0.0224124 -0.164495 -0.374433
0.196051 -0.187359 -0.374264
0.00787216 -0.159073 -0.388414
0.0580474 -0.164904 -0.374397
0.12759 -0.173829 -0.374328
0.169579 -0.179218 -0.374287
0.0411801 -0.159073 -0.38763
0.0880533 -0.164372 -0.374368
0.179804 -0.14406 0.374628
0.151281 -0.140386 0.377148
-0.199771 -0.124969 -0.374652
0.0763129 -0.159073 -0.386802
0.196046 -0.173128 -0.374261
-0.218479 -0.0917257 0.375039
-0.170878 -0.124964 -0.374623
0.113425 -0.159073 -0.385929
0.160975 -0.164235 -0.374296
-0.219202 -0.11634 -0.386288
-0.21817 -0.116005 -0.37467
0.15055 -0.158981 -0.388947
0.178292 -0.1616 -0.374279
0.196047 -0.154155 -0.374262
0.179771 -0.124848 0.374627
0.151281 -0.121668 0.377148
-0.186768 -0.0851382 0.374277
0.150562 -0.144781 -0.378379
-0.199771 -0.104426 -0.374652
0.169581 -0.141978 -0.374288
-0.160882 -0.104827 -0.374613
-0.219202 -0.0961073 -0.386288
-0.21817 -0.0958306 -0.37467
-0.218479 -0.0716215 0.375039
-0.180688 -0.0959041 -0.374633
0.205093 -0.131268 -0.374253
0.174221 -0.106149 0.341957
0.15055 -0.122116 -0.388947
0.174259 -0.106147 0.213406
0.181943 -0.106144 0.236144
0.188328 -0.10614 0.255092
0.188921 -0.105271 0.285805
0.18895 -0.104368 0.316028
0.188978 -0.103479 0.345737
0.151281 -0.0992061 0.377148
0.169581 -0.118703 -0.374288
0.1743 -0.106145 0.0747772
0.180978 -0.106145 0.0944661
0.184959 -0.106143 0.106284
0.18877 -0.105884 0.126481
0.188798 -0.105052 0.155395
0.188817 -0.104465 0.175772
0.188836 -0.103885 0.195922
0.188855 -0.103312 0.21585
-0.186768 -0.0668007 0.374277
-0.190317 -0.0846554 -0.374642
0.174344 -0.106144 -0.0751638
0.181309 -0.106145 -0.054676
0.188221 -0.106141 -0.0341714
0.188644 -0.10543 -0.0072763
0.188656 -0.10506 0.00609151
0.188681 -0.104329 0.0325477
0.188694 -0.103967 0.0456382
0.188999 -0.0950625 0.367689
0.205093 -0.112175 -0.374253
0.174391 -0.106142 -0.23786
0.1802 -0.106143 -0.220774
0.187442 -0.106142 -0.199407
0.18848 -0.105713 -0.180229
0.188498 -0.105197 -0.160779
0.188516 -0.104686 -0.141517
0.188534 -0.104181 -0.122442
0.188557 -0.103555 -0.0988557
0.188574 -0.10306 -0.0801896
0.188877 -0.0945826 0.239475
0.188896 -0.0940667 0.258927
-0.219202 -0.0758742 -0.386288
-0.21817 -0.0756557 -0.37467
0.150562 -0.103415 -0.378379
0.1883 -0.106023 -0.369616
0.188321 -0.105482 -0.348278
0.188336 -0.105079 -0.332418
0.188355 -0.104547 -0.311458
0.188375 -0.10402 -0.290709
0.188395 -0.103498 -0.270169
0.188414 -0.102982 -0.249833
0.188718 -0.0948217 0.0715485
0.188734 -0.0943881 0.0886246
0.188754 -0.0938516 0.109751
-0.170878 -0.0756826 -0.374623
0.169581 -0.100083 -0.374288
0.188592 -0.0938404 -0.0617011
0.188614 -0.0932856 -0.0388364
0.188914 -0.0855942 0.278167
0.188935 -0.0850407 0.300982
0.188953 -0.0845848 0.31977
0.188971 -0.0841338 0.338357
0.151281 -0.080488 0.377148
0.18877 -0.0851223 0.126481
0.188798 -0.0844534 0.155395
0.188817 -0.0839819 0.175772
-0.218479 -0.0515172 0.375039
0.188433 -0.088808 -0.229699
0.188493 -0.0873979 -0.165623
0.188635 -0.0841107 -0.0162404
0.188656 -0.0836192 0.00609151
0.188995 -0.0757421 0.36405
-0.180688 -0.0645173 -0.374633
0.1883 -0.0871748 -0.369616
0.188321 -0.0867293 -0.348278
0.188336 -0.0863982 -0.332418
0.188404 -0.0848858 -0.259975
0.188452 -0.0838375 -0.209765
0.18847 -0.0834254 -0.190026
0.188836 -0.0753679 0.195922
0.188855 -0.0749519 0.21585
0.188873 -0.0745404 0.23556
0.188892 -0.0741334 0.255054
0.15055 -0.0806426 -0.388947
0.169581 -0.0814628 -0.374288
0.188539 -0.0774876 -0.117702
0.188557 -0.0771154 -0.0988557
0.188574 -0.0767468 -0.0801896
0.188677 -0.074607 0.028164
0.188698 -0.0741761 0.0499814
0.188718 -0.0737502 0.0715485
-0.218548 -0.0454063 0.30272
-0.218527 -0.0449682 0.324904
-0.218508 -0.0445858 0.344267
-0.21849 -0.0442098 0.363303
-0.219202 -0.055641 -0.386288
-0.21817 -0.0554808 -0.37467
-0.199771 -0.0564928 -0.374652
0.188355 -0.0766676 -0.311458
0.188375 -0.0762812 -0.290709
0.188489 -0.0740425 -0.17048
0.188507 -0.0736821 -0.151125
-0.218681 -0.0454173 0.162778
-0.21866 -0.0450039 0.184983
-0.218642 -0.0446482 0.204083
-0.218624 -0.0442982 0.222884
-0.218604 -0.0439047 0.244013
-0.218584 -0.0435183 0.26477
-0.218574 -0.0433275 0.275012
-0.160882 -0.0550783 -0.374613
0.1883 -0.0730383 -0.369616
0.188433 -0.0705909 -0.229699
-0.218832 -0.0454298 0.00469783
-0.218813 -0.0450989 0.0236148
-0.218793 -0.0447189 0.0453392
-0.218767 -0.0442397 0.0727384
-0.218747 -0.043874 0.0936462
-0.218727 -0.0435143 0.114211
-0.218708 -0.0431604 0.134442
-0.219003 -0.045444 -0.175293
-0.218993 -0.0452665 -0.164441
-0.218966 -0.0447997 -0.135914
-0.218945 -0.0444559 -0.114901
-0.218926 -0.0441173 -0.094209
-0.2189 -0.0436738 -0.0671047
-0.218881 -0.0433469 -0.0471314
-0.218862 -0.043025 -0.0274548
-0.219164 -0.0448928 -0.344828
-0.219145 -0.0445835 -0.324527
-0.219126 -0.0442785 -0.304504
-0.219107 -0.0439776 -0.284754
-0.219078 -0.0435045 -0.253705
-0.21906 -0.043214 -0.234636
-0.219031 -0.0427572 -0.204651
-0.219202 -0.035408 -0.386288
-0.219192 -0.035259 -0.373726
-0.218548 -0.0272438 0.30272
-0.21847 -0.0262767 0.384339
-0.218694 -0.0263004 0.148692
-0.218676 -0.0260895 0.168368
-0.219003 -0.0266396 -0.175293
-0.218993 -0.0265355 -0.164441
-0.21885 -0.0250973 -0.0144987
-0.218823 -0.0248221 0.0141909
-0.219164 -0.0249404 -0.344828
-0.219145 -0.0247686 -0.324527
-0.219126 -0.0245991 -0.304504
-0.219107 -0.024432 -0.284754
-0.218629 -0.01749 0.217543
-0.218609 -0.0173343 0.238766
-0.218589 -0.0171814 0.259615
-0.218572 -0.0170497 0.277558
-0.218534 -0.0167563 0.317557
-0.218513 -0.0165957 0.339457
-0.218494 -0.0164555 0.358574
-0.219042 -0.0174889 -0.215821
-0.219031 -0.0174196 -0.204651
-0.218969 -0.0170149 -0.139447
-0.218952 -0.0169058 -0.12187
-0.218932 -0.0167767 -0.101071
-0.218913 -0.0166496 -0.0805884
-0.218894 -0.0165244 -0.0604136
-0.218875 -0.016401 -0.0405399
-0.218808 -0.0159641 0.0298593
-0.21879 -0.0158489 0.0484128
-0.21877 -0.0157167 0.069723
-0.218752 -0.015605 0.0877079
-0.218733 -0.0154768 0.10837
-0.218713 -0.0153507 0.128695
-0.218657 -0.0149842 0.18773
-0.219202 -0.0151748 -0.386288
-0.219192 -0.015111 -0.373726
-0.219078 -0.0145015 -0.253705
-0.21885 -0.00738155 -0.0144987
-0.218689 -0.00690521 0.154346
-0.21867 -0.00684995 0.173931
-0.218548 -0.00648661 0.30272
-0.218474 -0.00626944 0.379699
-0.219164 -0.00498809 -0.344828
-0.219145 -0.00495373 -0.324527
-0.219126 -0.00491984 -0.304504
-0.219107 -0.0048864 -0.284754
-0.21906 -0.00480157 -0.234636
-0.219031 -0.00475081 -0.204651
-0.219003 -0.00470112 -0.175293
-0.218993 -0.00468275 -0.164441
-0.218966 -0.00463446 -0.135914
-0.218945 -0.00459889 -0.114901
-0.218926 -0.00456386 -0.094209
-0.2189 -0.00451798 -0.0671047
-0.21849 -0.00126315 0.363303
-0.219202 0.00505826 -0.386288
-0.219192 0.00503699 -0.373726
-0.218881 0.00448415 -0.0471314
-0.218862 0.00445085 -0.0274548
-0.218823 0.00438035 0.0141909
-0.218805 0.00434856 0.0329703
-0.218793 0.00432763 0.0453392
-0.218767 0.00428125 0.0727384
-0.218747 0.00424586 0.0936462
-0.218727 0.00421105 0.114211
-0.218708 0.0041768 0.134442
-0.218631 0.00404067 0.214863
-0.218614 0.00400913 0.233496
-0.218594 0.00397368 0.254437
-0.218574 0.00393886 0.275012
-0.218527 0.0038544 0.324904
-0.218508 0.00382163 0.344267
-0.219078 0.0145015 -0.253705
-0.21885 0.0132868 -0.0144987
-0.2187 0.0152618 0.143012
-0.218681 0.0151391 0.162778
-0.21866 0.0150013 0.184983
-0.218548 0.0142706 0.30272
-0.21847 0.013764 0.384339
-0.219024 0.0205326 -0.197253
-0.219202 0.0252914 -0.386288
-0.219192 0.025185 -0.373726
-0.219164 0.0249404 -0.344828
-0.219145 0.0247686 -0.324527
-0.219126 0.0245992 -0.304504
-0.219107 0.024432 -0.284754
-0.219059 0.0240078 -0.234636
-0.219003 0.0235056 -0.175293
-0.218993 0.0234137 -0.164441
-0.218966 0.0231723 -0.135914
-0.218945 0.0229944 -0.114901
-0.218926 0.0228193 -0.094209
-0.2189 0.0225899 -0.0671047
-0.21849 0.0189471 0.363303
-0.218881 0.0254103 -0.0471314
-0.218862 0.0252215 -0.0274548
-0.21885 0.0250973 -0.0144987
-0.218823 0.0248221 0.0141909
-0.218805 0.0246419 0.0329703
-0.218793 0.0245233 0.0453392
-0.218767 0.0242605 0.0727384
-0.218747 0.0240599 0.0936462
-0.218727 0.0238627 0.114211
-0.218642 0.0230006 0.204083
-0.218624 0.0228203 0.222884
-0.218604 0.0226176 0.244013
-0.218584 0.025056 0.26477
-0.218574 0.0249462 0.275012
-0.218527 0.0244113 0.324904
-0.218508 0.0242037 0.344267
-0.219078 0.0338369 -0.253705
-0.218966 0.0355308 -0.135914
-0.218945 0.0352581 -0.114901
-0.219024 0.0394857 -0.197253
-0.218738 0.0352573 0.102501
-0.219202 0.0455245 -0.386288
-0.219192 0.045333 -0.373726
-0.219164 0.0448928 -0.344828
-0.219145 0.0445835 -0.324527
-0.219126 0.0442785 -0.304504
-0.219107 0.0439776 -0.284754
-0.219059 0.0432141 -0.234636
-0.218548 0.0350277 0.30272
-0.21847 0.0337843 0.384339
-0.219003 0.0454441 -0.175293
-0.218993 0.0452665 -0.164441
-0.218926 0.0441173 -0.094209
-0.2189 0.0436738 -0.0671047
-0.218832 0.0454298 0.00469783
-0.218813 0.0450989 0.0236148
-0.218793 0.0447189 0.0453392
-0.218767 0.0442397 0.0727384
-0.218719 0.0433619 0.122922
-0.2187 0.0430105 0.143012
-0.218681 0.0426648 0.162778
-0.21849 0.0391573 0.363303
-0.219078 0.0531722 -0.253705
-0.21866 0.0450039 0.184983
-0.218642 0.0446482 0.204083
-0.218624 0.0442982 0.222884
-0.218604 0.0439048 0.244013
-0.218574 0.0433276 0.275012
-0.219042 0.0556466 -0.215821
-0.219031 0.055426 -0.204651
-0.218527 0.0449682 0.324904
-0.218508 0.0445858 0.344267
-0.218881 0.0553047 -0.0471314
-0.218862 0.054894 -0.0274548
-0.219202 0.0657576 -0.386288
-0.219192 0.065481 -0.373726
-0.219164 0.0648451 -0.344828
-0.219145 0.0643984 -0.324527
-0.219126 0.0639578 -0.304504
-0.219107 0.0635231 -0.284754
-0.218747 0.0551963 0.0936462
-0.218965 0.0633375 -0.135914
-0.218945 0.0628514 -0.114901
-0.218624 0.0550371 0.222884
-0.218584 0.0540681 0.26477
-0.218926 0.0654153 -0.094209
-0.2189 0.0647576 -0.0671047
-0.218517 0.0550107 0.334627
-0.21847 0.0538045 0.384339
-0.219078 0.0725076 -0.253705
-0.218805 0.0652287 0.0329703
-0.218793 0.0649146 0.0453392
-0.218767 0.0642189 0.0727384
-0.218727 0.0631659 0.114211
-0.218708 0.0626522 0.134442
-0.219059 0.0752245 -0.234636
-0.219003 0.0736507 -0.175293
-0.218993 0.0733629 -0.164441
-0.218689 0.0649089 0.154346
-0.218642 0.0635899 0.204083
-0.218604 0.062531 0.244013
-0.21849 0.0593675 0.363303
-0.218955 0.0754044 -0.125367
-0.218945 0.0751151 -0.114901
-0.218862 0.0726974 -0.0274548
-0.218574 0.0643348 0.275012
-0.218548 0.0635688 0.30272
-0.219188 0.0855092 -0.369563
-0.219168 0.0849153 -0.348922
-0.219149 0.0843295 -0.328565
-0.219134 0.0838666 -0.312481
-0.219111 0.0831818 -0.288682
-0.219092 0.0826196 -0.269145
-0.219024 0.0805508 -0.197253
-0.21885 0.0752918 -0.0144987
-0.218823 0.0744662 0.0141909
-0.219074 0.0852832 -0.249871
-0.218755 0.0752771 0.0847282
-0.21867 0.0726094 0.173931
-0.213823 0.0932541 -0.387114
-0.218975 0.0852948 -0.146542
-0.2189 0.0828296 -0.0671048
-0.218584 0.0725304 0.26477
-0.218881 0.0851992 -0.0471314
-0.219089 0.0954505 -0.26527
-0.219006 0.0925762 -0.178929
-0.218793 0.0851103 0.0453392
-0.218738 0.0832073 0.102501
-0.218719 0.0825275 0.122922
-0.21772 0.0738971 0.384388
-0.218922 0.0926808 -0.090791
-0.2187 0.0846336 0.143012
-0.218652 0.0829059 0.193206
-0.219192 0.105777 -0.373726
-0.219164 0.10475 -0.344828
-0.219145 0.104028 -0.324527
-0.219126 0.103316 -0.304504
-0.219031 0.0997669 -0.204651
-0.218865 0.0935839 -0.0307139
-0.218631 0.0848544 0.214863
-0.218614 0.084192 0.233496
-0.218574 0.0827162 0.275012
-0.21849 0.0795777 0.363303
-0.219059 0.104034 -0.234636
-0.218829 0.0951398 0.0078699
-0.218808 0.0943333 0.0298593
-0.218548 0.084326 0.30272
-0.218527 0.0835123 0.324904
-0.218508 0.0828022 0.344267
-0.218955 0.103104 -0.125367
-0.218945 0.102708 -0.114901
-0.218752 0.0950489 0.0877079
-0.2189 0.103913 -0.0671048
-0.218684 0.0950727 0.159974
-0.219107 0.115645 -0.284754
-0.219078 0.114401 -0.253705
-0.218862 0.105337 -0.0274549
-0.21885 0.104818 -0.0144987
-0.218619 0.0950951 0.228202
-0.218599 0.0942525 0.249237
-0.219024 0.115298 -0.197253
-0.219003 0.114394 -0.175293
-0.218992 0.113947 -0.164441
-0.218793 0.105306 0.0453392
-0.218767 0.104177 0.0727384
-0.219184 0.125573 -0.365412
-0.219164 0.124702 -0.344828
-0.219145 0.123843 -0.324527
-0.219126 0.122996 -0.304504
-0.218955 0.115415 -0.125367
-0.218926 0.114096 -0.0942091
-0.218727 0.105276 0.114211
-0.218708 0.10442 0.134442
-0.212383 0.0949873 0.37536
-0.219059 0.12324 -0.234636
-0.218881 0.115094 -0.0471315
-0.21866 0.105009 0.184983
-0.218642 0.104179 0.204083
-0.218822 0.11535 0.0141909
-0.218805 0.114513 0.0329702
-0.218574 0.103724 0.275012
-0.218494 0.0999987 0.358574
-0.218945 0.12417 -0.114901
-0.218755 0.115046 0.0847282
-0.218548 0.105083 0.30272
-0.218527 0.104069 0.324904
-0.218508 0.103184 0.344267
-0.219118 0.135744 -0.296572
-0.219107 0.13519 -0.284754
-0.219078 0.133736 -0.253705
-0.218909 0.12547 -0.0772048
-0.21885 0.122534 -0.0144987
-0.2187 0.115157 0.143012
-0.219052 0.135682 -0.22708
-0.219003 0.133198 -0.175293
-0.218992 0.132678 -0.164441
-0.218642 0.115003 0.204083
-0.218594 0.112588 0.254437
-0.219184 0.145665 -0.365412
-0.219164 0.144654 -0.344828
-0.219145 0.143658 -0.324527
-0.219031 0.137773 -0.204651
-0.218784 0.12505 0.054538
-0.202215 0.111634 0.375896
-0.218862 0.135009 -0.0274549
-0.218681 0.125242 0.162778
-0.218992 0.145165 -0.164441
-0.218965 0.143668 -0.135914
-0.218945 0.142565 -0.114901
-0.218813 0.135297 0.0236147
-0.218624 0.12484 0.222884
-0.218499 0.117969 0.353825
-0.219118 0.155369 -0.296572
-0.219078 0.153072 -0.253705
-0.21889 0.142532 -0.0570807
-0.218738 0.133978 0.102501
-0.218719 0.132883 0.122922
-0.218574 0.124731 0.275012
-0.219059 0.15525 -0.234636
-0.21885 0.143202 -0.0144988
-0.218527 0.124626 0.324904
-0.184301 0.127311 0.376841
-0.219184 0.165757 -0.365412
-0.219164 0.164607 -0.344828
-0.219145 0.163473 -0.324527
-0.219003 0.155137 -0.175293
-0.21866 0.135012 0.184983
-0.218481 0.124526 0.372702
-0.219107 0.164509 -0.284754
-0.219031 0.159944 -0.204651
-0.218955 0.155426 -0.125367
-0.218925 0.15365 -0.0942092
-0.218784 0.145173 0.0545379
-0.218767 0.144136 0.0727383
-0.218604 0.134375 0.244013
-0.218584 0.133192 0.26477
-0.21907 0.165517 -0.246047
-0.2189 0.155117 -0.0671048
-0.218738 0.14526 0.102501
-0.2187 0.142906 0.143012
-0.218548 0.133624 0.30272
-0.21885 0.155013 -0.0144988
-0.219126 0.175474 -0.304504
-0.218945 0.164027 -0.114901
-0.218804 0.155099 0.0329702
-0.218642 0.144769 0.204083
-0.218624 0.143633 0.222884
-0.218919 0.1654 -0.0873817
-0.218881 0.162925 -0.0471315
-0.218604 0.145019 0.244013
-0.218574 0.143112 0.275012
-0.218499 0.138265 0.353825
-0.219184 0.185848 -0.365412
-0.219164 0.184559 -0.344828
-0.219145 0.183288 -0.324527
-0.219024 0.175316 -0.197253
-0.218992 0.173261 -0.164441
-0.218862 0.164682 -0.0274549
-0.218719 0.155264 0.122922
-0.218681 0.152767 0.162778
-0.218527 0.142613 0.324904
-0.219107 0.184054 -0.284754
-0.218822 0.164994 0.0141908
-0.219078 0.185297 -0.253705
-0.219059 0.18406 -0.234636
-0.218784 0.165296 0.0545379
-0.218767 0.164115 0.0727383
-0.218481 0.144651 0.372702
-0.219003 0.183343 -0.175293
-0.218738 0.165004 0.102501
-0.218584 0.154292 0.26477
-0.219126 0.195153 -0.304504
-0.218986 0.185266 -0.157254
-0.218965 0.183833 -0.135914
-0.21884 0.175034 -0.00486517
-0.2187 0.165105 0.143012
-0.218557 0.155053 0.292721
-0.218945 0.185488 -0.114901
-0.218804 0.175393 0.0329702
-0.21866 0.165014 0.184983
-0.218642 0.16371 0.204083
-0.219176 0.205366 -0.357144
-0.219164 0.204511 -0.344828
-0.219145 0.203103 -0.324527
-0.219041 0.195558 -0.215821
-0.2189 0.185237 -0.0671048
-0.218881 0.183851 -0.0471316
-0.218624 0.165111 0.222884
-0.219107 0.2036 -0.284754
-0.219031 0.19795 -0.204651
-0.218862 0.185453 -0.0274549
-0.218499 0.158561 0.353825
-0.218955 0.195436 -0.125367
-0.218925 0.193203 -0.0942092
-0.218681 0.174788 0.162778
-0.218538 0.16405 0.312632
-0.218767 0.184094 0.0727383
-0.218517 0.165032 0.334627
-0.219137 0.215718 -0.316485
-0.219003 0.205282 -0.175293
-0.218719 0.183239 0.122922
-0.218604 0.174289 0.244013
-0.218584 0.172754 0.26477
-0.218481 0.164776 0.372702
-0.219089 0.215168 -0.26527
-0.219078 0.2143 -0.253705
-0.219176 0.225402 -0.357144
-0.219164 0.224464 -0.344828
-0.219052 0.215495 -0.22708
-0.218925 0.205374 -0.0942092
-0.218793 0.194744 0.0453391
-0.218642 0.182652 0.204083
-0.219126 0.224672 -0.304504
-0.218992 0.213845 -0.164441
-0.218881 0.204777 -0.0471316
-0.218747 0.193895 0.0936461
-0.219031 0.220121 -0.204651
-0.218945 0.213082 -0.114901
-0.21885 0.205207 -0.0144988
-0.218822 0.202957 0.0141907
-0.218727 0.195112 0.114211
-0.2187 0.192854 0.143012
-0.218574 0.182501 0.275012
-0.218804 0.204383 0.0329702
-0.218681 0.194056 0.162778
-0.218548 0.182922 0.30272
-0.218499 0.178857 0.353825
-0.2189 0.215357 -0.0671048
-0.218767 0.204073 0.0727383
-0.21866 0.195017 0.184983
-0.218965 0.223999 -0.135914
-0.218862 0.215125 -0.027455
-0.218747 0.205217 0.0936461
-0.218624 0.194643 0.222884
-0.218604 0.192915 0.244013
-0.218945 0.225345 -0.114901
-0.218584 0.193854 0.26477
-0.218481 0.184902 0.372702
-0.218881 0.222714 -0.0471316
-0.218793 0.21494 0.045339
-0.218681 0.205066 0.162778
-0.218642 0.2043 0.204083
-0.218538 0.195051 0.312632
-0.218517 0.193177 0.334627
-0.21884 0.225044 -0.00486523
-0.218813 0.222585 0.0236147
-0.218708 0.213018 0.134442
-0.218574 0.203508 0.275012
-0.218767 0.224053 0.0727383
-0.218499 0.199152 0.353825
-0.218747 0.225031 0.0936461
-0.218727 0.223186 0.114211
-0.218642 0.215123 0.204083
-0.218624 0.213437 0.222884
-0.218603 0.214202 0.244013
-0.218481 0.202512 0.372702
-0.218689 0.22511 0.154346
-0.218584 0.214954 0.26477
-0.21866 0.225019 0.184983
-0.218517 0.213646 0.334627
-0.218574 0.224516 0.275012
-0.218548 0.224437 0.30272
-0.218499 0.219448 0.353825
-0.218481 0.222637 0.372702
