ply
format ascii 1.0
comment Created by Open3D
element vertex 840
property double x
property double y
property double z
end_header
0.166149 -0.180153 0.381685
0.167915 -0.16144 0.375821
-0.10993 -0.184137 0.375803
0.168523 -0.139745 0.369879
0.169431 -0.181487 -0.369081
0.166732 -0.131372 0.354673
-0.110144 -0.160463 0.364255
0.169614 -0.16081 -0.363877
-0.106259 -0.155336 0.37596
0.165927 -0.121386 0.366712
-0.115554 -0.183049 -0.369916
-0.102618 -0.138946 0.372303
0.169799 -0.140205 -0.35869
-0.103918 -0.166895 -0.373934
0.168996 -0.102382 0.360895
-0.095378 -0.122394 0.365028
0.162473 -0.124531 -0.354773
-0.102127 -0.146313 -0.361124
-0.0927012 -0.11051 0.353712
0.167741 -0.0805369 0.357783
-0.101248 -0.126194 -0.354769
0.162616 -0.0998613 -0.349633
-0.0928255 -0.0945601 0.349867
-0.0959436 -0.10593 -0.351322
0.167302 -0.0616912 0.354718
0.168213 -0.0790082 -0.345004
-0.0851181 -0.073961 0.350368
-0.086588 -0.090707 -0.356677
0.168665 -0.0494485 0.330335
0.168466 -0.0498279 0.311624
0.16823 -0.0502781 0.289428
0.168024 -0.0506704 0.270081
0.167815 -0.0510689 0.25043
0.167603 -0.0514737 0.230468
0.167388 -0.051885 0.210186
0.135705 -0.0474226 0.352253
0.16917 -0.0488239 0.190088
0.168965 -0.0492194 0.169194
0.168791 -0.049554 0.151522
0.168579 -0.0499615 0.129997
0.1684 -0.0503063 0.111786
0.168182 -0.0507264 0.0895993
0.167997 -0.0510818 0.070825
0.16781 -0.0514423 0.0517858
0.16762 -0.0518079 0.032476
-0.0869938 -0.0709077 -0.345505
0.167221 -0.0587201 -0.340843
-0.0846125 -0.053883 0.354212
0.0565921 -0.0476481 0.352854
0.0976545 -0.0458335 0.352542
0.169524 -0.0485387 0.00989515
0.169344 -0.0488883 -0.00997794
0.169162 -0.049243 -0.0301394
0.168976 -0.0496029 -0.0505957
0.168788 -0.0499681 -0.0713531
0.168635 -0.0502641 -0.0881803
0.168442 -0.0506392 -0.109497
0.168246 -0.0510198 -0.131134
0.168087 -0.0513285 -0.148679
0.167886 -0.0517196 -0.170912
0.167722 -0.0520369 -0.188943
-0.036126 -0.0479123 0.353558
0.0121436 -0.0459373 0.353191
0.118491 -0.0416093 0.35091
0.166745 -0.0396176 0.351633
0.169816 -0.0484351 -0.210222
0.169662 -0.0487356 -0.228705
0.169467 -0.0491165 -0.252133
0.169309 -0.0494255 -0.271141
0.169149 -0.0497385 -0.29039
0.168987 -0.0500555 -0.309884
0.0341535 -0.0414598 0.351248
-0.0802447 -0.0463507 0.3122
-0.0804226 -0.0467026 0.288629
-0.0805732 -0.047 0.268712
-0.0807258 -0.0473011 0.248539
-0.0808491 -0.0475449 0.232214
-0.081005 -0.0478531 0.21157
-0.0811629 -0.0481653 0.190656
-0.0813231 -0.0484816 0.169467
-0.0814526 -0.0487377 0.152315
-0.0816168 -0.0490616 0.130618
-0.0818161 -0.0494561 0.104198
-0.0176811 -0.0396427 0.351154
-0.0798025 -0.0454965 0.0735065
-0.0796828 -0.0458561 0.0463023
-0.0798396 -0.0461703 0.0232132
-0.0746826 -0.0462798 0.00172895
-0.0801275 -0.0467467 -0.0191543
-0.0802577 -0.0470075 -0.0383258
-0.0803894 -0.0472713 -0.0577123
-0.0805558 -0.0476051 -0.0822536
-0.0806911 -0.0478757 -0.102138
-0.0807928 -0.0480806 -0.1172
-0.0809298 -0.0483565 -0.137484
-0.0811032 -0.0487059 -0.163168
-0.0812438 -0.0489891 -0.183985
-0.0813861 -0.0492756 -0.205045
-0.0815662 -0.0496385 -0.231719
0.169368 -0.0422915 -0.329185
0.167654 -0.0303399 0.33023
0.167542 -0.0305699 0.311509
0.167408 -0.0308427 0.289306
0.167291 -0.0310804 0.269958
0.167173 -0.0313218 0.250309
0.167052 -0.031567 0.230352
0.16693 -0.031816 0.21008
0.166807 -0.032069 0.189486
-0.0796852 -0.0450998 -0.252178
-0.0795571 -0.045292 -0.268396
-0.0793412 -0.045616 -0.295736
-0.0793195 -0.0458846 -0.317987
-0.0650089 -0.0457341 -0.342444
-0.0396322 -0.0449409 -0.342305
-0.0151199 -0.0441748 -0.342171
0.00857031 -0.0434344 -0.342041
0.0389448 -0.0424851 -0.341878
0.0661092 -0.0416532 -0.343143
0.092221 -0.0408536 -0.344366
0.111153 -0.0402738 -0.345256
0.135574 -0.0395261 -0.346405
0.0768679 -0.029491 0.347662
0.167794 -0.0288511 0.172371
0.167945 -0.0290752 0.151272
0.168098 -0.0293029 0.129843
0.168228 -0.0294953 0.111728
0.168257 -0.0297338 0.0896263
0.168158 -0.0299394 0.0708863
0.168058 -0.0301478 0.0518854
0.167935 -0.0304018 0.0287321
0.167832 -0.0306168 0.00913742
0.167727 -0.0308349 -0.0107362
0.167622 -0.031056 -0.0308945
0.167515 -0.0312803 -0.0513442
0.167428 -0.0314622 -0.0679179
0.167318 -0.0316924 -0.0889078
0.167207 -0.0319261 -0.110207
-0.0810497 -0.0298815 0.350633
-0.0738282 -0.0303637 0.281519
-0.0734353 -0.031247 0.188022
-0.0826205 -0.0323608 0.0950895
-0.0733423 -0.0330193 0.00221384
-0.0861001 -0.0342104 -0.0896016
-0.0748179 -0.0339327 -0.089617
0.167828 -0.028357 -0.131384
0.16794 -0.0285203 -0.14877
0.168083 -0.0287271 -0.170785
0.168198 -0.0288946 -0.188629
0.168344 -0.0291069 -0.211229
0.168462 -0.029279 -0.229549
0.168581 -0.0294531 -0.248088
0.16867 -0.0296756 -0.27162
0.168583 -0.0298612 -0.290825
0.168496 -0.0300491 -0.310272
0.168383 -0.0205903 0.348723
-0.0781888 -0.0261849 0.308507
-0.0781388 -0.0265769 0.261026
-0.0781091 -0.026811 0.232667
-0.0780435 -0.0273268 0.170183
-0.078021 -0.0275031 0.148817
-0.0780028 -0.0276459 0.131524
-0.0779424 -0.0281202 0.0740637
-0.0779138 -0.0283446 0.0468729
-0.0779833 -0.0284602 0.0330861
-0.078696 -0.0289034 -0.0186135
-0.0789607 -0.029068 -0.0378148
-0.0792955 -0.0292763 -0.062126
-0.0800431 -0.0297453 -0.116854
-0.0816262 -0.0303364 -0.184183
-0.0824335 -0.03111 -0.275565
-0.0866052 -0.0317287 -0.33956
-0.0152295 -0.020745 0.347715
-0.0781823 -0.0252708 -0.136172
-0.0779254 -0.0254082 -0.156447
-0.0776511 -0.0257296 -0.203049
-0.0776232 -0.0259145 -0.229524
-0.0776007 -0.0260644 -0.250979
-0.0775489 -0.026408 -0.300172
-0.0775256 -0.0265636 -0.322455
-0.0579759 -0.0263181 -0.337805
0.170454 -0.0221962 -0.338187
0.167307 -0.0143769 0.330194
0.167387 -0.0144829 0.31149
0.167483 -0.0146085 0.289318
0.167565 -0.014718 0.270004
0.16765 -0.0148291 0.250399
0.167735 -0.0149419 0.230496
0.0775995 -0.0195715 -0.345036
0.0751517 -0.0121637 0.347528
-0.0725768 -0.0140326 0.309073
-0.0725064 -0.0141187 0.28956
-0.000394702 -0.013335 0.279485
-0.0724208 -0.0142235 0.265825
-0.0723777 -0.0142765 0.253825
-0.0723048 -0.0143657 0.233626
-0.0722017 -0.0144925 0.204918
-0.0721121 -0.0146029 0.179905
-0.00543606 -0.0138095 0.186018
-0.0720208 -0.0147151 0.154508
0.160726 -0.0118917 0.187938
-0.0719764 -0.0148683 0.120012
-0.0720034 -0.0149468 0.102479
0.161251 -0.0123018 0.0945576
0.167497 -0.0136776 -0.230228
0.167564 -0.0137597 -0.248824
0.167632 -0.0138428 -0.267644
0.167718 -0.0139481 -0.291491
0.167787 -0.0140335 -0.310832
-0.0810497 -0.0099605 0.350633
-0.0424346 -0.00986343 0.281568
0.037465 -0.00920958 0.280962
-0.0496103 -0.0102178 0.18877
-0.0301766 -0.0100583 0.188751
0.00691414 -0.00975401 0.188712
0.0374103 -0.009507 0.187681
-0.0485579 -0.0105046 0.0959695
-0.0337092 -0.0103828 0.095948
-0.00497675 -0.010147 0.0959197
0.0224841 -0.00992171 0.0958939
-0.0791069 -0.0110604 0.00012818
-0.0579095 -0.0108767 0.00317693
-0.0331655 -0.0106737 0.00314692
-0.00931966 -0.0104781 0.00312126
0.0136578 -0.0102896 0.00309259
0.032982 -0.0101347 0.00193414
-0.0795969 -0.0113568 -0.0917166
-0.0637088 -0.0112198 -0.0896284
-0.0210071 -0.0108694 -0.0896721
-0.00063467 -0.0107023 -0.0896901
0.019117 -0.0105402 -0.0897093
-0.0801641 -0.0116534 -0.183427
-0.0583915 -0.0114716 -0.182438
-0.0391275 -0.0113136 -0.182462
-0.0203825 -0.0111598 -0.182483
0.157887 -0.00940176 -0.0898641
0.00681567 -0.0109366 -0.182505
0.0366389 -0.0107007 -0.185288
-0.0818592 -0.0119596 -0.275224
-0.0636562 -0.0118103 -0.275247
-0.0376283 -0.0115976 -0.275552
-0.0200609 -0.0114526 -0.275292
0.00485706 -0.0112481 -0.275313
0.0264592 -0.011076 -0.276933
-0.0152597 -0.0116264 -0.342267
0.0174775 -0.00555313 0.318163
0.165578 -0.00503085 0.209766
0.165576 -0.00510345 0.171765
0.165575 -0.00514394 0.150571
0.165574 -0.00518507 0.129039
0.165573 -0.00521986 0.11083
0.165571 -0.00530528 0.0661166
0.16557 -0.00532707 0.0547085
0.165568 -0.00538607 0.0238238
0.165567 -0.00542362 0.00417098
0.165566 -0.00546169 -0.0157577
0.165565 -0.0055003 -0.0359681
0.00582397 -0.00647454 -0.134174
0.00582337 -0.00651157 -0.15356
0.0575345 -0.00631289 -0.18286
-0.00401497 -0.00671397 -0.234157
-0.00401604 -0.00675345 -0.254822
0.156583 -0.00582475 -0.182665
0.0584836 -0.00648644 -0.276166
-0.0148593 -0.0018876 0.344128
0.165689 -0.00158845 0.348495
0.0421188 -0.00180902 0.32065
0.166317 -0.00184501 -0.0560773
0.166388 -0.00187694 -0.106402
0.166431 -0.00189608 -0.136571
0.166468 -0.0019128 -0.162924
0.166525 -0.00193843 -0.203336
0.166698 -0.00201651 -0.326414
0.0770197 0.00174948 0.324172
0.0770588 0.00176684 0.296817
0.0908281 0.00175403 0.28143
0.113219 0.00171737 0.281288
0.154617 0.00164965 0.280915
0.0771086 0.00178902 0.26185
0.077139 0.0018026 0.240446
0.0771649 0.00181407 0.222358
0.0771962 0.00182804 0.200348
0.105831 0.00178851 0.188607
0.0772549 0.0018542 0.159102
0.0772822 0.00186634 0.139961
0.07731 0.00187865 0.120568
0.077338 0.00189111 0.100917
0.0979778 0.00186048 0.0958135
0.118028 0.00182824 0.0947532
0.0773777 0.00190885 0.0729638
0.0774125 0.00192431 0.0485833
0.077436 0.00193476 0.032109
0.0774655 0.00194799 0.0112627
0.0979152 0.00191967 0.0030129
0.122209 0.00188104 0.00104678
0.0775139 0.00196953 -0.0226907
0.154011 0.00182763 0.002949
0.0775386 0.00198048 -0.0399505
0.0775697 0.00199433 -0.061797
0.0775949 0.00200556 -0.0794956
0.101053 0.00197361 -0.0897972
0.122541 0.00193956 -0.0917056
0.0776527 0.00203129 -0.120055
0.0776855 0.00204587 -0.143042
0.0777054 0.00205472 -0.156992
0.0777321 0.00206664 -0.175782
0.0978203 0.00203801 -0.182607
0.124383 0.00199584 -0.184847
0.0777935 0.00209398 -0.218867
0.0778284 0.00210947 -0.243299
0.0778565 0.00212204 -0.263107
0.088354 0.00211295 -0.27589
0.11683 0.00206607 -0.275672
0.0779359 0.00215738 -0.318815
0.150622 0.00201046 -0.275468
0.0760792 0.00217452 -0.340948
0.159959 0.0050156 0.232225
0.160003 0.00505423 0.21189
0.160069 0.0051133 0.180794
0.160115 0.00515345 0.159657
0.160153 0.00518739 0.141787
0.1602 0.00522872 0.12003
0.160271 0.00529196 0.0867369
0.160319 0.00533498 0.0640903
0.16036 0.00537137 0.044935
0.160513 0.00550658 -0.0262423
-0.0775027 0.00994274 0.347067
0.0768721 0.00868441 0.344329
0.11393 0.00871172 0.240213
0.124784 0.00868242 0.221436
0.144327 0.0086307 0.187297
0.124948 0.0088629 0.16432
0.125033 0.00895598 0.134863
0.139683 0.00896417 0.0945208
0.125219 0.00916042 0.0701636
0.125276 0.00922234 0.0505686
0.125333 0.0092851 0.0307068
0.125498 0.00946547 -0.0263723
0.125582 0.0095583 -0.0557515
0.138342 0.00956875 -0.0919272
0.125731 0.00972176 -0.10748
0.146254 0.00955876 -0.10919
0.149074 0.0095999 -0.129382
0.149137 0.0096696 -0.151438
0.149189 0.00972609 -0.169315
0.149254 0.00979763 -0.191957
0.149307 0.00985563 -0.210311
0.14936 0.00991432 -0.228884
0.149414 0.00997372 -0.24768
0.149566 0.0101408 -0.300549
0.149623 0.0102029 -0.320216
0.149626 0.0113934 0.328351
0.149683 0.0114634 0.312488
0.149871 0.0116935 0.26039
0.149926 0.012742 0.0249972
0.149803 0.0131054 -0.0562373
0.136858 0.0150304 0.294654
0.136745 0.0153192 0.244539
-0.0752246 0.0188734 0.170797
-0.0749985 0.0189919 0.149531
-0.0748156 0.0190878 0.132324
-0.0745844 0.019209 0.11057
-0.0743501 0.0193318 0.0885373
-0.0741607 0.0194312 0.0707076
-0.0739771 0.0195578 0.0481428
-0.0739579 0.0196624 0.0298345
-0.0739385 0.0197682 0.0113292
-0.0739141 0.019902 -0.0120843
-0.0738941 0.0200103 -0.0310445
-0.0738741 0.0201199 -0.0502122
-0.0738537 0.0202306 -0.0695911
-0.0738331 0.0203426 -0.0891843
-0.0738124 0.0204558 -0.108996
-0.0737914 0.0205703 -0.129029
-0.0737702 0.0206861 -0.149288
-0.0737487 0.0208032 -0.169776
-0.073727 0.0209216 -0.190497
-0.0737051 0.0210414 -0.211456
-0.0736827 0.0211625 -0.232655
-0.0736601 0.0212851 -0.254101
-0.0736375 0.0214091 -0.275796
-0.0736146 0.0215345 -0.297746
-0.0735914 0.0216614 -0.319954
-0.0520176 0.0214225 -0.333875
-0.0271629 0.0210554 -0.3339
-0.0110611 0.0208176 -0.333916
0.0200758 0.0203578 -0.333947
0.0425403 0.0200261 -0.333969
0.0571144 0.0198108 -0.333984
0.0783494 0.0194974 -0.334041
0.098297 0.0192058 -0.334571
0.117657 0.0189227 -0.335085
0.142599 0.018558 -0.335748
0.169141 0.0181577 -0.33431
-0.0148591 0.0207635 0.344128
0.167195 0.0175522 0.333274
-0.0742463 0.0221098 0.305014
-0.0742258 0.0222466 0.285419
-0.0742135 0.0223296 0.273545
-0.0743175 0.0224716 0.253538
-0.0746392 0.0226768 0.225068
-0.0748729 0.0228257 0.204412
-0.0753882 0.0266337 -0.337962
0.168258 0.0206183 0.345661
-0.0775021 0.0298282 0.347067
0.0757785 0.0295585 0.34424
-0.0744722 0.0350409 0.225097
-0.0748537 0.0352754 0.204415
-0.07524 0.0355131 0.183455
-0.0769525 0.0375368 0.000907719
-0.0775303 0.0385456 -0.0908086
-0.0782217 0.0395566 -0.182424
-0.076722 0.0405454 -0.277641
-0.0782453 0.0386051 0.280971
-0.0793775 0.0408782 0.0959996
-0.0756735 0.0425403 -0.0509432
-0.0752722 0.0427606 -0.0701906
-0.0744576 0.0432082 -0.10929
-0.074044 0.0434355 -0.129149
-0.0736359 0.0436657 -0.149222
-0.0735816 0.0442888 -0.200875
-0.0735593 0.0445431 -0.221951
-0.0735369 0.0448003 -0.24327
-0.073514 0.0450605 -0.264838
-0.0734795 0.0454565 -0.297662
-0.0734559 0.0457244 -0.319868
-0.0518104 0.0452171 -0.333739
-0.0269634 0.0444425 -0.333765
-0.0108662 0.0439407 -0.333783
0.0187086 0.0430319 -0.334909
0.0770478 0.0412767 -0.340222
0.163292 0.0385129 -0.334113
-0.0150644 0.0396466 0.344113
-0.0764847 0.0422898 0.304781
-0.0754951 0.0428357 0.261399
-0.0739597 0.0441609 0.158328
-0.0739416 0.0443895 0.141184
-0.0739187 0.0446787 0.119503
-0.0738815 0.0451491 0.08422
-0.0738531 0.0455086 0.0572661
-0.0738388 0.0456904 0.0436276
-0.0738097 0.0460585 0.0160209
-0.0738002 0.0465599 -0.021499
-0.0731556 0.0508252 -0.342156
0.0500444 0.0464672 -0.333848
0.0991799 0.0447741 -0.333901
0.125682 0.0438609 -0.333929
-0.0775015 0.0497136 0.347067
0.168257 0.0396506 0.345661
-0.0742991 0.0557556 -0.0407673
-0.0742787 0.0560617 -0.0600469
-0.0742582 0.0563711 -0.0795394
-0.0742373 0.056684 -0.0992482
-0.0742162 0.0570003 -0.119177
-0.0741949 0.0573202 -0.139329
-0.0741736 0.0576438 -0.15971
-0.0741353 0.0582188 -0.195934
-0.0741131 0.0585526 -0.216959
-0.0756999 0.0595739 -0.27703
-0.003757 0.0575338 -0.334345
0.0194765 0.0565808 -0.334368
-0.0757375 0.0550858 0.261365
-0.0751605 0.0554054 0.241288
-0.0745788 0.0557288 0.220977
-0.0745534 0.0560828 0.200319
-0.0745313 0.0564415 0.179395
-0.0745133 0.0567318 0.162463
-0.0744908 0.0570989 0.14105
-0.074468 0.0574708 0.119359
-0.0744495 0.0577718 0.101802
-0.0789974 0.0628665 -0.182824
0.0702142 0.0588669 -0.334858
0.0916532 0.0579096 -0.334442
0.111856 0.0570145 -0.334462
0.131444 0.0561467 -0.334482
0.149614 0.0553532 -0.335166
0.0768726 0.0503696 0.344329
-0.0747551 0.0586766 0.285355
-0.0746362 0.0684434 -0.243897
-0.074573 0.0695478 -0.303873
-0.0745494 0.0699583 -0.326164
-0.0450935 0.0687164 -0.334851
0.077599 0.0630639 -0.345037
0.168625 0.0585404 -0.334731
-0.0148598 0.0585152 0.344128
-0.0759847 0.0672116 0.0611268
-0.0752554 0.0676194 0.0385876
-0.0749141 0.0679635 0.0202725
-0.0748945 0.06833 0.00165227
-0.0748698 0.0687938 -0.0219073
0.0485281 0.0686932 -0.334945
-0.0756085 0.0710528 0.0837159
-0.0794885 0.0768687 -0.183078
-0.0775291 0.0785302 -0.267202
-0.0145798 0.0766876 -0.341799
-0.0775015 0.069599 0.347067
-0.0777994 0.078505 -0.0518067
-0.0771133 0.0788926 -0.0709688
-0.0764168 0.0792838 -0.0903195
-0.0757123 0.0796789 -0.109863
-0.0753456 0.0801013 -0.129765
-0.0753242 0.0805521 -0.15005
-0.0752747 0.0815853 -0.196537
-0.0752523 0.082053 -0.217583
-0.0827013 0.0851431 -0.337042
-0.0294769 0.0820499 -0.33546
0.00995147 0.0797892 -0.335665
0.0775994 0.0761115 -0.345036
0.169551 0.0586016 0.345775
-0.079442 0.0753483 0.276846
-0.0780406 0.0784827 0.140186
-0.07723 0.0789411 0.118636
-0.0765748 0.0793118 0.101214
0.0953686 0.0791873 -0.336793
0.0768726 0.0677383 0.344329
-0.0781038 0.0785491 0.308515
-0.0760865 0.0796917 0.257301
-0.0757356 0.08017 0.237133
-0.0757226 0.0804734 0.224882
-0.0757005 0.0809842 0.204255
-0.0756696 0.0817103 0.174933
-0.0777588 0.0935075 -0.294767
-0.0777471 0.0937819 -0.305845
-0.0498767 0.0927968 -0.338029
0.116977 0.082055 -0.335612
0.136395 0.0808124 -0.335632
0.167887 0.0787889 -0.335334
-0.0179614 0.0775113 0.34752
-0.0357631 0.0789351 0.338875
-0.0804523 0.09031 0.0183563
-0.0796905 0.09074 -8.29399e-05
-0.0789216 0.0911743 -0.0186988
-0.0792418 0.0953479 -0.177751
0.0293198 0.0922277 -0.33811
0.055847 0.0904964 -0.34018
-0.0781462 0.093029 0.0740026
-0.0781177 0.0937716 0.0468072
-0.0861075 0.0980703 -0.0896048
-0.0819546 0.102561 -0.26435
-0.0810517 0.0896446 0.350633
-0.0816762 0.102819 -0.107574
-0.0805734 0.103444 -0.132239
-0.08047 0.104019 -0.152574
-0.0804155 0.105504 -0.204526
-0.0804044 0.105806 -0.215096
-0.0804638 0.106423 -0.236462
-0.0826495 0.107708 -0.275693
-0.0837121 0.109726 -0.343372
-0.0468811 0.106955 -0.341607
-0.0208592 0.105004 -0.340617
-0.00498092 0.103832 -0.340634
0.076619 0.0979512 -0.345775
-0.0802552 0.0956595 0.280721
-0.0842894 0.10154 0.0946212
-0.0805949 0.105094 -0.0336571
-0.0805746 0.105669 -0.052934
-0.0863413 0.115199 -0.356514
0.0257357 0.106078 -0.340667
0.166633 0.0777549 0.348575
-0.0823904 0.102588 0.194613
-0.0813868 0.10316 0.173707
-0.0807812 0.104043 0.143847
-0.0807492 0.104993 0.113317
-0.080707 0.10624 0.0732355
-0.0841064 0.116915 -0.260155
-0.0840658 0.118112 -0.298627
-0.0840422 0.118807 -0.320967
0.0969603 0.104865 -0.340745
0.116487 0.103305 -0.341098
0.0768676 0.0884731 0.347662
-0.0817425 0.103035 0.308148
-0.0809039 0.104507 0.260636
-0.0808825 0.105163 0.240383
-0.080861 0.105827 0.219874
-0.0869187 0.113408 0.00202513
-0.0848583 0.115713 -0.0742425
-0.0842768 0.11646 -0.0987511
-0.0842555 0.117109 -0.118794
-0.0842342 0.117765 -0.139062
-0.0842125 0.118429 -0.159557
-0.0845815 0.119139 -0.180486
0.00519943 0.116946 -0.344413
0.142582 0.105327 -0.340795
0.155037 0.104285 -0.340808
-0.0162919 0.0999265 0.351248
-0.0463643 0.102863 0.341772
-0.084653 0.115909 0.0538657
-0.0844086 0.116818 0.0263006
-0.0872958 0.12754 -0.283965
-0.0721226 0.128351 -0.347136
-0.0500977 0.12651 -0.34936
0.0572019 0.11701 -0.344469
-0.0846137 0.109762 0.354212
-0.0860137 0.115208 0.202299
-0.0849073 0.115838 0.181451
-0.08455 0.11655 0.160201
-0.0845271 0.117304 0.138606
-0.0845088 0.117915 0.121128
-0.0844855 0.118687 0.0990233
-0.0869606 0.129477 -0.20273
-0.086938 0.13022 -0.223985
-0.0955218 0.135444 -0.351048
-0.0304554 0.129434 -0.347179
0.0764042 0.119743 -0.345937
0.0987905 0.117672 -0.344513
0.118374 0.115912 -0.344739
-0.0857852 0.115407 0.311659
-0.0847145 0.116017 0.292089
-0.084668 0.116736 0.272175
-0.0891562 0.126647 0.0106508
-0.087624 0.127515 -0.0172088
-0.0871367 0.128159 -0.0362079
-0.0949132 0.138448 -0.299668
-0.0937114 0.139124 -0.321408
0.0386633 0.127683 -0.347425
0.162425 0.116007 -0.344783
-0.0872653 0.128121 0.0848158
-0.0975835 0.135673 -0.0895924
-0.0956159 0.138127 -0.160002
-0.0931367 0.141026 -0.243576
-0.0881482 0.127357 0.218594
-0.0953659 0.132841 0.096011
-0.0946059 0.138771 -0.0586336
-0.0932794 0.140547 -0.107774
-0.093258 0.141331 -0.128025
-0.0952549 0.143577 -0.180698
-0.100542 0.147777 -0.275209
-0.0834138 0.149367 -0.360311
0.000151753 0.140733 -0.353435
0.02101 0.138699 -0.354854
-0.015542 0.118557 0.354898
0.0739634 0.109333 0.354096
0.169221 0.0995722 0.351834
-0.0874416 0.130136 0.251596
-0.0952746 0.138459 0.0643026
-0.0936481 0.139379 0.0371608
-0.0999048 0.149497 -0.198933
-0.0986769 0.150201 -0.219647
-0.0980456 0.151864 -0.262735
-0.104558 0.156548 -0.362717
-0.0550197 0.151248 -0.358319
-0.0339283 0.149163 -0.360714
0.0588331 0.139295 -0.353861
0.0776151 0.137631 -0.360802
0.140706 0.130568 -0.347356
0.172775 0.127605 -0.356181
-0.0917798 0.130185 0.361409
-0.0958984 0.138167 0.179172
-0.0948582 0.138758 0.162202
-0.0935408 0.139504 0.140787
-0.0935178 0.140411 0.118802
-0.0988823 0.145797 0.00250217
-0.105813 0.159784 -0.317604
-0.105515 0.16069 -0.340245
-0.147277 0.168486 -0.420959
0.105538 0.138774 -0.354812
-0.0954778 0.138465 0.270759
-0.093604 0.141241 0.20086
-0.0990384 0.146354 0.0949942
-0.0996572 0.149774 0.0164344
-0.0983065 0.151026 -0.0163943
-0.0982857 0.151847 -0.0356949
-0.107878 0.158685 -0.171267
-0.107537 0.163972 -0.29607
-0.159009 0.171196 -0.332717
-0.158448 0.172128 -0.355996
-0.157882 0.173069 -0.379529
-0.120064 0.168626 -0.372869
-0.120622 0.169459 -0.390958
-0.103382 0.168836 -0.420806
-0.0143359 0.156844 -0.369258
0.0383139 0.150591 -0.358419
-0.00261068 0.128502 0.352183
-0.0937239 0.140464 0.314819
-0.108243 0.158541 -0.0592189
-0.106048 0.159787 -0.0932406
-0.105755 0.160638 -0.11336
-0.105734 0.161534 -0.133823
-0.105712 0.162441 -0.154515
-0.159068 0.171302 -0.218644
-0.158524 0.172207 -0.240655
-0.157974 0.173122 -0.2629
-0.150402 0.172828 -0.275723
-0.115192 0.168214 -0.261487
-0.114161 0.168804 -0.277576
-0.161137 0.179493 -0.399761
-0.0716655 0.168287 -0.375361
-0.128054 0.176633 -0.419955
0.0102521 0.158691 -0.368123
-0.0545105 0.168355 -0.421133
-0.100804 0.149244 0.228918
-0.108286 0.158576 0.0417564
-0.159256 0.171182 -0.105689
-0.158728 0.172061 -0.126483
-0.158196 0.172949 -0.147491
-0.113032 0.169835 -0.195061
-0.11301 0.170803 -0.216535
-0.112981 0.172029 -0.243724
-0.123134 0.176001 -0.305398
-0.123104 0.177292 -0.334032
-0.123092 0.177813 -0.345603
-0.100695 0.176915 -0.383468
-0.052029 0.170782 -0.37327
-0.0155579 0.168688 -0.420983
-0.00239766 0.167216 -0.422352
-0.0308518 0.139256 0.353901
-0.0992037 0.150211 0.294437
-0.0985883 0.152205 0.249947
-0.111744 0.156621 0.188839
-0.108327 0.15861 0.13724
-0.107446 0.159114 0.124139
-0.105955 0.161226 0.0748564
-0.159305 0.171282 -0.00396892
-0.113461 0.165505 0.00214583
-0.158921 0.171923 -0.0187443
-0.158404 0.172785 -0.0386174
-0.158146 0.173692 -0.0587924
-0.12438 0.175253 -0.179432
-0.134321 0.181549 -0.289261
-0.135618 0.183606 -0.33018
-0.0154752 0.172369 -0.398148
0.0708281 0.160534 -0.366023
0.0279689 0.168238 -0.421287
0.133196 0.152712 -0.358521
0.145688 0.151215 -0.358535
0.167495 0.148466 -0.355605
-0.102622 0.151028 0.372303
0.0768578 0.129634 0.357612
0.166417 0.118604 0.357684
-0.107221 0.159296 0.211019
-0.106055 0.161187 0.168415
-0.154588 0.17073 0.0937015
-0.114009 0.165653 0.0954053
-0.158853 0.172211 0.0736973
-0.158349 0.173052 0.0547759
-0.113827 0.169179 0.0211059
-0.113213 0.171157 -0.0219066
-0.113193 0.172088 -0.041447
-0.124669 0.175145 -0.0758808
-0.123354 0.175925 -0.0955997
-0.123333 0.1769 -0.116074
-0.123311 0.177886 -0.136776
-0.123508 0.178915 -0.157815
-0.134421 0.182042 -0.195178
-0.134982 0.183164 -0.217211
-0.0676531 0.183396 -0.395669
-0.0343471 0.178717 -0.383536
-0.0110412 0.175852 -0.383636
0.032789 0.169965 -0.373361
0.104483 0.16079 -0.366059
0.0627675 0.168556 -0.421142
-0.108679 0.158514 0.317383
-0.106162 0.16055 0.26936
-0.158111 0.171074 0.188628
-0.159033 0.172076 0.170578
-0.15842 0.1731 0.14811
-0.123397 0.178647 -0.055321
-0.136111 0.183766 -0.126952
0.054244 0.171787 -0.373385
0.0776442 0.169517 -0.387401
0.11196 0.167215 -0.428919
-0.120939 0.160918 0.383046
-0.0175828 0.148217 0.369097
-0.10625 0.160531 0.352873
-0.159319 0.17175 0.266653
-0.158966 0.172345 0.253903
-0.158507 0.173803 0.223748
-0.115851 0.168136 0.226433
-0.123538 0.176549 0.0789917
-0.123518 0.177481 0.060412
-0.123498 0.178423 0.041635
-0.134633 0.181736 0.00447065
-0.134612 0.182715 -0.0150412
-0.136622 0.184006 -0.0355235
0.0115391 0.182866 -0.394836
0.0313056 0.179829 -0.385415
0.118168 0.168087 -0.375919
0.0776738 0.175275 -0.414415
0.12743 0.169147 -0.420868
-0.155286 0.16721 0.428589
-0.161065 0.16898 0.409169
-0.0732259 0.159325 0.369925
-0.00217855 0.150243 0.362852
-0.158434 0.173385 0.31698
-0.115316 0.16849 0.300733
-0.124841 0.175212 0.194937
-0.123637 0.176162 0.17342
-0.123609 0.177523 0.146961
-0.123595 0.178211 0.133578
-0.135451 0.18326 0.0662454
0.047588 0.182701 -0.394811
0.139707 0.169365 -0.37372
0.16898 0.165253 -0.369465
0.167909 0.166495 -0.390767
0.157523 0.169421 -0.420738
-0.124981 0.167211 0.428567
-0.142347 0.170791 0.405588
-0.159355 0.175005 0.369695
-0.124792 0.175291 0.275187
-0.123722 0.176234 0.254592
-0.135952 0.1835 0.148619
0.100789 0.179435 -0.384803
-0.137271 0.17275 0.43236
-0.0961013 0.167212 0.428547
-0.0860323 0.168606 0.376826
-0.123791 0.176949 0.320022
-0.135903 0.18342 0.231675
0.106264 0.183613 -0.396232
-0.0685493 0.167212 0.428527
-0.135986 0.179393 0.382497
0.0739975 0.150063 0.370609
-0.135343 0.183043 0.314955
0.138093 0.183366 -0.395837
-0.0422351 0.167213 0.428508
-0.112684 0.179202 0.398562
-0.0156772 0.165891 0.383366
0.0170228 0.16182 0.370907
0.166385 0.140235 0.366742
-0.0170777 0.167214 0.42849
-0.0883228 0.179556 0.399146
0.00699794 0.167214 0.428473
-0.0174155 0.17196 0.411274
-0.0734441 0.180777 0.406812
0.0863497 0.158679 0.368048
0.0300602 0.167215 0.428457
0.0521713 0.167216 0.428441
-0.0373155 0.182543 0.410983
0.0151461 0.175608 0.388012
0.0733895 0.167216 0.428426
0.00294721 0.179941 0.408168
0.0937674 0.167217 0.428411
0.0252134 0.179859 0.408563
0.07379 0.172161 0.403032
0.168059 0.15809 0.378807
0.113354 0.167217 0.428397
0.132195 0.167218 0.428384
0.099221 0.175606 0.38792
0.150333 0.167218 0.428371
0.168367 0.167316 0.4255
0.0997911 0.180669 0.409887
0.165685 0.169405 0.402313
