ply
format ascii 1.0
comment Created by Open3D
element vertex 770
property double x
property double y
property double z
end_header
0.172986 -0.176811 -0.41174
0.173015 -0.176993 -0.394737
0.173051 -0.166581 -0.373575
0.172981 -0.157402 -0.415074
0.173009 -0.157264 -0.398182
0.173051 -0.146984 -0.373575
0.172998 -0.137213 -0.405005
-0.147059 -0.175981 -0.397827
0.173015 -0.135832 -0.394737
-0.134657 -0.168175 -0.393352
-0.16886 -0.171044 -0.401286
0.173051 -0.127386 -0.373575
-0.146499 -0.158024 -0.401784
0.172986 -0.117424 -0.41174
-0.128411 -0.150663 -0.389329
0.173027 -0.117401 -0.387777
-0.176047 -0.150593 -0.401328
0.17663 -0.109928 -0.427704
0.163557 -0.108515 -0.427724
-0.147517 -0.141202 -0.397587
0.1845 -0.110406 -0.365147
0.136488 -0.108333 -0.427766
0.112934 -0.110506 -0.427802
0.184546 -0.110653 -0.335083
0.0934004 -0.109465 -0.427832
0.184589 -0.110512 -0.307347
0.18446 -0.102354 -0.390128
0.0732188 -0.108389 -0.427864
0.0523567 -0.110216 -0.427896
-0.136789 -0.131066 -0.384773
-0.168799 -0.132242 -0.401317
0.174259 -0.176888 0.405121
0.174242 -0.175859 0.394402
0.174169 -0.17385 0.373414
0.184634 -0.110365 -0.278167
0.0307791 -0.109116 -0.427929
-0.134647 -0.12551 -0.40433
0.184688 -0.110631 -0.242903
0.184667 -0.109374 -0.256378
0.00844878 -0.107978 -0.427964
-0.0146744 -0.109895 -0.427999
0.184738 -0.110478 -0.210224
0.184428 -0.092307 -0.410624
0.180921 -0.0910399 -0.427697
-0.0265468 -0.107756 -0.428018
-0.0571793 -0.110225 -0.428065
-0.147759 -0.11965 -0.404777
0.174277 -0.163304 0.415967
0.184791 -0.110316 -0.175693
0.159133 -0.0901057 -0.427731
0.141088 -0.0915176 -0.427759
-0.0762417 -0.108521 -0.428095
-0.095843 -0.110055 -0.428125
0.174242 -0.156587 0.394402
0.174169 -0.154798 0.373414
0.184856 -0.110605 -0.133752
0.184823 -0.108785 -0.155068
0.184529 -0.0924284 -0.346554
0.184499 -0.0908403 -0.365146
0.122468 -0.090199 -0.427787
0.0983434 -0.0920301 -0.427825
-0.116006 -0.1083 -0.428156
-0.136756 -0.109875 -0.428188
-0.142963 -0.174804 0.390277
-0.155409 -0.175576 0.388531
0.184915 -0.110437 -0.094681
0.184898 -0.109493 -0.106083
0.184583 -0.0924952 -0.311395
0.184552 -0.0908552 -0.331205
0.0783266 -0.090671 -0.427856
0.0576379 -0.092193 -0.427888
-0.158118 -0.108066 -0.428221
-0.187601 -0.110235 -0.428267
0.184989 -0.11075 -0.0470381
0.184961 -0.109286 -0.0652979
0.184634 -0.0922223 -0.278168
0.0416595 -0.0904044 -0.427912
0.0197105 -0.0919679 -0.427946
0.174277 -0.143805 0.415967
0.185057 -0.110574 -0.00246888
0.185027 -0.109066 -0.0219173
0.184696 -0.0922863 -0.238343
0.184661 -0.090545 -0.260802
-0.00301117 -0.090518 -0.427981
-0.0265468 -0.0921395 -0.428018
0.174242 -0.137315 0.394402
0.185131 -0.110387 0.0450704
0.185109 -0.109345 0.0311675
0.184761 -0.0923549 -0.195662
0.184732 -0.0909062 -0.215004
-0.0571793 -0.091055 -0.428065
-0.0762417 -0.0923238 -0.428095
0.185222 -0.110732 0.103436
0.185187 -0.109111 0.0810148
0.184832 -0.0924287 -0.149806
0.1848 -0.0909257 -0.170601
0.184401 -0.0723876 -0.427097
-0.095843 -0.0903433 -0.428125
-0.116006 -0.0916383 -0.428156
0.174169 -0.12622 0.373414
0.185307 -0.110536 0.158433
0.185283 -0.109413 0.142321
0.184901 -0.0921125 -0.106087
0.184858 -0.0901854 -0.133755
0.18446 -0.07233 -0.390128
0.184427 -0.0709025 -0.410624
0.163557 -0.0710038 -0.427724
-0.136756 -0.0895902 -0.428188
-0.158118 -0.0909123 -0.428221
0.174277 -0.124306 0.415967
0.174242 -0.122861 0.394402
0.185399 -0.110325 0.217526
0.185373 -0.109163 0.200198
0.184981 -0.0921823 -0.0531809
0.184963 -0.09137 -0.0653005
0.184918 -0.0894007 -0.0946848
0.184523 -0.072268 -0.350324
0.184493 -0.0710307 -0.368788
0.136488 -0.0699366 -0.427766
0.112934 -0.0713393 -0.427802
-0.187601 -0.0892375 -0.428267
0.185513 -0.110709 0.290689
0.185484 -0.109493 0.271795
0.185455 -0.108303 0.253312
0.185067 -0.092258 0.00413388
0.185028 -0.0905804 -0.0219182
0.184596 -0.0724639 -0.30327
0.184577 -0.0716819 -0.315414
0.0934004 -0.0696594 -0.427832
0.0732188 -0.0708141 -0.427864
0.0523567 -0.0720078 -0.427896
0.185622 -0.110487 0.360257
0.18559 -0.109225 0.339813
0.185559 -0.10799 0.31983
0.185165 -0.0923397 0.0664275
0.185143 -0.0914561 0.0521207
0.18511 -0.0901619 0.0311669
0.184668 -0.0724023 -0.256379
0.0307791 -0.070253 -0.427929
0.00844878 -0.0714786 -0.427964
0.185722 -0.109586 0.424529
0.185687 -0.108289 0.402598
0.185654 -0.107023 0.38118
0.185334 -0.0948234 0.174878
0.185271 -0.0924288 0.134384
0.185235 -0.0910493 0.111056
0.184738 -0.0720507 -0.210224
0.18471 -0.0709335 -0.229116
-0.0146744 -0.069652 -0.427999
-0.0265468 -0.0702759 -0.428018
-0.0571793 -0.0718855 -0.428065
0.185428 -0.0940189 0.235224
0.185374 -0.0920396 0.200196
0.185296 -0.0892221 0.150333
0.184254 -0.0723314 -0.149101
0.184802 -0.0710872 -0.170603
0.18477 -0.0699498 -0.190731
-0.0762417 -0.0696478 -0.428095
-0.095843 -0.070632 -0.428125
-0.116006 -0.0716445 -0.428156
0.185544 -0.093675 0.310005
0.1855 -0.0921222 0.281186
0.185472 -0.0911154 0.262499
0.184936 -0.0724962 -0.0830843
0.184901 -0.0712568 -0.106087
0.184859 -0.0697659 -0.133757
0.184634 -0.0619855 -0.278168
-0.136756 -0.0693056 -0.428188
-0.158118 -0.0703284 -0.428221
-0.187601 -0.0717399 -0.428267
0.185654 -0.0927531 0.381179
0.185622 -0.0916809 0.360257
0.18559 -0.0906331 0.339812
0.185038 -0.0724239 -0.0154943
0.184999 -0.0711247 -0.0408441
0.184433 -0.0523458 -0.407264
0.17663 -0.0516528 -0.427704
0.163557 -0.0522481 -0.427724
0.185722 -0.0901042 0.424528
0.185688 -0.0890379 0.402597
0.185154 -0.0723435 0.0592396
0.185121 -0.0713149 0.0380854
0.185088 -0.0703152 0.017524
0.185057 -0.0693432 -0.00246894
0.184523 -0.0524298 -0.350324
0.184493 -0.0515321 -0.368788
0.18446 -0.0504946 -0.390127
0.136488 -0.0507383 -0.427766
0.112934 -0.051756 -0.427802
0.183257 -0.0736217 0.170214
0.185284 -0.072254 0.142318
0.185235 -0.0708161 0.111056
0.185188 -0.0694344 0.0810133
0.184602 -0.0519488 -0.299162
0.184571 -0.0510178 -0.319404
0.0934004 -0.0497567 -0.427832
0.0732188 -0.0505815 -0.427864
0.0523567 -0.0514342 -0.427896
0.0307791 -0.0523161 -0.427929
0.18553 -0.0749757 0.300292
0.185416 -0.071768 0.226323
0.185389 -0.0710086 0.208811
0.185362 -0.070265 0.191665
0.184724 -0.0524243 -0.219744
0.184695 -0.0516178 -0.238343
0.184661 -0.0506439 -0.260802
0.00844878 -0.0501871 -0.427964
-0.0146744 -0.0510781 -0.427999
-0.0265468 -0.0515356 -0.428018
0.185654 -0.0737268 0.381179
0.185606 -0.0724557 0.349976
0.185575 -0.0716323 0.329764
0.1855 -0.0696534 0.281186
0.185472 -0.0688921 0.262499
0.184839 -0.0523124 -0.144499
0.184823 -0.0518818 -0.155068
0.184791 -0.0510416 -0.175694
0.184761 -0.0502282 -0.195661
-0.0571793 -0.0495212 -0.428065
-0.0762417 -0.0502112 -0.428095
-0.095843 -0.0509208 -0.428125
-0.116006 -0.0516507 -0.428156
-0.136756 -0.0524018 -0.428188
0.185722 -0.0706221 0.424527
0.185688 -0.0697864 0.402597
0.18498 -0.0524174 -0.0531802
0.184961 -0.0519557 -0.0652983
0.184916 -0.0508359 -0.0946816
0.184898 -0.0504014 -0.106083
-0.158118 -0.0497444 -0.428221
-0.187601 -0.0507429 -0.428267
0.185132 -0.0522884 0.0450696
0.18511 -0.0517952 0.0311669
0.185078 -0.0510725 0.0107978
0.185047 -0.0503696 -0.00901145
0.185018 -0.0496858 -0.028284
0.190155 -0.0405989 -0.279476
0.185428 -0.0546622 0.235226
0.185321 -0.0524082 0.166613
0.185295 -0.0518734 0.150335
0.185258 -0.0510914 0.126531
0.185234 -0.050583 0.111057
0.185187 -0.0495961 0.0810142
0.185655 -0.0547005 0.381179
0.185514 -0.0519656 0.290688
0.185484 -0.0513945 0.271795
0.185386 -0.0494911 0.208816
0.185359 -0.0489728 0.19167
0.190043 -0.0324076 -0.351492
0.184492 -0.0320335 -0.368787
0.18446 -0.0313885 -0.390127
0.184427 -0.030769 -0.410624
0.180921 -0.0303466 -0.427697
0.159133 -0.0309318 -0.427731
0.141088 -0.0314165 -0.427759
0.122468 -0.0319166 -0.427787
0.185723 -0.0511401 0.424526
0.185688 -0.050535 0.402596
0.185622 -0.0493666 0.360257
0.18559 -0.0488024 0.339812
0.185559 -0.048251 0.31983
0.190203 -0.0324238 -0.248787
0.190123 -0.0309986 -0.300433
0.190091 -0.0304411 -0.320636
0.0983434 -0.0297328 -0.427825
0.0783266 -0.0302237 -0.427856
0.0576379 -0.030731 -0.427888
0.0416595 -0.0311228 -0.427912
0.0197105 -0.0316611 -0.427946
-0.00301117 -0.0322183 -0.427981
0.190397 -0.0324434 -0.124323
0.19038 -0.0321707 -0.135242
0.190347 -0.031639 -0.15654
0.190315 -0.0311245 -0.177144
0.190284 -0.0306266 -0.19709
0.190253 -0.0301443 -0.216407
-0.0265468 -0.029672 -0.428018
-0.0571793 -0.0303517 -0.428065
-0.0762417 -0.0307746 -0.428095
-0.095843 -0.0312095 -0.428125
-0.116006 -0.0316569 -0.428156
-0.136756 -0.0321172 -0.428188
0.190637 -0.0324675 0.0296337
0.190595 -0.0318635 0.00259465
0.190564 -0.031425 -0.0170336
0.190534 -0.0309985 -0.0361288
0.190496 -0.0304474 -0.0607971
0.190459 -0.0299156 -0.0846036
0.190441 -0.0296566 -0.0961977
-0.158118 -0.0291605 -0.428221
-0.187601 -0.0297458 -0.428267
0.191072 -0.0341507 0.308807
0.190942 -0.0324983 0.224976
0.190887 -0.0318141 0.190267
0.190848 -0.0313196 0.165179
0.19081 -0.0308402 0.14086
0.190774 -0.0303753 0.117273
0.19075 -0.0300731 0.10194
0.190703 -0.0294863 0.0721709
0.19067 -0.029061 0.0505956
0.190149 -0.0224711 -0.283729
0.185723 -0.0316581 0.424525
0.185688 -0.0312835 0.402596
0.191151 -0.0304576 0.359171
0.191119 -0.0301075 0.338678
0.191042 -0.0292666 0.28945
0.191013 -0.0289432 0.27052
0.190984 -0.0286269 0.252004
0.185655 -0.0261611 0.381178
0.184486 -0.0124921 -0.372404
0.184459 -0.0122825 -0.390127
0.184427 -0.0120401 -0.410624
0.180921 -0.0118748 -0.427697
0.159133 -0.0121038 -0.427731
0.141088 -0.0122934 -0.427759
0.122468 -0.0124891 -0.427787
0.190874 -0.0147689 0.181817
0.190487 -0.0124817 -0.0668278
0.190441 -0.0122115 -0.0961977
0.190406 -0.0120037 -0.118794
0.190372 -0.0118028 -0.140634
0.190339 -0.0116085 -0.161754
0.190307 -0.0114205 -0.182191
0.190276 -0.0112385 -0.201977
0.190246 -0.0110622 -0.221141
0.190217 -0.0108914 -0.239714
0.190189 -0.0107257 -0.257722
0.190123 -0.0103329 -0.300433
0.190091 -0.010147 -0.320636
0.190061 -0.00996775 -0.340125
0.0983434 -0.00991094 -0.427825
0.0783266 -0.0100746 -0.427856
0.0576379 -0.0102437 -0.427888
0.0416595 -0.0103743 -0.427912
0.0197105 -0.0105537 -0.427946
-0.00301117 -0.0107394 -0.427981
-0.0265468 -0.0109318 -0.428018
-0.0571793 -0.0111822 -0.428065
-0.0762417 -0.011338 -0.428095
-0.095843 -0.0114982 -0.428125
-0.116006 -0.0116631 -0.428156
-0.136756 -0.0118327 -0.428188
-0.158118 -0.0120073 -0.428221
-0.187601 -0.0122483 -0.428267
0.185724 -0.0121762 0.424524
0.185689 -0.0120321 0.402595
0.191151 -0.0117145 0.359171
0.191119 -0.0115798 0.338678
0.191088 -0.0114482 0.318651
0.191042 -0.0112564 0.28945
0.191013 -0.011132 0.27052
0.190984 -0.0110103 0.252004
0.190942 -0.0108328 0.224976
0.190836 -0.0103861 0.156989
0.19081 -0.0102801 0.14086
0.190774 -0.0101251 0.117273
0.19075 -0.0100244 0.10194
0.190703 -0.00982877 0.0721709
0.19067 -0.00968701 0.0505956
0.190626 -0.00950424 0.0227784
0.190595 -0.00937163 0.00259465
0.190564 -0.00924266 -0.0170336
0.190534 -0.0091172 -0.0361288
0.185655 -0.00713485 0.381177
0.190155 -0.00150367 -0.279476
0.185656 0.00713482 0.381177
0.191072 0.00683012 0.308807
0.190955 0.00653477 0.233888
0.190874 0.00632949 0.181817
0.185724 0.0121762 0.424522
0.185689 0.0120321 0.402594
0.191151 0.0117145 0.359171
0.191119 0.0115798 0.338678
0.191042 0.0112564 0.28945
0.191013 0.011132 0.27052
0.190984 0.0110103 0.252004
0.190914 0.0107175 0.207437
0.190836 0.0103861 0.156989
0.19081 0.0102801 0.14086
0.190774 0.0101251 0.117273
0.19075 0.0100244 0.10194
0.190703 0.00982877 0.0721709
0.19067 0.00968701 0.0505956
0.190626 0.00950424 0.0227782
0.190595 0.00937163 0.00259465
0.190564 0.00924266 -0.0170336
0.190534 0.0091172 -0.0361288
0.190496 0.00895512 -0.0607971
0.190459 0.0087987 -0.0846036
0.190441 0.00872252 -0.0961977
0.190406 0.00857406 -0.118794
0.190372 0.00843056 -0.140634
0.190339 0.00829179 -0.161754
0.190307 0.00815751 -0.182191
0.190276 0.00802751 -0.201977
0.190246 0.00790159 -0.221141
0.190217 0.00777956 -0.239714
0.190189 0.00766125 -0.257722
0.0252687 0.0075059 -0.427938
0.0141042 0.00757109 -0.427955
-0.0146744 0.00773912 -0.427999
-0.0265468 0.00780843 -0.428018
-0.0571793 0.00798729 -0.428065
-0.0762417 0.00809859 -0.428095
-0.095843 0.00821303 -0.428125
-0.116006 0.00833076 -0.428156
-0.136756 0.00845191 -0.428188
-0.158118 0.00857663 -0.428221
-0.187601 0.00874878 -0.428267
0.190123 0.0103328 -0.300433
0.190091 0.010147 -0.320636
0.190061 0.00996773 -0.340125
0.190031 0.00979468 -0.358938
0.184475 0.00965018 -0.379565
0.184443 0.0094578 -0.400478
0.184411 0.00927297 -0.420572
0.159133 0.00941402 -0.427731
0.141088 0.00956152 -0.427759
0.122468 0.00971372 -0.427787
0.0983434 0.00991092 -0.427825
0.0783266 0.0100745 -0.427856
0.0576379 0.0102436 -0.427888
0.185656 0.0261611 0.381177
0.191059 0.0250444 0.308834
0.185725 0.0316581 0.424521
0.18569 0.0312835 0.402593
0.184781 0.0306028 0.361995
0.164484 0.0309109 0.361963
0.143775 0.0312253 0.361931
0.12264 0.0315461 0.361898
0.0956024 0.0319565 0.361856
0.190155 0.0195476 -0.279476
0.0845893 0.0370659 0.361839
0.062214 0.0374578 0.361804
0.0393605 0.0378581 0.361768
0.0218973 0.038164 0.361741
-0.00183088 0.0385796 0.361704
-0.019969 0.0388973 0.361676
-0.0384083 0.0392203 0.361647
-0.0402474 0.0387594 0.336663
-0.0402932 0.0384046 0.318649
0.188492 0.02757 -0.0268815
-0.0400876 0.0431174 0.300602
-0.0401563 0.0425388 0.274677
-0.0402234 0.0419755 0.249438
-0.0402887 0.041427 0.224859
-0.0403523 0.0408926 0.200914
-0.0404345 0.0402012 0.169932
-0.0404944 0.0396977 0.147375
-0.0405337 0.0393691 0.132648
-0.0405911 0.0388861 0.111009
-0.0406693 0.0382605 0.0829735
0.188061 0.027615 -0.189574
-0.0762417 0.0275352 -0.428095
-0.095843 0.0279243 -0.428125
-0.116006 0.0283246 -0.428156
-0.136756 0.0287365 -0.428188
-0.158118 0.0291605 -0.428221
-0.187601 0.0297458 -0.428267
0.185656 0.0451873 0.381176
-0.0405003 0.0422405 0.0622734
-0.0405561 0.0417428 0.0423191
-0.0406283 0.0410973 0.0164334
-0.0406634 0.0407819 0.00378847
-0.0407323 0.0401654 -0.0209279
-0.040799 0.0395674 -0.0449084
-0.0408317 0.039275 -0.0566326
-0.0408957 0.0387029 -0.079569
0.18766 0.0276535 -0.318334
0.0680683 0.0275728 -0.427871
0.0523567 0.0279214 -0.427896
0.0307791 0.0284002 -0.427929
0.00844878 0.0288956 -0.427964
-0.0146744 0.0294086 -0.427999
-0.0265468 0.029672 -0.428018
-0.0571793 0.0303517 -0.428065
0.185725 0.0511399 0.424521
0.18569 0.0505348 0.402592
0.184781 0.0494353 0.361995
0.164484 0.049933 0.361963
0.143775 0.0504408 0.361931
0.12264 0.0509591 0.361898
0.0956024 0.0516221 0.361856
-0.0407595 0.0421527 -0.102035
-0.040807 0.0417038 -0.118322
-0.0408688 0.0411199 -0.139506
-0.0409289 0.0405522 -0.160105
0.184506 0.0294496 -0.361479
0.184474 0.0289506 -0.379564
0.184442 0.0283735 -0.400477
0.184411 0.027819 -0.420572
0.159133 0.0282421 -0.427731
0.141088 0.0286846 -0.427759
0.122468 0.0291412 -0.427787
0.0983434 0.0297328 -0.427825
0.0845893 0.0568343 0.361839
0.062214 0.0574352 0.361804
0.0393605 0.058049 0.361768
0.0218973 0.0585181 0.361741
-0.00183088 0.0591553 0.361704
-0.019969 0.0596425 0.361676
-0.0384083 0.0601377 0.361647
-0.0394636 0.0596521 0.344664
-0.039546 0.0585644 0.308654
-0.0395479 0.063079 0.291082
-0.0395861 0.062234 0.265364
-0.0396235 0.0614114 0.240327
-0.03966 0.0606103 0.215943
-0.0396835 0.0600877 0.200036
-0.0397335 0.0593217 0.176705
-0.0397691 0.0588219 0.161482
-0.0398385 0.0578472 0.131793
-0.0399547 0.0562171 0.0821377
-0.0398378 0.0614517 0.10299
-0.0398993 0.0599825 0.0615852
-0.0399452 0.0592751 0.0416344
-0.0399919 0.0585844 0.0221508
-0.0400528 0.057688 -0.00313151
0.185726 0.0706218 0.42452
0.185691 0.0697861 0.402591
0.18564 0.0685691 0.370653
0.174683 0.0686097 0.361979
0.154182 0.069304 0.361947
0.133261 0.0700125 0.361914
0.106501 0.0709186 0.361873
-0.0400227 0.0614864 -0.0155478
-0.0400585 0.0605651 -0.0397211
-0.0400992 0.0596715 -0.0631746
-0.0401553 0.058805 -0.0859302
-0.0402232 0.0577567 -0.113462
-0.095843 0.0476356 -0.428125
-0.116006 0.0483184 -0.428156
-0.136756 0.0490211 -0.428188
-0.158118 0.0497445 -0.428221
-0.187601 0.0507429 -0.428267
0.0845893 0.0766027 0.361839
0.062214 0.0774127 0.361804
0.0393605 0.07824 0.361768
0.0218973 0.0788722 0.361741
-0.00183088 0.0797311 0.361704
-0.019969 0.0803877 0.361676
-0.0384083 0.0810552 0.361647
-0.0397493 0.0800546 0.335927
-0.0397614 0.0789552 0.308964
-0.0402074 0.0608667 -0.134852
-0.0402229 0.060441 -0.145302
-0.00301117 0.0475603 -0.427981
-0.0265468 0.0484123 -0.428018
-0.0571793 0.0495212 -0.428065
-0.0762417 0.0502112 -0.428095
-0.0399604 0.0833057 0.291669
-0.0399476 0.0825546 0.274384
-0.0399266 0.0810928 0.240739
-0.0399323 0.0803827 0.224381
-0.0399411 0.0793405 0.200374
-0.039947 0.0786606 0.184713
-0.0399554 0.0776624 0.161718
0.0732188 0.0476912 -0.427864
0.0523567 0.0484951 -0.427896
0.0307791 0.0493266 -0.427929
-0.0400943 0.0810111 0.132107
-0.0401007 0.0800124 0.110418
-0.0401147 0.0777753 0.0618318
0.184506 0.0490827 -0.361479
0.184473 0.0482511 -0.379564
0.145652 0.0476211 -0.427751
0.127179 0.0483761 -0.42778
0.112934 0.0489583 -0.427802
0.0934004 0.0497567 -0.427832
0.185726 0.0901035 0.424518
0.185691 0.0890374 0.40259
0.174683 0.0875366 0.361979
0.154182 0.0884223 0.361947
0.133261 0.0893262 0.361914
0.106501 0.0904824 0.361873
-0.0402803 0.083234 0.0825185
-0.0402423 0.081258 0.0419673
-0.0402465 0.0803069 0.0224302
-0.040252 0.079073 -0.00291908
-0.0402547 0.0784701 -0.0153037
0.184442 0.0499914 -0.400477
0.184411 0.0490144 -0.420572
0.185657 0.0927526 0.381173
0.0845884 0.0963713 0.36184
0.0622132 0.0973903 0.361805
0.0393597 0.098431 0.361769
0.0218964 0.0992263 0.361742
-0.00183159 0.100307 0.361705
-0.0199696 0.101133 0.361677
-0.0384089 0.101973 0.361648
-0.0410258 0.100402 0.328721
-0.0409803 0.0994766 0.310724
-0.0403782 0.081481 -0.039394
-0.0403793 0.0802749 -0.0628961
-0.0403824 0.0791042 -0.0857106
-0.0403857 0.0779672 -0.107869
-0.172713 0.0675624 -0.428244
-0.187601 0.0682404 -0.428267
-0.0413224 0.103202 0.284919
-0.0412443 0.101812 0.259217
-0.041199 0.100906 0.242471
-0.0411101 0.0991422 0.209856
-0.0410455 0.0978592 0.186134
-0.0404981 0.0808147 -0.1293
-0.0404996 0.0796854 -0.150233
-0.1025 0.0676656 -0.428135
-0.116006 0.0683122 -0.428156
-0.136756 0.0693056 -0.428188
-0.0413792 0.101801 0.171136
-0.0412913 0.100088 0.140943
-0.0412058 0.0984318 0.111748
-0.0411232 0.0968295 0.0835044
-0.0386336 0.0677594 -0.428037
-0.063475 0.0690067 -0.428075
-0.0762417 0.0696478 -0.428095
-0.0428324 0.117734 0.358955
-0.041416 0.100154 0.0633219
-0.0413533 0.0989595 0.0432128
-0.041292 0.0977935 0.0235776
0.0252687 0.0675531 -0.427938
0.0141042 0.0681397 -0.427955
-0.0146744 0.069652 -0.427999
-0.0434018 0.121907 0.341318
-0.0432229 0.120206 0.313961
-0.0429356 0.117472 0.270024
-0.0415512 0.100601 -0.00153297
-0.0414892 0.0994472 -0.0201372
-0.0414287 0.0983193 -0.0383196
0.0783266 0.0676435 -0.427856
0.0576379 0.0687789 -0.427888
-0.0434211 0.120917 0.245495
-0.0432505 0.11931 0.220723
-0.0431393 0.118263 0.204571
-0.0416763 0.101016 -0.0616062
-0.0415952 0.0995325 -0.0845379
-0.0415554 0.0988071 -0.095753
0.184506 0.0687157 -0.361479
0.184473 0.0675516 -0.379563
0.127179 0.0677266 -0.42778
0.112934 0.0685416 -0.427802
-0.0436059 0.121581 0.181677
-0.0433838 0.119508 0.150979
-0.0431691 0.117504 0.12131
-0.0429616 0.115566 0.0926207
-0.0417925 0.101401 -0.117408
-0.0416929 0.0996113 -0.143985
0.184441 0.0689072 -0.400476
0.184411 0.0675604 -0.420571
0.163557 0.0683245 -0.427724
-0.165379 0.0879141 -0.428233
-0.187601 0.0892375 -0.428267
-0.0460138 0.138545 0.354403
-0.0453147 0.134048 0.290555
-0.043402 0.118715 0.0723989
-0.109221 0.0878861 -0.428146
-0.136756 0.0895902 -0.428188
-0.0465593 0.141229 0.318776
-0.0459343 0.137347 0.265693
-0.0437808 0.121304 0.0459338
-0.0436751 0.120338 0.0326824
-0.0435197 0.118917 0.0131962
-0.0433689 0.11753 -0.00583446
-0.0571793 0.0878601 -0.428065
-0.0762417 0.0890844 -0.428095
-0.0466629 0.141206 0.249906
-0.0463556 0.139307 0.224857
-0.0437307 0.120019 -0.0299543
-0.0435805 0.118655 -0.0480036
-0.00881702 0.087836 -0.42799
-0.032563 0.0894165 -0.428027
-0.0483985 0.150454 0.303669
-0.0469624 0.142435 0.201653
-0.0465596 0.139956 0.170076
-0.0462667 0.138152 0.147105
-0.0439313 0.121065 -0.0709053
-0.0437827 0.119724 -0.0880462
-0.0435893 0.117981 -0.110319
0.0362427 0.0878135 -0.427921
0.0141042 0.0893388 -0.427955
-0.0504953 0.160312 0.361067
-0.0469475 0.141766 0.133183
-0.0462773 0.137658 0.0825962
-0.0439262 0.120306 -0.131476
-0.0437365 0.118604 -0.152517
0.0783266 0.0877925 -0.427856
0.0576379 0.0892662 -0.427888
-0.0518156 0.163537 0.335403
-0.0511327 0.161914 0.316427
-0.0475181 0.144714 0.112169
-0.0468391 0.140568 0.0627549
-0.0465599 0.138862 0.042434
0.184506 0.0883488 -0.361479
0.11772 0.0877729 -0.427795
0.0983434 0.0891984 -0.427825
-0.0527445 0.165114 0.292317
-0.0518823 0.163474 0.273907
-0.050926 0.161133 0.24738
-0.0504892 0.159644 0.230361
-0.047013 0.141128 0.0169761
-0.0468297 0.140012 0.00409859
-0.0464717 0.137834 -0.021055
0.184472 0.0896094 -0.379563
0.184441 0.087823 -0.400476
0.154674 0.0877545 -0.427737
-0.066286 0.176099 0.347248
-0.0516217 0.162649 0.207723
-0.0510159 0.161144 0.191191
-0.0503817 0.158986 0.167279
-0.0501072 0.157605 0.151862
-0.0469089 0.140029 -0.0446467
-0.0467333 0.138963 -0.056577
0.18441 0.0887558 -0.420571
-0.11675 0.117532 -0.361894
-0.0508939 0.160449 0.130675
-0.0471575 0.141095 -0.079159
-0.0468125 0.139009 -0.101826
-0.0718724 0.117425 -0.361821
-0.0907733 0.118948 -0.361852
-0.0671288 0.176293 0.23605
-0.0517541 0.162584 0.102979
-0.0509794 0.160479 0.0811372
-0.0503011 0.157816 0.0532427
-0.0472237 0.141081 -0.12315
-0.0468873 0.139053 -0.144553
-0.0467227 0.138061 -0.155025
-0.0441524 0.119407 -0.352395
-0.064914 0.175478 0.177838
-0.0508651 0.159846 0.0275885
-0.0503895 0.157913 0.00789654
-0.0449432 0.125532 -0.324351
-0.0685139 0.176597 0.137259
-0.0509467 0.159889 -0.0164132
-0.0504733 0.158005 -0.0350827
-0.0476745 0.143027 -0.18436
-0.0458441 0.131538 -0.299152
-0.0654459 0.175624 0.0839099
-0.0510238 0.159931 -0.0581515
-0.0480527 0.144937 -0.20349
-0.0477226 0.142962 -0.222685
-0.0469353 0.138253 -0.268461
-0.0640101 0.175007 0.0353674
-0.0517055 0.161831 -0.0804381
-0.0510971 0.15997 -0.0977966
-0.050527 0.157596 -0.120129
-0.0481724 0.145312 -0.236204
-0.110171 0.137976 -0.361883
-0.065926 0.175756 -0.000875533
-0.0509915 0.159416 -0.140903
-0.0501972 0.155463 -0.177282
-0.0469872 0.137934 -0.338886
-0.0781186 0.138438 -0.361832
-0.0643716 0.175129 -0.0449698
-0.050382 0.156141 -0.206379
-0.0472611 0.139271 -0.358073
-0.0536736 0.165508 -0.159198
-0.0490796 0.149186 -0.301048
-0.0504329 0.155863 -0.27459
-0.0667585 0.175984 -0.147884
-0.05367 0.165321 -0.227299
-0.050115 0.153994 -0.320855
-0.0540108 0.165834 -0.254345
-0.0971829 0.157555 -0.361862
-0.11675 0.159634 -0.361894
-0.0510682 0.158659 -0.340143
-0.0781186 0.158947 -0.361832
-0.0556517 0.168043 -0.296445
-0.0514213 0.15972 -0.359259
-0.0674552 0.176176 -0.270936
-0.0684055 0.176392 -0.324815
-0.0663831 0.175725 -0.353711
