ply
format ascii 1.0
comment Created by Open3D
element vertex 952
property double x
property double y
property double z
end_header
0.189423 -0.2078 -0.347241
0.175142 -0.205711 -0.365834
0.17624 -0.20512 -0.3346
0.16181 -0.20512 -0.356352
0.179174 -0.186793 -0.348945
0.177598 -0.166879 -0.345764
0.217437 -0.140707 -0.379219
-0.155131 -0.207512 -0.35421
0.217313 -0.140812 -0.35698
0.217151 -0.140927 -0.333907
0.217553 -0.133775 -0.398334
-0.185817 -0.205126 -0.357652
0.217615 -0.140624 -0.312922
0.195325 -0.135198 -0.396757
0.217556 -0.140719 -0.288235
0.17633 -0.135844 -0.396336
-0.168169 -0.194996 -0.358095
0.21741 -0.140835 -0.262548
0.155325 -0.136726 -0.3956
0.188137 -0.205446 0.35134
0.217238 -0.14096 -0.235828
0.17334 -0.205125 0.364868
0.217755 -0.14063 -0.211547
0.131443 -0.135092 -0.39692
0.217695 -0.140733 -0.18282
0.216556 -0.122343 -0.37162
0.109482 -0.135764 -0.396503
0.177079 -0.194949 0.347567
0.217522 -0.140862 -0.152816
0.216592 -0.122326 -0.346594
0.184445 -0.121988 -0.398564
0.0849509 -0.136715 -0.395711
0.217338 -0.140997 -0.121514
0.21663 -0.122309 -0.320543
0.201659 -0.117076 -0.398539
0.217919 -0.140637 -0.093087
0.216669 -0.122291 -0.293404
0.128194 -0.124892 -0.398646
0.0569295 -0.134968 -0.397111
0.217842 -0.140752 -0.0592299
0.21671 -0.122272 -0.265105
0.0311066 -0.13569 -0.39667
-0.16585 -0.166319 -0.355194
0.217654 -0.140893 -0.0237357
0.218593 -0.13964 -0.0364686
0.216753 -0.122252 -0.235572
0.15723 -0.115761 -0.398604
0.00221831 -0.136702 -0.395842
0.216797 -0.122232 -0.204722
0.21677 -0.120618 -0.223395
0.216525 -0.105932 -0.393316
0.0971482 -0.121055 -0.398691
0.215357 -0.140847 0.0453949
0.216273 -0.139192 0.0272323
0.215992 -0.13817 0.0147432
0.216849 -0.12249 -0.169157
-0.0311109 -0.134821 -0.397336
0.177079 -0.16738 0.347567
0.21519 -0.140981 0.0859071
0.216331 -0.139244 0.0666227
0.216898 -0.122474 -0.135237
-0.061946 -0.135607 -0.39686
0.215823 -0.140567 0.122791
0.216949 -0.122457 -0.0996923
0.216923 -0.121008 -0.117675
0.216589 -0.102351 -0.349141
0.21656 -0.100737 -0.369161
0.184445 -0.102273 -0.398564
0.0752286 -0.11556 -0.398723
0.0403361 -0.119805 -0.398774
-0.0964422 -0.136686 -0.395999
0.215782 -0.140675 0.167068
0.216444 -0.138967 0.146411
0.217003 -0.12244 -0.0624023
0.216981 -0.121249 -0.0775358
0.216634 -0.102344 -0.317879
0.0156145 -0.119854 -0.39881
-0.0828853 -0.131569 -0.398701
0.215679 -0.140801 0.213733
0.216511 -0.139017 0.191785
0.21706 -0.122421 -0.0232356
0.217043 -0.121504 -0.0351911
0.216681 -0.102336 -0.285039
0.201659 -0.0953507 -0.398539
0.0638757 -0.111306 -0.39874
-0.0103803 -0.119905 -0.398848
-0.136729 -0.134645 -0.397607
0.215496 -0.14095 0.263006
0.216511 -0.138676 0.234194
0.216235 -0.121305 0.00197989
0.216731 -0.102328 -0.250498
0.216706 -0.10102 -0.267989
0.118079 -0.10237 -0.398661
-0.0519835 -0.121565 -0.398908
-0.174183 -0.135507 -0.397089
0.216153 -0.1405 0.307998
0.216653 -0.139125 0.289904
0.214701 -0.12218 0.0548201
0.214656 -0.119967 0.0244325
0.216784 -0.10232 -0.21412
0.216757 -0.100978 -0.232548
0.15723 -0.0954072 -0.398604
0.0971482 -0.102012 -0.398691
-0.18503 -0.133084 -0.39841
-0.21612 -0.136668 -0.396188
0.216119 -0.140618 0.362339
0.216685 -0.138761 0.337057
0.214774 -0.122472 0.104906
0.214734 -0.12051 0.0772215
0.216839 -0.102311 -0.175756
0.216532 -0.0872249 -0.38856
0.138086 -0.0949114 -0.398632
-0.112949 -0.121773 -0.398997
0.216707 -0.138823 0.392994
0.214844 -0.12244 0.153106
0.214815 -0.121089 0.133507
0.216898 -0.102302 -0.135237
0.216868 -0.100886 -0.155777
0.0403361 -0.102484 -0.398774
0.214918 -0.122406 0.204073
0.214888 -0.121017 0.183339
0.21696 -0.102292 -0.0923779
0.216934 -0.101075 -0.110533
0.0752286 -0.0960683 -0.398723
0.0156145 -0.102098 -0.39881
-0.0816274 -0.111933 -0.398952
-0.163404 -0.120204 -0.399071
0.214996 -0.122371 0.258052
0.214965 -0.120941 0.236082
0.217026 -0.102281 -0.0469688
0.216998 -0.101029 -0.0662135
0.216585 -0.0824554 -0.351679
0.21656 -0.0813179 -0.369161
-0.0103803 -0.101691 -0.398848
0.21508 -0.122332 0.315318
0.215063 -0.121592 0.303587
0.215029 -0.120138 0.280547
0.216235 -0.1024 0.00197989
0.217066 -0.10098 -0.0192106
0.216642 -0.082466 -0.312519
0.216611 -0.0811289 -0.3337
0.184445 -0.0800933 -0.398564
0.0638757 -0.0915808 -0.39874
-0.181231 -0.114934 -0.399097
0.215168 -0.122292 0.37618
0.21515 -0.121529 0.363704
0.215115 -0.12003 0.339212
0.214694 -0.102361 0.0504115
0.214662 -0.101034 0.0287064
0.216702 -0.0824772 -0.270861
0.216677 -0.0814385 -0.287839
0.201659 -0.0760392 -0.398539
-0.0519835 -0.099462 -0.398908
-0.129285 -0.1066 -0.399021
0.215196 -0.119536 0.395192
0.214774 -0.10234 0.104906
0.214732 -0.1007 0.0772226
0.216766 -0.0824892 -0.226459
0.216727 -0.0808906 -0.253444
0.118079 -0.0810985 -0.398661
0.0752286 -0.0849299 -0.398723
-0.112949 -0.101756 -0.398997
-0.146096 -0.104719 -0.399045
-0.199601 -0.109504 -0.399123
0.214858 -0.102317 0.16307
0.21483 -0.101182 0.143252
0.214801 -0.100071 0.123868
0.21683 -0.0823151 -0.182295
0.216807 -0.0813931 -0.198386
0.15723 -0.0750536 -0.398604
0.0971482 -0.0802497 -0.398691
-0.0666044 -0.0944114 -0.39893
0.214949 -0.102293 0.225288
0.214933 -0.101702 0.214619
0.214903 -0.100541 0.193647
0.216903 -0.0823222 -0.131758
0.216878 -0.0813681 -0.148994
0.218033 -0.0674317 -0.398472
0.0403361 -0.0822761 -0.398774
0.215046 -0.102267 0.291998
0.215013 -0.101051 0.269232
0.21498 -0.0998633 0.247002
0.216981 -0.0823298 -0.0775358
0.216949 -0.0811464 -0.0996923
0.0156145 -0.0813822 -0.39881
-0.0238863 -0.0845668 -0.398868
0.21515 -0.102238 0.363704
0.215115 -0.100978 0.339212
0.21508 -0.099748 0.315318
0.214656 -0.0847765 0.0244328
0.217066 -0.0823379 -0.0192106
0.217037 -0.0813123 -0.0391366
0.217009 -0.080312 -0.0585725
0.215196 -0.0999398 0.395192
0.215177 -0.0993101 0.382478
0.214681 -0.0824307 0.0416613
0.216235 -0.0803448 0.00197989
0.216574 -0.0623905 -0.359231
0.216546 -0.0614146 -0.378937
0.138086 -0.066308 -0.398632
0.0638757 -0.0718557 -0.39874
0.00278234 -0.0764228 -0.398829
-0.0519835 -0.0805169 -0.398908
-0.129285 -0.0862956 -0.399021
-0.199601 -0.0915522 -0.399123
0.214779 -0.0824314 0.109609
0.214752 -0.0815437 0.0909533
0.214719 -0.0804605 0.0681908
0.216649 -0.0624238 -0.307114
0.216611 -0.0611587 -0.3337
0.184445 -0.060378 -0.398564
-0.112949 -0.0817382 -0.398997
-0.146096 -0.0841189 -0.399045
-0.181231 -0.0866425 -0.399097
0.214888 -0.082432 0.183339
0.214858 -0.0815069 0.163071
0.214828 -0.0806025 0.143253
0.216731 -0.0624601 -0.250498
0.216706 -0.0616617 -0.267989
0.216677 -0.0607557 -0.287839
0.201659 -0.0567276 -0.398539
0.118079 -0.0624857 -0.398661
0.215005 -0.0824327 0.263625
0.214965 -0.0812291 0.236082
0.214933 -0.0802912 0.214619
0.21682 -0.0624995 -0.188775
0.216793 -0.0616651 -0.207868
0.216762 -0.0607193 -0.22951
0.15723 -0.0572443 -0.398604
0.0971482 -0.0612074 -0.398691
0.215132 -0.0824336 0.351382
0.215097 -0.0814235 0.327192
0.215063 -0.0804378 0.303587
0.215029 -0.0794757 0.280547
0.216913 -0.0623953 -0.12475
0.216898 -0.0619574 -0.135237
0.216868 -0.0610997 -0.155777
0.0403361 -0.0620679 -0.398774
-0.0816274 -0.0697552 -0.398952
0.215196 -0.0803438 0.395192
0.215177 -0.0798376 0.382478
0.21702 -0.0624354 -0.0508558
0.216992 -0.0616729 -0.0700061
0.216965 -0.0609288 -0.0886943
0.0752286 -0.057084 -0.398723
0.0156145 -0.0606667 -0.39881
-0.0103803 -0.062229 -0.398848
0.216235 -0.0614401 0.00197989
0.217066 -0.0605883 -0.0192106
0.218033 -0.0461375 -0.398472
-0.0519835 -0.0615717 -0.398908
-0.129285 -0.0659908 -0.399021
-0.199601 -0.0700105 -0.399123
0.214786 -0.062414 0.114337
0.214745 -0.0614085 0.0863519
0.214713 -0.0605949 0.0637106
0.0638757 -0.0521306 -0.39874
-0.112949 -0.0617207 -0.398997
-0.181231 -0.065424 -0.399097
0.214932 -0.0624488 0.21462
0.214901 -0.061736 0.193649
0.214871 -0.0610393 0.17315
0.214842 -0.0603581 0.153108
0.214813 -0.0596919 0.133509
0.214675 -0.0564225 0.0373205
0.214656 -0.0559845 0.0244328
0.21656 -0.0424795 -0.369161
0.138086 -0.0455055 -0.398632
-0.163404 -0.0609729 -0.399071
0.215097 -0.0624878 0.327192
0.215063 -0.0617313 0.303587
0.215029 -0.060993 0.280547
0.214996 -0.060272 0.258052
0.214964 -0.059568 0.236082
0.216669 -0.0424799 -0.293404
0.216642 -0.0418673 -0.312519
0.216611 -0.0411885 -0.3337
0.216581 -0.0405314 -0.354206
0.184445 -0.0406627 -0.398564
0.215196 -0.0607477 0.395192
0.215177 -0.060365 0.382478
0.215141 -0.0596138 0.357524
0.216793 -0.0424804 -0.207868
0.216761 -0.0418289 -0.22951
0.216735 -0.0412862 -0.247538
0.216706 -0.0406705 -0.267989
0.201659 -0.0374161 -0.398539
0.118079 -0.041214 -0.398661
0.0971482 -0.0421651 -0.398691
-0.0816274 -0.0502886 -0.398952
-0.181231 -0.0548147 -0.399097
0.216934 -0.0424809 -0.110533
0.216908 -0.0419817 -0.128262
0.216878 -0.0413978 -0.148994
0.216849 -0.04083 -0.169157
0.21682 -0.0402775 -0.188775
0.15723 -0.0368908 -0.398604
0.0403361 -0.0418597 -0.398774
-0.0238863 -0.0445897 -0.398868
-0.199601 -0.0520591 -0.399123
0.217625 -0.0423398 -0.00337046
0.217072 -0.0420518 -0.0151649
0.217043 -0.0415267 -0.0351912
0.216998 -0.0407133 -0.0662135
0.216532 -0.0322613 -0.38856
0.0156145 -0.0399513 -0.39881
-0.09707 -0.044411 -0.398974
-0.129285 -0.0456859 -0.399021
0.2148 -0.0424031 0.12387
0.214772 -0.0419427 0.104907
0.214732 -0.0412706 0.0772228
0.214713 -0.0409425 0.0637106
0.0752286 -0.0348073 -0.398723
0.00278234 -0.0374622 -0.398829
-0.0519835 -0.0394691 -0.398908
0.215019 -0.0423836 0.274875
0.214986 -0.0418842 0.252514
0.214946 -0.0412762 0.225292
0.21493 -0.0410379 0.214623
0.2149 -0.0405694 0.19365
0.214871 -0.0401116 0.17315
0.214842 -0.0396639 0.153108
0.214675 -0.0370777 0.0373205
0.214656 -0.0367898 0.0244328
0.0638757 -0.0324055 -0.39874
-0.163404 -0.0400679 -0.399071
0.215196 -0.0411517 0.395192
0.215177 -0.0408924 0.382478
0.215141 -0.0403835 0.357524
0.215115 -0.0400101 0.339212
0.21508 -0.0395228 0.315318
0.215062 -0.0392836 0.303588
0.138086 -0.0273033 -0.398632
-0.0816274 -0.0308221 -0.398952
0.216723 -0.0224948 -0.256378
0.216681 -0.0220217 -0.285039
0.202203 -0.0223036 -0.289826
0.216644 -0.0216126 -0.309821
0.216618 -0.0213047 -0.328469
0.216588 -0.0209634 -0.349141
0.21656 -0.0206329 -0.369161
0.184445 -0.0209475 -0.398564
0.0281286 -0.0248427 -0.398792
-0.199601 -0.0305174 -0.399123
0.214694 -0.0243718 0.0504115
0.216981 -0.0224536 -0.0775358
0.216949 -0.0221308 -0.0996923
0.216923 -0.0218689 -0.117675
0.216893 -0.0215626 -0.138701
0.216863 -0.0212648 -0.159145
0.216834 -0.0209751 -0.179033
0.216807 -0.0206932 -0.198386
0.216775 -0.0203737 -0.220317
0.216748 -0.0201076 -0.238583
0.118079 -0.0199422 -0.398661
0.0971482 -0.0204024 -0.398691
-0.09707 -0.0246727 -0.398974
-0.129285 -0.0253811 -0.399021
-0.181231 -0.0265232 -0.399097
0.214849 -0.0224814 0.158077
0.21482 -0.0222326 0.138368
0.214793 -0.0219893 0.119091
0.214765 -0.0217512 0.100231
0.214739 -0.0215182 0.0817751
0.216235 -0.02048 0.00197989
0.217066 -0.0201961 -0.0192106
0.217037 -0.0199445 -0.0391366
0.217009 -0.0196992 -0.0585725
0.201659 -0.0156906 -0.398539
0.15723 -0.0165372 -0.398604
-0.0103803 -0.0197311 -0.398848
-0.0519835 -0.0205239 -0.398908
0.215196 -0.0215556 0.395192
0.215177 -0.0214198 0.382478
0.21514 -0.0211533 0.357526
0.215112 -0.0209577 0.339215
0.21508 -0.0207024 0.315318
0.216573 -0.0205314 0.301594
0.21502 -0.0202704 0.274874
0.214988 -0.0200315 0.252511
0.214949 -0.0197407 0.225288
0.214934 -0.0196267 0.214618
0.214904 -0.0194027 0.193645
0.215614 -0.0174796 0.0150825
0.161482 -0.0153443 -0.265972
-0.163404 -0.0191629 -0.399071
0.152932 -0.0153437 0.0395709
0.139738 -0.015344 0.0197133
0.1245 -0.0153851 0.00143343
0.113232 -0.0153468 -0.019919
0.101925 -0.015347 -0.0369474
0.0830784 -0.0153473 -0.0653287
0.0698857 -0.0153474 -0.0851964
0.0566925 -0.0153476 -0.105064
0.0434989 -0.0153478 -0.124933
0.032195 -0.0153479 -0.141966
0.0208918 -0.0153479 -0.159
0.00770473 -0.015348 -0.178873
0.216531 -0.0107538 -0.38856
-0.0666044 -0.0144017 -0.39893
0.193217 -0.013313 0.302725
0.174642 -0.0135038 0.302721
0.145758 -0.0138004 0.302714
0.125787 -0.0140055 0.302709
0.105213 -0.0142167 0.302704
0.0946919 -0.0143248 0.302702
0.073162 -0.0145459 0.302696
0.0509571 -0.0147739 0.302691
0.0280452 -0.0150092 0.302686
0.0103762 -0.0151906 0.302682
-0.00772858 -0.0153765 0.302681
-0.0227649 -0.015344 0.275238
-0.0300422 -0.0153443 0.264303
-0.0494494 -0.0153449 0.235142
-0.0567278 -0.0153452 0.224206
-0.0761371 -0.0153458 0.195042
-0.0805671 -0.0153014 0.181839
-0.080097 -0.0151441 0.15946
-0.0796363 -0.01499 0.137537
-0.0792969 -0.0148765 0.121384
-0.0788523 -0.0147278 0.100225
-0.0784165 -0.014582 0.0794843
-0.0779893 -0.0144391 0.0591502
-0.0775703 -0.0142989 0.0392108
-0.0771594 -0.0141615 0.0196549
-0.0740738 -0.0139561 -0.00583452
-0.0734843 -0.01376 -0.0337299
-0.0730053 -0.0136008 -0.0563843
-0.0724452 -0.0134145 -0.0828868
-0.0721707 -0.0133232 -0.0958676
-0.0715448 -0.013115 -0.12548
-0.0711095 -0.0129703 -0.146072
-0.0706837 -0.0128287 -0.166213
0.0638757 -0.00986255 -0.39874
-0.0314162 -0.0111516 0.301566
-0.0506273 -0.0112928 0.301618
-0.0770116 -0.0114867 0.301691
-0.067591 -0.011287 0.274848
-0.0671543 -0.0111376 0.244812
-0.0649128 -0.0103692 0.0902925
-0.0646191 -0.010268 0.0699427
-0.0643311 -0.0101688 0.0499862
-0.0640487 -0.0100715 0.0304118
-0.0637717 -0.00997602 0.0112087
0.138086 -0.00650079 -0.398632
0.0752286 -0.00696147 -0.398723
-0.199601 -0.00897571 -0.399123
-0.0529274 -0.00670374 0.273511
-0.0523161 -0.00648008 0.19783
-0.0521808 -0.00643057 0.181076
-0.0520036 -0.00636572 0.159133
-0.0518299 -0.00630216 0.137627
-0.0517019 -0.00625532 0.121778
-0.0481587 -0.00586119 -0.00786954
-0.0479739 -0.00579376 -0.0306849
-0.0478295 -0.00574093 -0.0485624
-0.047656 -0.00567625 -0.0704541
-0.0475203 -0.00562554 -0.0876153
-0.0473537 -0.00556342 -0.108641
-0.0471907 -0.00550266 -0.129207
-0.0470313 -0.00544321 -0.149328
-0.0468754 -0.00538503 -0.16902
-0.0238863 -0.00461274 -0.398868
-0.0377493 -0.0046737 -0.398888
-0.09707 -0.00493456 -0.398974
-0.129285 -0.00507622 -0.399021
-0.181231 -0.00530465 -0.399097
0.215196 -0.00195962 0.395192
0.215178 -0.00194727 0.382477
0.215142 -0.00192304 0.357523
0.215115 -0.00190525 0.339212
0.215081 -0.00188205 0.315316
0.21506 -0.00187067 0.303591
-0.0400625 -0.00219284 0.250009
-0.0401102 -0.00217047 0.226946
-0.0403771 -0.00204525 0.0978827
-0.0404186 -0.00202577 0.0778063
-0.0404593 -0.00200666 0.0581086
-0.0404992 -0.0019879 0.038779
-0.0405385 -0.0019695 0.0198074
0.218134 -0.0012845 -0.294052
0.216641 -0.00126872 -0.312518
0.21661 -0.00124815 -0.3337
0.216581 -0.00122823 -0.354206
0.216552 -0.00120894 -0.374068
0.184445 -0.00123221 -0.398564
0.118079 -0.00132949 -0.398661
0.0971482 -0.00136017 -0.398691
0.0403361 -0.00144345 -0.398774
0.0156146 -0.00147969 -0.39881
-0.163404 -0.00174209 -0.399071
0.203978 0.00563493 0.294757
0.176386 0.00575627 0.294718
0.157322 0.0058401 0.294691
0.142656 0.0059046 0.294671
0.122589 0.00599284 0.294642
0.0966461 0.00610693 0.294605
0.0751696 0.00620137 0.294575
0.0641801 0.0062497 0.29456
0.0359428 0.00637387 0.29452
0.024331 0.00642493 0.294503
-0.00552881 0.00655624 0.294461
-0.0402354 0.00555761 -0.0998923
-0.0402601 0.00549761 -0.120477
-0.0402845 0.0054389 -0.140622
-0.0403084 0.00538143 -0.160341
0.201659 0.0036209 -0.398539
0.15723 0.00381627 -0.398604
0.00278234 0.00449544 -0.398829
-0.129285 0.0050762 -0.399021
-0.181231 0.00530463 -0.399097
-0.03031 0.0111087 0.294426
-0.0426127 0.0110801 0.270003
-0.0426743 0.010799 0.212129
-0.0426976 0.0106904 0.189793
-0.0427203 0.0105841 0.167901
-0.0427371 0.0105057 0.151766
-0.0427589 0.010403 0.130621
-0.0416883 0.00976867 0.00189054
-0.0404497 0.00964465 -0.021727
-0.0404684 0.00955777 -0.0396089
-0.0404913 0.00945135 -0.0615132
-0.0405092 0.0093679 -0.0786886
-0.0816274 0.00811108 -0.398952
-0.199601 0.00897571 -0.399123
0.0638757 0.00986253 -0.39874
0.215196 0.0176364 0.395192
0.215178 0.0175253 0.382477
-0.0435188 0.0198084 0.253128
-0.043573 0.0185596 0.11048
-0.0435807 0.0183814 0.0901154
-0.043588 0.0182065 0.0701379
-0.0435954 0.0180349 0.0505371
-0.0436025 0.0178665 0.0313023
0.0752286 0.0125306 -0.398723
-0.146096 0.0154504 -0.399045
0.215142 0.0211533 0.357523
0.215115 0.0209577 0.339212
0.215076 0.0207025 0.315322
0.215059 0.0205772 0.303592
0.216525 0.0130927 -0.393316
0.138086 0.0143017 -0.398632
-0.112949 0.0183494 -0.398997
0.166923 0.0251242 0.294705
0.142656 0.0255867 0.294671
0.122589 0.0259691 0.294642
0.0966461 0.0264634 0.294605
-0.0303088 0.0288827 0.294425
-0.0445775 0.0288687 0.271813
-0.0445753 0.0283506 0.230865
-0.0445742 0.0280628 0.208119
-0.0445731 0.0277808 0.18583
-0.0445727 0.0276419 0.174853
0.0971482 0.0176821 -0.398691
0.0403361 0.0187647 -0.398774
0.0156146 0.0192358 -0.39881
-0.0103803 0.0197311 -0.398848
-0.0519835 0.0205239 -0.398908
0.00656062 0.0325155 0.294478
-0.00552809 0.0327813 0.294461
-0.0450776 0.0315958 0.153627
-0.0450717 0.0312858 0.132407
-0.0450339 0.0294786 0.00866967
-0.0425499 0.0290651 -0.0159084
-0.0425411 0.0286721 -0.042814
-0.0425369 0.0284796 -0.0559957
-0.0425271 0.0280403 -0.0860754
0.218134 0.0192674 -0.294052
0.21664 0.0190307 -0.312518
0.21661 0.0187221 -0.3337
0.216581 0.0184234 -0.354206
0.216552 0.018134 -0.374068
0.184445 0.0184831 -0.398564
0.118079 0.0199423 -0.398661
-0.129285 0.0253811 -0.399021
0.0751696 0.0351412 0.294575
0.0641801 0.035415 0.29456
0.0359428 0.0361187 0.29452
-0.0816274 0.0275776 -0.398952
-0.199601 0.0305174 -0.399123
0.203978 0.035688 0.294757
-0.0462998 0.0392953 0.112526
-0.0462607 0.0388226 0.0870219
-0.0462302 0.0384526 0.0670563
-0.0462003 0.0380895 0.0474677
-0.0461782 0.0378217 0.0330174
-0.0434796 0.0351665 -0.106501
-0.0434348 0.0346367 -0.135086
-0.0433914 0.0341226 -0.162822
0.201659 0.0229325 -0.398539
0.15723 0.0241698 -0.398604
-0.181231 0.0335961 -0.399097
0.215196 0.0411517 0.395192
0.215178 0.0408924 0.382477
0.215142 0.0403835 0.357523
0.215112 0.0400102 0.339216
0.215076 0.039523 0.315322
0.215059 0.0392838 0.303592
0.012533 0.0453378 0.294486
-0.00552684 0.0458937 0.294459
0.0638757 0.0295876 -0.39874
0.142656 0.0452687 0.294671
0.122589 0.0459453 0.294642
-0.0303067 0.0511 0.294423
-0.0480214 0.0515318 0.287005
-0.0479954 0.0512613 0.274962
-0.0479313 0.0505974 0.245399
-0.0479063 0.0503366 0.233788
-0.0478567 0.0498231 0.21092
-0.0478083 0.0493199 0.188514
-0.0477605 0.0488268 0.166556
-0.047714 0.0483434 0.145033
-0.0476909 0.0481053 0.13443
-0.0238863 0.0353643 -0.398868
-0.112949 0.0383669 -0.398997
-0.163404 0.0400679 -0.399071
-0.048052 0.0491752 0.00593668
-0.0451404 0.0487985 -0.00515544
-0.0454604 0.0480439 -0.0366522
-0.0452358 0.0458588 -0.126118
-0.0451853 0.0453676 -0.146232
0.138086 0.0325039 -0.398632
0.0752286 0.0348073 -0.398723
-0.0519835 0.039469 -0.398908
0.157322 0.0525611 0.294691
0.0966461 0.0549625 0.294605
0.0751696 0.0558125 0.294575
0.0641805 0.0562474 0.294559
-0.0460123 0.0512242 -0.0627232
-0.0459756 0.0508823 -0.0756795
0.0403361 0.0389729 -0.398774
0.0156146 0.0399513 -0.39881
-0.129285 0.0456859 -0.399021
-0.199601 0.0484688 -0.399123
0.185714 0.0552476 0.294731
-0.050003 0.0600673 0.110139
-0.0499149 0.0594857 0.0896645
-0.0498285 0.0589152 0.0695823
-0.0497438 0.0583555 0.0498816
-0.0496606 0.0578064 0.0305516
0.216525 0.0345171 -0.393316
0.118079 0.038555 -0.398661
0.0971482 0.0394448 -0.398691
0.00278234 0.0434561 -0.398829
0.215196 0.0607477 0.395192
0.215178 0.060365 0.382477
0.215141 0.0596138 0.357525
0.215112 0.0590627 0.339216
0.215076 0.0583435 0.315322
0.215059 0.0579904 0.303592
0.0359449 0.0658634 0.294517
0.0243337 0.066391 0.294501
-0.0303049 0.0688738 0.294421
-0.0516736 0.0695424 0.284367
-0.0515603 0.0688136 0.260384
-0.0514495 0.0681 0.236898
-0.0470607 0.0557735 -0.165045
0.218134 0.0398192 -0.294052
0.21664 0.03933 -0.312518
0.216609 0.0386923 -0.3337
0.216581 0.038075 -0.354206
0.184445 0.0381983 -0.398564
-0.0816274 0.0502886 -0.398952
-0.181231 0.0548147 -0.399097
0.137694 0.0651908 0.294663
0.117478 0.0661687 0.294635
-0.0523225 0.0718239 0.214731
-0.0521756 0.0710912 0.192138
-0.0520316 0.0703732 0.17
-0.0518972 0.0696701 0.148311
-0.0518153 0.0691532 0.13234
0.216552 0.0398949 -0.374068
-0.00552386 0.0764893 0.294456
-0.0519915 0.0691329 0.00844151
-0.0493553 0.0681553 -0.0162819
-0.0489428 0.0655862 -0.0910826
-0.0488504 0.0650096 -0.10787
0.15723 0.0445233 -0.398604
0.0638757 0.0493127 -0.39874
-0.112949 0.0583844 -0.398997
-0.163404 0.0609729 -0.399071
0.0966469 0.0753189 0.294604
-0.0500529 0.0711311 -0.0428486
-0.0499535 0.0706475 -0.0561307
0.00278234 0.055444 -0.398829
-0.0519835 0.0584142 -0.398908
-0.181231 0.065424 -0.399097
0.166923 0.0753727 0.294705
-0.0494355 0.0877412 0.294392
-0.0547662 0.0811873 0.113687
-0.0546014 0.0803947 0.0930538
-0.0544404 0.0796175 0.0728197
-0.0542821 0.0788551 0.052973
-0.0541269 0.0781072 0.0335029
0.0752286 0.0542994 -0.398723
0.0156146 0.0577074 -0.39881
-0.199601 0.0700105 -0.399123
0.215196 0.0803438 0.395192
0.215178 0.0798375 0.382477
0.215139 0.0788442 0.357526
0.215112 0.0781152 0.339216
0.0806029 0.0844257 0.29458
0.0586243 0.0857466 0.294548
-0.0303025 0.0910909 0.294419
-0.0573199 0.0918032 0.27154
-0.0570754 0.090836 0.247671
-0.0568953 0.0901239 0.230096
-0.0566595 0.0891916 0.207088
-0.0564284 0.0882785 0.184551
-0.0511859 0.0751984 -0.135341
0.138086 0.0533064 -0.398632
0.107733 0.0551306 -0.398676
0.0403361 0.059181 -0.398774
-0.0238863 0.0630407 -0.398868
-0.0666043 0.0656079 -0.39893
0.215076 0.080928 0.315322
0.215059 0.0804382 0.303592
0.132697 0.0852605 0.294656
0.0125375 0.0928341 0.294481
-0.0574654 0.0917681 0.163475
-0.0571729 0.0906186 0.136448
-0.129285 0.072759 -0.399021
0.203978 0.0845242 0.294757
0.0359477 0.0956078 0.294515
-0.056934 0.0891437 0.00689489
-0.0541852 0.0880765 -0.013329
0.218134 0.0578021 -0.294052
0.216525 0.053561 -0.393316
0.201659 0.0543137 -0.398539
-0.163404 0.0783937 -0.399071
0.0966487 0.0956752 0.294603
-0.00552124 0.102714 0.294454
-0.0559189 0.106186 0.294381
-0.0594858 0.098566 0.122419
-0.059235 0.0975928 0.10152
-0.0550739 0.0910404 -0.0354503
-0.0547005 0.0895924 -0.0665442
-0.0536296 0.0849703 -0.165975
0.21664 0.0596294 -0.312518
0.216609 0.0586626 -0.3337
0.216581 0.0577266 -0.354206
0.184445 0.0579136 -0.398564
-0.112949 0.078402 -0.398997
0.157323 0.0953885 0.29469
0.0125387 0.105788 0.29448
-0.0305902 0.108899 0.294695
-0.0627031 0.109766 0.264476
-0.0623512 0.108604 0.240626
-0.0602117 0.10088 0.081895
-0.0599585 0.0999019 0.0617681
-0.0597101 0.0989427 0.0420277
0.216552 0.0592378 -0.374068
0.0638757 0.0690378 -0.39874
-0.0238863 0.0753413 -0.398868
-0.199601 0.0879619 -0.399123
0.215196 0.0999398 0.395192
0.215177 0.0993102 0.382479
0.215139 0.0980745 0.357526
0.203978 0.0957942 0.294757
0.0806049 0.105017 0.294578
-0.0635224 0.112029 0.218561
-0.0631689 0.110865 0.195647
-0.0629944 0.110292 0.184367
-0.062651 0.109164 0.162154
-0.0623143 0.108058 0.14039
-0.0565712 0.0959202 -0.0954956
-0.0562944 0.0948569 -0.116501
-0.0519835 0.0805169 -0.398908
0.215112 0.100978 0.339216
0.215076 0.0997485 0.315322
0.215059 0.0991448 0.303592
0.127664 0.105479 0.294646
-0.0567322 0.096131 -0.164576
0.0863162 0.0729302 -0.398707
0.0156146 0.0784229 -0.39881
-0.181231 0.0937154 -0.399097
0.176387 0.105532 0.294717
0.0549982 0.115525 0.298399
-0.0631925 0.110176 0.0203052
-0.0627694 0.10912 0.00120527
-0.0600014 0.107818 -0.0189478
0.0403361 0.0793892 -0.398774
-0.0816274 0.0892218 -0.398952
-0.129285 0.0930639 -0.399021
0.109235 0.115175 0.298139
-0.0695702 0.129607 0.288737
-0.0690755 0.128206 0.264215
-0.0663489 0.120106 0.122314
-0.0659816 0.118908 0.101284
-0.0656211 0.117735 0.0806686
-0.0609567 0.110596 -0.0409729
-0.0606433 0.109577 -0.0588666
-0.0595183 0.105918 -0.12313
-0.0593123 0.105217 -0.135466
0.15723 0.0725094 -0.398604
0.138086 0.0741089 -0.398632
0.00278234 0.0854137 -0.398829
-0.163404 0.0992987 -0.399071
0.154296 0.115327 0.298335
-0.0703639 0.131526 0.241752
-0.0698704 0.130131 0.218204
-0.0695072 0.129104 0.200869
-0.0690321 0.12776 0.178176
-0.0666862 0.120853 0.0614228
-0.0663254 0.119681 0.0415636
0.118079 0.0784395 -0.398661
-0.112949 0.0984195 -0.398997
0.216743 0.118885 0.386564
0.216765 0.118132 0.373903
0.196494 0.115472 0.298539
-0.0702729 0.130961 0.157278
-0.0697989 0.129623 0.135455
-0.0628918 0.116252 -0.0793623
0.218134 0.0783539 -0.294052
0.216525 0.0726048 -0.393316
0.201659 0.0736252 -0.398539
-0.0377493 0.0950317 -0.398888
-0.200052 0.109549 -0.399043
0.216126 0.119852 0.337824
0.216697 0.118649 0.319072
-0.0626617 0.115224 -0.157947
0.21664 0.0799288 -0.312518
0.216609 0.0786328 -0.3337
0.184445 0.0776288 -0.398564
0.0638757 0.0887629 -0.39874
-0.0769298 0.148539 0.289356
-0.0703349 0.130576 0.0153494
-0.0672929 0.128979 -0.00531477
-0.0651956 0.123091 -0.0952283
0.21658 0.0798347 -0.354206
0.216553 0.0785808 -0.374068
0.0971482 0.0884107 -0.398691
-0.078535 0.151786 0.266635
-0.0782005 0.150957 0.254439
-0.0775421 0.149328 0.230442
-0.0768979 0.147733 0.206957
-0.0743095 0.14132 0.112503
-0.0736215 0.139542 0.0862848
-0.0731277 0.138159 0.0658107
-0.0680901 0.130969 -0.0368485
-0.0674387 0.129144 -0.0638646
-0.0661886 0.125641 -0.115699
0.0752286 0.0932837 -0.398723
0.0156146 0.0991383 -0.39881
-0.0238863 0.103018 -0.398868
-0.0817513 0.108702 -0.398927
-0.139548 0.114505 -0.397071
-0.0782504 0.150843 0.185557
-0.077929 0.150049 0.174212
-0.0771401 0.148099 0.146368
-0.0743242 0.141131 0.0468491
0.0403361 0.0995973 -0.398774
-0.0784547 0.151124 0.126035
-0.0701744 0.136338 -0.0754522
-0.084399 0.167667 0.290014
-0.0775896 0.148775 0.0343657
-0.0699083 0.13538 -0.142592
0.15723 0.092863 -0.398604
0.138086 0.0949114 -0.398632
-0.0873726 0.171012 0.268423
-0.0867289 0.169596 0.249989
-0.0860959 0.168203 0.231857
-0.0819387 0.159057 0.112824
-0.0785346 0.150904 0.00626707
-0.0751243 0.149692 -0.00519723
-0.074725 0.147618 -0.0330126
-0.0726517 0.14251 -0.0998636
0.118079 0.0997112 -0.398661
-0.00220883 0.113015 -0.397739
-0.0875527 0.171215 0.210009
-0.0867159 0.169376 0.186727
-0.085897 0.167576 0.16394
-0.0829741 0.161153 0.082636
-0.0820488 0.15912 0.0569022
-0.076074 0.150751 -0.0457617
0.218134 0.0989058 -0.294052
0.21664 0.0976907 -0.312518
0.201659 0.0929368 -0.398539
0.0638283 0.108494 -0.398729
-0.0873128 0.170505 0.143296
-0.0740471 0.14559 -0.160756
0.216609 0.098603 -0.3337
0.216525 0.0940292 -0.393316
-0.0785809 0.156552 -0.0753025
-0.0769758 0.152612 -0.122849
0.21658 0.0994863 -0.354206
0.216552 0.0979238 -0.374068
0.184445 0.0998085 -0.398564
0.0963191 0.110288 -0.398489
-0.0975593 0.192202 0.289563
-0.0975901 0.190733 0.271337
-0.0964699 0.188589 0.246481
-0.0959373 0.187538 0.234277
-0.0911567 0.178111 0.124776
-0.0876493 0.170905 0.0408615
-0.0868725 0.169203 0.0209683
-0.0828106 0.166593 -0.00522119
-0.0975075 0.190443 0.212398
-0.0964318 0.188358 0.188816
-0.0926685 0.180943 0.10485
-0.0917146 0.179063 0.0835642
-0.0839847 0.168144 -0.0367721
-0.0828845 0.165736 -0.0642255
-0.0816402 0.163012 -0.0952767
-0.098013 0.191209 0.167764
-0.0971659 0.189655 0.150688
-0.0931945 0.181836 0.0643237
-0.0827255 0.165241 -0.115886
-0.0830907 0.165899 -0.152693
0.150457 0.114256 -0.396813
-0.105882 0.207678 0.242586
-0.0968159 0.188689 0.0418499
-0.0881119 0.17644 -0.0833326
-0.0874715 0.17518 -0.0965911
-0.104121 0.201709 0.128865
-0.103209 0.200086 0.112305
-0.102016 0.197961 0.0906345
-0.0980312 0.190869 0.0182818
0.217899 0.118752 -0.302198
0.198117 0.112822 -0.397542
-0.103592 0.200646 0.071247
-0.094776 0.192576 -0.00274271
-0.0959834 0.191511 -0.0160784
-0.0949382 0.189605 -0.035118
-0.093529 0.186839 -0.0629129
-0.0878714 0.175729 -0.174542
0.217644 0.119854 -0.31829
0.218122 0.11783 -0.339459
0.216525 0.113073 -0.393316
-0.0930495 0.185781 -0.115064
-0.0889738 0.177782 -0.193645
-0.0883625 0.176582 -0.205438
0.218184 0.118383 -0.359787
-0.152499 0.177571 -0.291652
-0.106205 0.2077 0.052844
-0.0888382 0.177408 -0.235368
-0.0872634 0.174319 -0.26506
-0.105934 0.207516 0.00869477
-0.0988318 0.196255 -0.0951644
-0.088125 0.175906 -0.28603
-0.116009 0.179491 -0.291597
-0.102477 0.202626 -0.0758755
-0.0981534 0.194952 -0.145902
-0.0987839 0.195976 -0.173875
-0.0933962 0.186038 -0.263008
-0.102796 0.205634 -0.123026
-0.099911 0.197883 -0.193108
-0.0991418 0.19652 -0.205041
-0.0989882 0.19616 -0.242832
-0.116012 0.200818 -0.291597
-0.103067 0.205343 -0.263406
-0.102942 0.202911 -0.284942
