ply
format ascii 1.0
comment Created by Open3D
element vertex 804
property double x
property double y
property double z
end_header
0.214045 -0.207668 -0.36983
0.214023 -0.205586 -0.389637
0.214071 -0.207385 -0.347061
0.214051 -0.192282 -0.364815
0.214026 -0.187489 -0.387183
0.219135 -0.175054 -0.337274
0.218649 -0.172491 -0.367605
0.219038 -0.175115 -0.305945
0.219842 -0.167473 -0.392258
0.218937 -0.175177 -0.273606
0.221057 -0.173093 -0.292917
0.218834 -0.175242 -0.240209
0.218727 -0.175308 -0.205699
0.218615 -0.175377 -0.170021
0.221039 -0.173383 -0.188692
0.157139 -0.168951 -0.398234
0.219551 -0.174966 -0.136607
0.219451 -0.175031 -0.0985744
0.22123 -0.173135 -0.118408
0.221669 -0.157469 -0.316824
0.219893 -0.155594 -0.34502
0.214846 -0.207899 0.354838
0.219348 -0.175098 -0.0591897
0.221268 -0.173144 -0.079853
0.219863 -0.150807 -0.372645
0.214886 -0.207151 0.392739
0.214866 -0.205707 0.373656
0.194488 -0.207368 0.346133
0.219241 -0.175168 -0.0183788
0.221308 -0.173154 -0.0399287
0.221747 -0.157407 -0.246474
0.219839 -0.146517 -0.394682
0.174087 -0.207381 0.346105
0.219129 -0.175241 0.0239374
0.221788 -0.157375 -0.209419
0.221766 -0.15588 -0.229534
0.219013 -0.175316 0.0678439
0.221024 -0.17379 0.0518545
0.22183 -0.157341 -0.171021
0.219893 -0.144955 -0.34502
0.157139 -0.152195 -0.398234
0.214866 -0.194784 0.373656
0.204419 -0.194628 0.346146
0.218892 -0.175394 0.113432
0.22202 -0.166781 0.00108278
0.221723 -0.147462 -0.268639
0.221702 -0.1461 -0.287649
0.184379 -0.194413 0.346119
0.219937 -0.174933 0.15594
0.221481 -0.173196 0.13503
0.221906 -0.156364 -0.102768
0.219853 -0.175002 0.204923
0.222121 -0.166827 0.0921724
0.221949 -0.15608 -0.0636859
0.221811 -0.147446 -0.188915
0.221589 -0.137387 -0.334953
0.0163206 -0.167416 -0.39839
0.214886 -0.185152 0.392739
0.219743 -0.175078 0.255907
0.221418 -0.173543 0.237325
0.221859 -0.172584 0.224249
0.221997 -0.156019 -0.0197673
0.221927 -0.151717 -0.0833971
0.221857 -0.147438 -0.146692
0.221672 -0.136112 -0.314207
0.219863 -0.132448 -0.372645
0.219628 -0.175157 0.308998
0.22146 -0.173563 0.289451
0.222216 -0.166065 0.178437
0.222052 -0.156193 0.0294762
0.221975 -0.151572 -0.0402473
0.221892 -0.146585 -0.115497
0.221738 -0.137351 -0.254841
0.221684 -0.173245 0.338954
0.222092 -0.155406 0.0659567
0.221785 -0.137337 -0.212316
0.221766 -0.136219 -0.229534
0.219839 -0.125772 -0.394682
0.214886 -0.174153 0.392739
0.2204 -0.171433 0.363448
0.222308 -0.164693 0.262375
0.222146 -0.155327 0.115104
0.221834 -0.137323 -0.16801
0.0163206 -0.154412 -0.39839
0.222238 -0.157275 0.198907
0.222198 -0.154995 0.162298
0.222032 -0.145617 0.0116498
0.221711 -0.127489 -0.279545
0.157139 -0.129855 -0.398234
0.222377 -0.161546 0.324558
0.222121 -0.14739 0.0921724
0.222076 -0.144896 0.0512298
0.221906 -0.135516 -0.102768
0.219884 -0.120554 -0.352631
0.222261 -0.15175 0.219715
0.221997 -0.137482 -0.0197673
0.221952 -0.135063 -0.060367
0.221811 -0.127405 -0.188915
0.222323 -0.151586 0.275453
0.222216 -0.145936 0.178437
0.222055 -0.13747 0.0330741
0.221931 -0.130877 -0.0801358
0.221864 -0.12736 -0.140524
0.221675 -0.117398 -0.311582
0.221655 -0.116336 -0.329811
-0.17978 -0.169167 -0.398608
0.220701 -0.154678 0.386811
0.222285 -0.146133 0.240868
0.222096 -0.136392 0.0696669
0.221975 -0.130138 -0.0402473
0.221888 -0.125676 -0.118657
0.221729 -0.117455 -0.263142
0.219863 -0.111466 -0.372645
0.220674 -0.149726 0.363176
0.222167 -0.136788 0.134549
0.222138 -0.13528 0.107412
0.221781 -0.117355 -0.215206
0.221759 -0.116244 -0.235211
0.0163206 -0.134908 -0.39839
0.220653 -0.145109 0.344562
0.222238 -0.136981 0.198907
0.222198 -0.134996 0.162298
0.222032 -0.126828 0.0116498
0.22184 -0.117414 -0.161962
0.219839 -0.105026 -0.394682
0.222377 -0.140244 0.324558
0.222052 -0.124639 0.0294762
0.157139 -0.110307 -0.398234
0.222333 -0.134615 0.284246
0.222266 -0.131506 0.223917
0.222121 -0.124715 0.0921724
0.221952 -0.116853 -0.060367
0.221705 -0.105276 -0.284955
0.219884 -0.102007 -0.352631
-0.17978 -0.149722 -0.398608
0.220663 -0.134826 0.353837
0.222009 -0.116377 -0.0093891
0.221811 -0.107364 -0.188915
0.222299 -0.126131 0.253729
0.2221 -0.117318 0.0733888
0.22208 -0.116415 0.0548945
0.221975 -0.111765 -0.0402473
0.221931 -0.109816 -0.0801358
0.221878 -0.107473 -0.128082
0.221652 -0.0974896 -0.332389
0.222352 -0.12497 0.30201
0.222176 -0.117385 0.142414
0.22215 -0.116271 0.118969
0.221909 -0.105884 -0.0995628
0.221684 -0.0961837 -0.303667
0.220657 -0.126013 0.396439
0.220691 -0.125124 0.377307
0.222377 -0.122491 0.324558
0.222234 -0.116497 0.194786
0.221778 -0.0974271 -0.218087
0.221756 -0.0965056 -0.238038
0.221735 -0.0956014 -0.257616
0.219868 -0.0907136 -0.367679
0.222211 -0.112205 0.174382
0.221847 -0.0973931 -0.15588
0.219844 -0.0870908 -0.389828
-0.17978 -0.130278 -0.398608
0.222275 -0.111379 0.232364
0.222108 -0.104787 0.0808671
0.157139 -0.0907587 -0.398234
0.0163206 -0.105651 -0.39839
0.220701 -0.114644 0.386811
0.222328 -0.109954 0.279842
0.222252 -0.107066 0.21135
0.222189 -0.10466 0.154306
0.222001 -0.0974642 -0.0163182
0.221952 -0.0956066 -0.060367
0.221705 -0.0861352 -0.284955
0.220674 -0.11004 0.363176
0.222308 -0.10575 0.262375
0.222084 -0.0974281 0.0585705
0.222063 -0.0966822 0.0403031
0.222044 -0.0959476 0.0223131
0.22202 -0.0950807 0.00108278
0.221814 -0.0874434 -0.185953
0.219893 -0.0811214 -0.34502
0.220653 -0.105697 0.344562
0.222367 -0.104381 0.315493
0.222163 -0.0970799 0.130635
0.222142 -0.0963144 0.111252
0.221895 -0.0874842 -0.112329
0.221878 -0.086862 -0.128082
0.222229 -0.0960801 0.190679
0.221971 -0.08714 -0.0436254
0.221931 -0.0857469 -0.0801358
0.22169 -0.0774206 -0.298356
0.221667 -0.0766162 -0.319435
-0.17978 -0.110833 -0.398608
0.222294 -0.0948718 0.249428
0.221997 -0.0849609 -0.0197673
0.221772 -0.077448 -0.223826
0.221759 -0.0770289 -0.235211
0.221699 -0.0760034 -0.263136
0.219863 -0.0721252 -0.372645
0.220653 -0.0949478 0.344562
0.222275 -0.0908165 0.232364
0.222088 -0.0847815 0.0622579
0.221949 -0.0803132 -0.0636859
0.22185 -0.0771507 -0.152826
0.221823 -0.076399 -0.174023
0.0163206 -0.0861459 -0.39839
0.220674 -0.0920003 0.363176
0.222333 -0.0891607 0.284246
0.222252 -0.0866721 0.21135
0.222207 -0.0852721 0.170341
0.222185 -0.0845889 0.150329
0.221768 -0.0748809 -0.134283
0.219839 -0.0661273 -0.394682
0.157139 -0.0712107 -0.398234
0.222055 -0.0774256 0.0330741
0.222024 -0.0764915 0.00459453
0.219891 -0.0674165 -0.276508
0.220657 -0.0858352 0.396439
0.220691 -0.0852291 0.377307
0.222167 -0.077458 0.134549
0.222138 -0.0766042 0.107412
0.222075 -0.0758909 0.0846475
0.219998 -0.0674364 -0.188392
0.21989 -0.0624234 -0.347563
-0.17978 -0.0913888 -0.398608
0.222202 -0.0759795 0.194811
0.220114 -0.067458 -0.0923851
0.219868 -0.0669936 -0.108359
0.215297 -0.0605038 -0.334308
0.222355 -0.076206 0.320034
0.222301 -0.075691 0.302057
0.222222 -0.0749313 0.275542
0.222157 -0.0743098 0.25385
0.219526 -0.0661377 -0.0356776
0.220657 -0.0748775 0.396439
0.220691 -0.0743488 0.377307
0.221367 -0.0701026 0.224649
0.218901 -0.0647473 0.0240645
0.217307 -0.062496 -0.0616075
0.212429 -0.0577894 -0.244469
0.211682 -0.0573023 -0.263981
0.21012 -0.0562859 -0.304705
0.204958 -0.0557009 -0.338479
0.0163206 -0.0666412 -0.39839
0.220674 -0.0703532 0.363176
0.219027 -0.0647375 0.144651
0.215699 -0.0605465 -0.0235212
0.212069 -0.0574778 -0.149556
0.2114 -0.0570433 -0.167776
0.209796 -0.0560604 -0.209216
0.220653 -0.0662843 0.344562
0.218299 -0.0509415 -0.278955
0.157139 -0.0516627 -0.398234
-0.17978 -0.0719444 -0.398608
0.21464 -0.0592759 0.184165
0.212478 -0.0575652 0.106099
0.212102 -0.0573215 0.0948156
0.211117 -0.0566816 0.0651886
0.210752 -0.0564454 0.0542486
0.208692 -0.0553961 0.00458741
0.217588 -0.0518836 -0.123361
0.218719 -0.05037 -0.185049
0.219863 -0.0458978 -0.372645
0.219839 -0.0453815 -0.394682
0.210886 -0.0564285 0.199433
0.209171 -0.0555513 0.15567
0.218717 -0.0507335 -0.0386914
0.219084 -0.0498228 -0.0789207
0.219176 -0.049385 -0.0984638
0.209198 -0.0554782 0.314028
0.208009 -0.0549048 0.283588
0.205748 -0.0541467 0.241673
0.219137 -0.0421317 -0.303305
0.219114 -0.0416952 -0.324342
0.219893 -0.0412256 -0.34502
0.220685 -0.0524964 0.372581
0.219686 -0.0519264 0.340872
0.219201 -0.0503889 0.260706
0.219474 -0.049622 0.221969
0.21931 -0.0424708 -0.145821
0.21928 -0.0419385 -0.173242
0.219235 -0.0411364 -0.214556
0.219213 -0.0407468 -0.234627
0.219191 -0.0403645 -0.254321
0.0163206 -0.0471364 -0.39839
0.219489 -0.0424772 0.0165899
0.219465 -0.0420945 -0.00458086
0.219454 -0.0419058 -0.015024
0.219401 -0.0410469 -0.0625453
-0.17978 -0.0525 -0.398608
0.220657 -0.045657 0.396439
0.219689 -0.0423459 0.196764
0.219675 -0.0421397 0.184442
0.219653 -0.0418004 0.16417
0.21963 -0.0414666 0.144222
0.219609 -0.0411381 0.12459
0.219574 -0.0406231 0.093818
0.219553 -0.0403078 0.0749735
0.219521 -0.0398133 0.0454236
0.219818 -0.040753 0.313336
0.219169 -0.0317157 -0.273648
0.157139 -0.0321146 -0.398234
0.219427 -0.0322559 -0.0390305
0.219383 -0.0316934 -0.0790484
0.219362 -0.0314194 -0.0985384
0.219341 -0.0311501 -0.117694
0.219263 -0.0301592 -0.18818
0.219858 -0.0274692 -0.377585
0.220657 -0.0346993 0.396439
0.220674 -0.0342746 0.363176
0.219711 -0.0324475 0.21757
0.220691 -0.0308275 0.377307
0.220653 -0.0304549 0.344562
0.219788 -0.0298165 0.286513
0.219773 -0.0296662 0.273304
0.219744 -0.0293701 0.247281
0.219882 -0.0224923 -0.355155
0.219313 -0.0219987 -0.142731
0.219299 -0.0218751 -0.155038
0.219233 -0.0212775 -0.214556
0.219211 -0.021076 -0.234626
0.21919 -0.0208782 -0.25432
0.219147 -0.0204937 -0.292619
0.219124 -0.0202802 -0.313878
0.219101 -0.0200711 -0.334698
0.0163206 -0.0243809 -0.39839
-0.17978 -0.0291666 -0.398608
0.219692 -0.0220559 0.200899
0.21967 -0.0218771 0.180362
0.219647 -0.0217013 0.160155
0.219625 -0.0215283 0.140271
0.219603 -0.021358 0.120701
0.219582 -0.0211903 0.101439
0.219561 -0.0210253 0.0824766
0.219536 -0.0208307 0.0601078
0.219516 -0.0206712 0.0417812
0.219492 -0.020483 0.0201563
0.219472 -0.0203288 0.00243399
0.219449 -0.0201468 -0.0184838
0.219404 -0.0197923 -0.0592152
0.219817 -0.0194906 0.313338
0.219173 -0.0124436 -0.268162
0.219836 -0.0124883 0.331528
0.219791 -0.0122982 0.290947
0.219767 -0.012195 0.268932
0.219748 -0.0121137 0.251583
0.219724 -0.0120136 0.230221
0.219426 -0.010752 -0.0390301
0.219382 -0.0105645 -0.079048
0.219361 -0.0104731 -0.098538
0.219339 -0.0103834 -0.117694
0.219271 -0.010095 -0.179241
0.157139 -0.00977402 -0.398234
0.220691 -0.00906693 0.377307
0.219858 -0.0065403 -0.377585
-0.17978 -0.00972222 -0.398608
0.220657 -0.00547885 0.396439
0.220674 -0.00541179 0.363176
0.0163206 -0.00487619 -0.39839
0.219795 -0.00177193 0.313358
0.219683 -0.00170502 0.213401
0.21965 -0.00168565 0.184461
0.219628 -0.00167208 0.164188
0.219605 -0.00165873 0.14424
0.219583 -0.00164559 0.124608
0.219548 -0.00162499 0.0938347
0.219527 -0.00161237 0.0749899
0.219494 -0.00159259 0.0454391
0.219482 -0.0015853 0.0345436
0.21945 -0.00156618 0.00597116
0.219426 -0.00155213 -0.0150099
0.219373 -0.00152032 -0.0625324
0.219283 -0.00146665 -0.14272
0.219269 -0.00145841 -0.155028
0.219215 -0.00142636 -0.202905
0.219192 -0.00141278 -0.223197
0.21917 -0.00139945 -0.243105
0.219114 -0.00136631 -0.292614
0.21909 -0.00135208 -0.313874
0.219067 -0.00133814 -0.334695
0.219893 -0.00132987 -0.34502
0.220657 0.00547882 0.396439
0.220674 0.00541176 0.363176
0.220691 0.00906693 0.377307
0.220653 0.00895735 0.344562
0.216261 0.00882378 0.294112
0.216296 0.00871974 0.263197
0.216325 0.00863251 0.237273
0.216648 0.00768426 -0.0444985
0.216694 0.00754977 -0.0844601
-0.17978 0.00972222 -0.398608
0.214475 0.0105076 -0.103038
0.214722 0.010125 -0.183882
0.21497 0.0097429 -0.264608
0.157139 0.009774 -0.398234
0.206074 0.0161972 0.321458
0.195718 0.0201211 0.340297
0.175285 0.0204868 0.340274
0.164788 0.0206747 0.340262
0.143205 0.0210609 0.340238
0.120799 0.0214619 0.340213
0.0975246 0.0218785 0.340187
0.0794667 0.0222016 0.340167
0.0545433 0.0226477 0.340139
0.0285975 0.023112 0.34011
0.00842941 0.023473 0.340087
-0.0123788 0.0238454 0.340064
-0.0338579 0.0242298 0.34004
-0.0485663 0.024493 0.340024
-0.078963 0.025037 0.33999
-0.102662 0.0254611 0.339963
-0.101681 0.0252781 0.317555
-0.101676 0.0251589 0.301425
-0.10167 0.0250018 0.280154
-0.101664 0.0248466 0.259147
-0.101658 0.0246933 0.238399
-0.101652 0.0245419 0.217905
-0.101647 0.0243923 0.197661
-0.101641 0.0242446 0.177663
-0.101644 0.0240988 0.15791
-0.101648 0.0239547 0.138393
-0.101652 0.0238124 0.119109
-0.101656 0.0236718 0.100052
-0.10166 0.0235328 0.0812188
-0.101665 0.0233614 0.0579862
0.200021 0.0169596 -0.077482
0.203884 0.0166128 -0.115079
0.205024 0.0163783 -0.144071
0.205431 0.0162325 -0.162843
0.206352 0.015902 -0.205371
0.206983 0.0156741 -0.234701
0.219863 0.014425 -0.372645
0.219839 0.0142628 -0.394682
-0.102393 0.0274668 0.0399395
-0.102383 0.0273082 0.0217899
-0.102371 0.0271126 -0.00060457
-0.102362 0.0269581 -0.0182903
-0.10235 0.0267674 -0.0401161
-0.102339 0.0265794 -0.0616352
-0.10233 0.0264308 -0.0786342
-0.102318 0.0262475 -0.0996175
-0.102307 0.0260667 -0.120312
-0.102296 0.0258884 -0.140723
-0.102286 0.0257125 -0.160857
-0.102275 0.0255389 -0.180719
-0.102264 0.0253677 -0.200314
-0.102254 0.0251988 -0.219649
-0.102244 0.0250321 -0.238728
-0.102234 0.0248676 -0.257556
-0.102222 0.0246731 -0.279825
-0.102212 0.0245132 -0.298119
0.219876 0.019974 -0.342468
0.0163206 0.0243809 -0.39839
-0.17978 0.0291667 -0.398608
0.220691 0.0308275 0.377307
0.220653 0.0304549 0.344562
0.0545433 0.0350009 0.340139
0.0285975 0.0357185 0.34011
0.00842941 0.0362763 0.340087
-0.104058 0.036826 0.115472
-0.104038 0.0366081 0.0964189
-0.104013 0.0363393 0.072918
0.220657 0.0346993 0.396439
0.220674 0.0342746 0.363176
0.103428 0.0376076 0.340194
0.0794667 0.0383483 0.340167
-0.0560408 0.0425371 0.340015
-0.10506 0.0430481 0.261212
-0.105033 0.0427817 0.240388
-0.105006 0.0425186 0.21982
-0.104374 0.0362723 -0.26845
-0.104346 0.035989 -0.290591
-0.104322 0.0357564 -0.308779
0.219879 0.0251064 -0.357673
0.200713 0.0382423 0.340302
0.180463 0.0389342 0.34028
0.159467 0.0396516 0.340256
0.137682 0.0403959 0.340232
0.120799 0.0409727 0.340213
-0.0123788 0.0455229 0.340064
-0.0338579 0.0462567 0.34004
-0.105816 0.0467421 0.199966
-0.105785 0.0464579 0.179879
-0.105754 0.0461771 0.160034
-0.105724 0.0458997 0.140428
0.157139 0.029322 -0.398234
-0.0867742 0.0526423 0.339981
-0.106889 0.0532704 0.331884
-0.10685 0.0529334 0.310152
-0.106812 0.0526007 0.288695
-0.106108 0.046532 -0.102714
-0.106086 0.0463388 -0.115177
-0.106049 0.0460202 -0.135721
-0.106012 0.0457061 -0.155984
-0.105976 0.0453962 -0.175972
-0.105941 0.0450904 -0.195691
0.220657 0.045657 0.396439
0.220674 0.0450981 0.363176
-0.0485663 0.0556658 0.340024
-0.10763 0.0568612 0.268029
-0.107598 0.0565959 0.252295
-0.107555 0.0562459 0.231543
-0.107185 0.053203 0.0510971
-0.107138 0.0528169 0.0281991
-0.107101 0.052512 0.0101186
0.219858 0.0327015 -0.377585
-0.17978 0.0486111 -0.398608
0.220691 0.0489614 0.377307
0.220653 0.0483696 0.344562
0.0545433 0.0555897 0.340139
-0.107841 0.0563463 -0.0119062
-0.1078 0.056025 -0.0295386
-0.10775 0.0556284 -0.0512985
-0.10771 0.0553152 -0.0684857
-0.107364 0.0525769 -0.218747
0.0163206 0.0438857 -0.39839
0.0975246 0.0576795 0.340187
0.0794667 0.0585315 0.340167
-0.078963 0.0660066 0.33999
-0.109468 0.0670043 0.31727
-0.109413 0.0665815 0.295684
-0.108947 0.0630037 0.113004
-0.108898 0.0626298 0.0939106
-0.108048 0.0561329 -0.237803
-0.10799 0.0556886 -0.260491
-0.107943 0.0553236 -0.279126
0.219876 0.0386164 -0.342468
0.175285 0.0577355 0.340274
0.164788 0.0582649 0.340262
0.143205 0.0593535 0.340238
0.120799 0.0604835 0.340213
0.0285975 0.0651338 0.34011
0.00842941 0.066151 0.340087
-0.109594 0.0661143 0.0521055
-0.10953 0.0656334 0.029151
-0.109479 0.0652537 0.0110264
0.200713 0.0600952 0.340302
-0.0338579 0.0726892 0.34004
-0.102662 0.0763833 0.339963
-0.111099 0.0755249 0.280746
-0.111034 0.0750528 0.259591
-0.110876 0.0738981 0.207842
-0.110814 0.0734461 0.187585
-0.110753 0.0729996 0.167575
-0.110692 0.0725585 0.147806
-0.110443 0.0707417 0.066389
-0.109837 0.0663444 -0.130671
-0.109775 0.0658893 -0.151064
-0.109713 0.0654405 -0.17118
-0.109314 0.0625431 -0.301021
-0.0123788 0.0758715 0.340064
-0.111458 0.0765502 0.128677
-0.111394 0.0760928 0.109363
-0.111331 0.0756408 0.0902778
0.157139 0.0488701 -0.398234
-0.17978 0.0680555 -0.398608
0.0545433 0.0761785 0.340139
-0.0560408 0.0828354 0.340015
-0.112946 0.0856195 0.314121
-0.112699 0.0838857 0.244907
-0.11166 0.0766065 -0.0456826
-0.111552 0.0758512 -0.0758351
-0.111446 0.0751106 -0.105399
-0.111126 0.0728745 -0.194667
0.220691 0.070722 0.377307
0.220653 0.0698672 0.344562
0.0975246 0.077569 0.340187
0.0794667 0.0787148 0.340167
-0.0338579 0.0859054 0.34004
-0.113322 0.0868628 0.183909
-0.113246 0.0863344 0.163907
-0.111796 0.0763478 -0.214086
-0.111751 0.076041 -0.225699
-0.111634 0.0752347 -0.256218
0.0163206 0.0633904 -0.39839
0.220657 0.0748775 0.396439
0.220674 0.073961 0.363176
0.154096 0.0777733 0.34025
0.132108 0.07924 0.340226
0.0285975 0.0861447 0.34011
-0.078963 0.0933196 0.33999
-0.115109 0.0956604 0.337395
-0.113445 0.0864856 0.00803137
-0.113372 0.0859871 -0.00990495
-0.113299 0.0854944 -0.0276358
0.219879 0.054177 -0.357673
0.219858 0.0536304 -0.377585
0.200713 0.0783058 0.340302
0.180463 0.0797224 0.34028
-0.0485663 0.0957452 0.340024
-0.115165 0.0969562 0.220475
-0.115076 0.0963591 0.200002
-0.113608 0.0865034 -0.137922
-0.11352 0.0859097 -0.158279
-0.113433 0.085324 -0.178358
0.00842941 0.0960256 0.340087
-0.102662 0.104159 0.339963
-0.11636 0.103796 0.294727
-0.116261 0.103142 0.273319
-0.115299 0.0967436 0.0638054
-0.115171 0.0958937 0.0359782
-0.113723 0.0862916 -0.278419
-0.11362 0.0856148 -0.300579
0.219876 0.059922 -0.342468
0.220657 0.0858352 0.396439
-0.117004 0.106967 0.247444
-0.116463 0.10341 0.135989
-0.116368 0.102788 0.116516
-0.116183 0.101567 0.0782647
-0.115398 0.0964137 -0.0831938
-0.115336 0.0960077 -0.0959123
-0.17978 0.0913889 -0.398608
0.220691 0.0888559 0.377307
0.220653 0.0877819 0.344562
0.0915641 0.0979337 0.34018
0.0671291 0.0998816 0.340153
-0.0123788 0.10622 0.340064
-0.118224 0.113922 0.317558
-0.115509 0.0962423 -0.213417
-0.115449 0.0958542 -0.225072
0.157139 0.0684181 -0.398234
0.143205 0.0976461 0.340238
0.120799 0.0995052 0.340213
0.0545433 0.105003 0.340139
-0.0790454 0.116089 0.340047
-0.118848 0.116982 0.269597
-0.118623 0.115525 0.227595
-0.118376 0.11393 0.181575
-0.118268 0.113234 0.161528
-0.117237 0.106569 -0.0306836
-0.117142 0.105961 -0.0482315
-0.116753 0.10345 -0.120627
0.0163206 0.0828951 -0.39839
0.220674 0.0956081 0.363176
0.185594 0.0978201 0.340286
0.164788 0.0996142 0.340262
-0.1201 0.124012 0.335225
-0.119903 0.122826 0.302362
-0.118946 0.116694 0.132318
-0.118809 0.115818 0.108024
-0.118334 0.112771 0.0235053
-0.117361 0.106541 -0.149269
-0.117247 0.10581 -0.169533
-0.117134 0.105089 -0.18952
-0.116805 0.102985 -0.247882
0.0285925 0.115561 0.340114
-0.120471 0.12556 0.249488
-0.120227 0.124004 0.207931
-0.119528 0.119559 0.0892197
-0.118984 0.116091 -0.00339422
-0.11741 0.106091 -0.270483
-0.1173 0.105392 -0.289135
0.219879 0.0726764 -0.357673
-0.120776 0.126648 0.157842
-0.12024 0.123261 0.0706116
-0.120125 0.122532 0.051857
-0.119172 0.11651 -0.103258
-0.119094 0.116021 -0.115847
0.219858 0.0745594 -0.377585
0.0915599 0.117921 0.340184
0.0671284 0.120266 0.340154
-0.122556 0.137052 0.304051
-0.122418 0.136183 0.282432
-0.120796 0.125993 0.0290435
-0.119247 0.116269 -0.212745
-0.119097 0.115332 -0.236043
0.219876 0.0785644 -0.342468
0.220647 0.110623 0.377351
0.220629 0.109283 0.344585
0.132102 0.117894 0.34023
0.109276 0.12016 0.340199
-0.124203 0.14325 0.337956
-0.122673 0.136996 0.188909
-0.121015 0.126639 -0.0600196
-0.120871 0.125742 -0.0815744
0.219924 0.115163 0.397195
0.170054 0.11787 0.340274
0.148674 0.120061 0.340245
-0.124445 0.14728 0.321608
-0.123779 0.143142 0.225354
-0.123708 0.142696 0.214992
-0.122782 0.136942 0.081164
-0.122651 0.136129 0.06225
-0.12208 0.132586 -0.0201555
-0.121108 0.126548 -0.160599
-0.120968 0.12568 -0.18077
0.157139 0.0879662 -0.398234
0.200706 0.11837 0.340309
-0.12428 0.145526 0.174627
-0.124065 0.144195 0.144645
-0.123924 0.143321 0.12496
-0.122756 0.136105 -0.0376216
-0.121168 0.126293 -0.25866
-0.121032 0.125456 -0.277525
0.219858 0.0850239 -0.377585
0.0163206 0.105651 -0.39839
-0.126032 0.155627 0.29543
-0.125952 0.155132 0.284615
-0.125792 0.154151 0.263189
-0.123923 0.142651 0.01199
-0.122949 0.136654 -0.119002
-0.122794 0.135703 -0.139771
0.212217 0.126028 0.376293
0.213871 0.124893 0.355786
-0.126389 0.157136 0.226833
-0.12623 0.156159 0.206116
-0.126072 0.155193 0.185656
-0.125387 0.150993 0.0966312
-0.124563 0.145947 -0.0103455
-0.122949 0.13606 -0.219903
-0.122799 0.135145 -0.239308
-0.128119 0.167046 0.335025
-0.128031 0.166508 0.323943
-0.126457 0.156901 0.12617
-0.12581 0.152953 0.044895
-0.124744 0.146451 -0.0889778
-0.123066 0.136219 -0.299611
0.219879 0.0938186 -0.357673
-0.126407 0.15599 0.0174899
-0.124783 0.146122 -0.179976
-0.124619 0.145124 -0.199945
-0.129592 0.17503 0.303088
-0.12928 0.172821 0.259971
-0.128319 0.167004 0.146751
-0.127782 0.163748 0.0833608
-0.12762 0.162771 0.0643505
-0.126617 0.156696 -0.0538947
-0.124884 0.146203 -0.258143
-0.124691 0.145037 -0.280829
0.219876 0.09987 -0.342468
-0.129752 0.176414 0.239177
-0.129705 0.175331 0.218334
-0.129349 0.172644 0.167207
-0.128207 0.16575 0.0365851
-0.126637 0.156274 -0.142959
-0.126529 0.155623 -0.155294
0.157139 0.107514 -0.398234
-0.130615 0.186277 0.336674
-0.13022 0.183036 0.276513
-0.129802 0.175355 0.132675
-0.129757 0.174312 0.113112
-0.128102 0.164577 -0.0664825
-0.126761 0.156512 -0.215323
-0.126516 0.155035 -0.242587
-0.1306 0.186575 0.255458
-0.130367 0.183706 0.203249
-0.129996 0.177713 0.0939069
-0.12995 0.176668 0.0747965
-0.128543 0.166713 -0.104897
-0.126775 0.156116 -0.29552
-0.133859 0.195342 0.322223
-0.130693 0.186597 0.172925
-0.1306 0.185466 0.152849
-0.130037 0.176659 -0.00387529
-0.129981 0.175401 -0.0263236
-0.128584 0.166472 -0.183208
-0.12847 0.165787 -0.195232
-0.134025 0.195474 0.241637
-0.13045 0.182542 0.023625
-0.130107 0.176403 -0.0831421
-0.128549 0.165798 -0.265252
-0.147741 0.206597 0.320084
-0.1433 0.204523 0.295329
-0.141749 0.203614 0.283524
-0.135283 0.197268 0.19054
-0.130185 0.176401 -0.154455
0.21939 0.115032 -0.357637
0.219603 0.113838 -0.377573
-0.150507 0.20731 0.2458
-0.146165 0.205902 0.232762
-0.135186 0.197023 0.110763
-0.134159 0.195405 0.0861629
-0.132732 0.192622 0.0430397
-0.130947 0.186656 -0.0525144
-0.13026 0.176398 -0.22256
0.218012 0.118793 -0.342295
-0.149631 0.207051 0.16742
-0.142471 0.203938 0.133818
-0.134307 0.195527 0.0159128
-0.131002 0.186414 -0.125276
-0.130311 0.175936 -0.295146
-0.148793 0.206804 0.0925924
-0.143176 0.204304 0.0661606
-0.135243 0.196885 -0.0334471
-0.132908 0.192678 -0.0951871
-0.131056 0.186184 -0.194731
-0.130788 0.182956 -0.245797
-0.151274 0.207452 0.0269848
-0.143134 0.204236 -0.00369975
-0.131045 0.185226 -0.272518
0.212517 0.125265 -0.379715
-0.146573 0.205936 -0.0519692
-0.143101 0.204173 -0.0706339
-0.135295 0.196759 -0.165586
-0.131156 0.185753 -0.324587
-0.131096 0.185032 -0.33551
-0.149937 0.187615 -0.341538
-0.149616 0.206968 -0.107729
-0.141383 0.202982 -0.14774
-0.13543 0.196849 -0.225613
-0.134524 0.195398 -0.24524
-0.141412 0.202951 -0.208756
-0.134964 0.196068 -0.294653
-0.150383 0.20712 -0.285417
