ply
format ascii 1.0
comment Created by Open3D
element vertex 1592
property double x
property double y
property double z
end_header
0.0487074 -0.167696 -0.118675
-0.161014 0.315377 -0.0112728
-0.11867 -0.212235 0.0539383
0.166467 -0.173017 0.159105
-0.0733741 -0.299616 -0.0349942
-0.145668 0.13608 -0.056866
-0.112444 -0.17747 0.0825567
-0.113528 -0.000929499 -0.0275756
-0.141272 0.110585 -0.0112728
0.0803631 -0.172373 -0.140024
-0.115898 0.0131977 0.0112738
-0.103977 -0.239781 0.0275766
0.0408925 -0.307743 0.088972
-0.00129697 -0.172373 -0.00335232
-0.102989 -0.0348777 0.00502997
0.0263062 -0.308422 0.07551
0.118335 -0.187982 0.1509
-0.0949165 -0.229753 0.0112738
-0.0098732 -0.187982 0.00406927
-0.165116 0.202196 -0.0213317
-0.112091 -0.185174 0.00892547
-0.125042 0.0582563 -0.0419532
-0.119983 -0.12683 0.0826313
-0.0387307 -0.172373 -0.0656595
0.132694 -0.187982 -0.0500548
-0.0280276 -0.172373 -0.0134035
0.161945 -0.311446 0.151264
-0.10122 -0.246025 0.088972
-0.113889 -0.223109 0.0275766
-0.115959 -0.00204994 0.0112738
-0.111777 -0.174402 -0.0705353
-0.0028911 -0.172373 0.037583
0.146487 -0.283381 0.154498
-0.159159 0.213032 0.073363
0.162032 -0.299616 0.0390834
-0.102331 -0.172237 0.00899247
-0.115171 -0.111127 0.0438793
-0.11629 -0.215286 0.073363
-0.165795 0.221472 -0.0766556
-0.0759085 -0.308422 0.0118075
-0.124589 -0.182319 0.00646465
-0.114649 -0.386671 0.073363
0.0539771 -0.187982 0.0959053
-0.113435 -0.00580061 0.0601821
-0.0803912 -0.282098 0.0601821
0.144798 -0.166129 -0.0877499
-0.120287 0.0242407 -0.0213317
-0.0424573 -0.308422 0.0796596
-0.121276 0.00835715 -0.0112728
-0.134443 0.0872225 -0.0601816
-0.0700003 -0.187982 -0.0241652
-0.105836 -0.044009 -0.0539383
0.094523 -0.172373 -0.018582
-0.140522 0.105019 -0.0213317
0.0186923 -0.187982 0.0176466
0.0657671 -0.172373 -0.0306132
0.128502 -0.299616 -0.0735735
0.0910375 -0.166129 0.00498297
-0.11195 -0.16527 0.0389027
0.00237155 -0.172373 0.0127572
-0.112436 -0.178794 0.00982842
0.0911308 -0.166129 0.0201763
-0.159503 0.298122 -0.073363
0.156315 -0.171121 0.0438194
0.161121 -0.299616 -0.0256947
-0.065829 -0.187982 0.0357945
-0.16078 0.307054 0.0438793
0.138177 -0.166129 -0.0812044
0.114561 -0.187982 0.131578
-0.161547 0.283565 -0.0539383
-0.106615 -0.172373 0.0445237
-0.100002 -0.255108 -0.0215494
-0.148084 0.32832 -0.0763162
0.0967272 -0.187982 -0.0634722
-0.152469 0.243868 -0.0382128
-0.054789 -0.282214 0.0756089
0.100347 -0.166129 -0.0361429
-0.0519277 -0.307704 -0.00320275
-0.156857 0.29728 -0.0112728
0.0347274 -0.166129 0.0297775
-0.114727 -0.177835 0.0601821
0.101037 -0.166129 0.0618903
-0.0967689 -0.3515 -0.0866858
-0.0512554 -0.297704 -0.0775586
0.157671 -0.410948 -0.150088
-0.122248 -0.397101 0.073363
-0.105856 -0.187982 0.0351742
-0.158317 0.136948 -0.0274489
-0.120105 -0.00514657 0.0100285
-0.0886319 -0.172373 -0.0565526
-0.0743403 -0.29648 0.0275766
0.148269 -0.299616 -0.106718
-0.128254 0.0401738 -0.0275756
0.039325 -0.166129 0.107284
0.161562 -0.417265 -0.164109
0.0908018 -0.187982 -0.0745656
0.166467 -0.303811 -0.0412353
-0.00371082 -0.170116 -0.107329
0.115485 -0.166129 0.130098
-0.0457017 -0.299616 -0.0752285
-0.148578 -0.421861 -0.0873802
0.162966 -0.187982 0.150423
-0.140004 0.437014 0.0515745
-0.106113 -0.0395649 0.0438793
-0.110961 -0.397224 -0.0881069
-0.111777 -0.172778 -0.0309814
-0.147819 0.395129 0.0376355
0.0288767 -0.187982 0.0694399
-0.156372 0.189892 0.0213327
-0.16246 0.209957 0.0213327
-0.140809 0.0838975 -0.0213317
-0.15387 0.115538 -0.0785716
-0.100947 -0.0496981 -0.0869695
-0.111857 -0.163774 0.007188
-0.164339 0.177086 0.077931
0.105347 -0.172373 0.0961526
-0.14056 0.111997 -0.0220515
-0.0681298 -0.261699 0.0869302
0.0809489 -0.166129 -0.0237347
-0.0882418 -0.272002 0.0252109
-0.116469 -0.0018651 0.0112738
0.150891 -0.287741 0.161175
-0.166008 0.215134 -0.0596042
0.0625167 -0.168702 0.124003
0.142605 -0.172373 0.0291425
-0.139711 0.0825312 -0.00502897
-0.0587255 -0.299616 0.0271618
-0.117089 0.00453111 0.0376355
-0.0250499 -0.308422 0.0854
-0.0973715 -0.259278 0.00530443
-0.157059 0.130446 0.080288
0.0687641 -0.166129 0.00970095
-0.0600183 -0.166129 -0.0254352
-0.0872817 -0.273213 -0.00594173
-0.146516 0.0913745 0.0376355
-0.150684 0.312063 0.0539383
-0.106128 -0.223404 -0.0112728
-0.112449 -0.100815 0.0112738
0.0330112 -0.172373 -0.0835611
-0.16298 0.241728 0.00502997
0.011981 -0.172373 0.0290876
-0.140674 0.425074 -0.0294006
-0.103942 -0.109023 -0.00622312
-0.0766486 -0.294646 0.0421667
-0.112011 -0.166298 -0.0756353
-0.150892 0.278779 -0.0254596
0.143067 -0.166129 -0.0818692
-0.157204 0.348509 -0.0213317
-0.0778517 -0.271532 0.088972
0.146487 -0.368586 0.154111
-0.0677997 -0.308422 0.0624826
-0.115485 -0.032489 0.00975675
0.166467 -0.305468 -0.117854
-0.0445912 -0.166129 0.0387988
0.0666512 -0.187982 0.0990198
0.0424511 -0.172373 -0.017056
0.146487 -0.431025 -0.159031
-0.100793 -0.0611998 -0.00502897
0.0382966 -0.172373 -0.0801313
-0.0598952 -0.172373 0.0242701
0.0339462 -0.172373 0.0580963
-0.111503 -0.0827105 0.081084
0.0195856 -0.166129 0.0861993
-0.149955 0.118862 -0.0376345
-0.0529231 -0.299616 -0.00637347
-0.140762 0.112848 -0.0827705
-0.133556 -0.413373 0.088972
0.144031 -0.166129 0.0745373
-0.0798119 -0.172373 0.0229781
-0.111863 -0.0877252 0.056838
-0.0724037 -0.258409 -0.088972
-0.0555747 -0.166129 -0.0607103
-0.133153 0.0452229 -0.08181
-0.161156 0.153447 0.0830247
0.112875 -0.172373 -0.0835443
0.164987 -0.243596 -0.152099
0.0479213 -0.187982 0.124908
-0.0987589 -0.0852209 0.0253014
0.16287 -0.24498 -0.164468
-0.0124016 -0.172373 -0.0959446
0.158577 -0.299616 -0.149302
0.0818482 -0.187982 -0.0895737
-0.11843 -0.137753 0.0275766
-0.156976 0.157036 0.0213327
-0.0772798 -0.259064 -0.0438783
0.1633 -0.308422 -0.0672293
-0.101327 -0.0460541 -0.0078437
-0.15769 0.293973 -0.0112728
0.0678871 -0.172373 0.0247769
0.166467 -0.173001 -0.0276863
0.166467 -0.186242 0.124428
0.156838 -0.279827 0.16281
-0.162243 0.172592 0.0376355
-0.150787 0.313881 0.073363
-0.0565167 -0.166129 -0.0326136
-0.101365 -0.045704 -0.0868268
0.116347 -0.187982 0.0220716
-0.0632619 -0.268454 0.0588728
0.10271 -0.187982 -0.0704845
-0.112098 -0.185095 -0.00771715
0.164509 -0.187982 0.121204
0.0452645 -0.166129 -0.0472279
-0.156539 0.365432 -0.0438783
0.162738 -0.299616 0.125181
-0.0527125 -0.172373 0.0752444
0.119734 -0.187982 -0.0764711
-0.10964 -0.0677257 0.0112738
-0.109857 -0.0760353 0.0601821
0.058325 -0.172373 0.082668
-0.032682 -0.305514 0.073363
-0.104862 -0.0890884 0.0438793
-0.0571379 -0.283702 0.0539383
-0.0249203 -0.172373 -0.10359
-0.112946 -0.0238447 -0.0376345
-0.152279 0.333453 -0.0438783
0.158679 -0.172373 0.147562
-0.151597 0.143557 0.088972
-0.0676104 -0.287642 -0.0213317
-0.117368 0.00547804 -0.073363
-0.0913014 -0.166129 -0.0104422
0.113831 -0.172373 -0.0789946
-0.0502696 -0.308422 -0.0874901
-0.165789 0.191624 -0.0798975
-0.111512 0.00906492 -0.0112728
-0.147972 0.33689 -0.0213317
-0.110139 -0.0791594 0.0601821
-0.157727 0.233425 0.088972
-0.102134 -0.0610936 0.0213327
-0.119218 -0.151315 0.0213327
-0.135606 0.0526604 -0.0561737
-0.122056 -0.198953 0.00809439
-0.109501 -0.0215084 0.0275766
-0.124926 -0.17688 -0.077027
0.121417 -0.172373 0.124707
-0.133184 0.0839267 0.0585773
0.0809295 -0.166129 -0.0722522
0.0538007 -0.166129 0.103071
-0.114461 -0.113133 0.0376355
0.0181188 -0.187982 -0.0188403
0.127904 -0.187982 -0.130623
-0.00278394 -0.303298 0.073363
-0.0877145 -0.272667 -0.0220059
0.164679 -0.299616 0.0455976
0.161669 -0.308422 -0.0583705
0.129806 -0.187982 0.14466
-0.161786 0.191033 0.0438793
-0.13589 -0.421556 -0.073363
-0.120546 -0.16522 0.0601821
-0.116293 -0.37856 0.0868518
-0.0734934 -0.34188 -0.073363
0.019918 -0.299616 0.0821902
0.0162982 -0.166129 -0.0161895
-0.150765 0.12814 0.0601821
-0.0303298 -0.187982 0.0721393
-0.156159 0.212145 0.0438793
-0.121932 -0.139515 0.07633
-0.0452321 -0.172373 0.0806529
-0.0570823 -0.302123 -0.0275756
-0.143261 0.39487 -0.0821049
-0.0302155 -0.172373 0.0701884
0.107156 -0.172373 0.0540658
-0.158927 0.350212 0.088972
-0.117788 0.0262777 0.088972
0.0545505 -0.172373 -0.0263139
-0.0740941 -0.284306 -0.0376345
0.0745547 -0.187982 -0.0386903
-0.105952 -0.0316039 0.088972
-0.119493 -0.12406 -0.0389823
-0.0718677 -0.286584 -0.0376345
-0.111777 -0.177628 0.0399629
-0.150584 0.352829 0.00502997
0.0850216 -0.176123 0.143069
0.0679071 -0.172373 -0.0641611
0.0416742 -0.187982 -0.122428
0.0976185 -0.187982 0.0112674
-0.122674 0.0134042 0.0376355
0.106259 -0.187982 0.106847
-0.090823 -0.172373 0.0305352
-0.112318 -0.0626501 0.0742099
0.133266 -0.308422 -0.0866062
-0.113303 -0.160031 -0.0213317
-0.139792 0.435994 0.0356162
0.0993148 -0.172373 0.0234594
-0.067616 -0.327599 -0.088972
-0.0504468 -0.187982 0.057845
0.154206 -0.299616 -0.109636
0.146487 -0.41697 -0.156897
0.166467 -0.218032 0.16483
-0.000638686 -0.166129 -0.0345401
-0.116601 -0.0248909 -0.0395607
0.153802 -0.168516 0.0810303
-0.0783649 -0.24806 -0.0855043
0.0922905 -0.187982 0.061461
-0.153524 0.312146 -0.0539383
0.155284 -0.187982 -0.0897272
-0.107681 -0.241157 -0.0743061
0.130913 -0.172373 0.0639102
-0.0552853 -0.304276 -0.00502897
-0.154187 0.413435 0.0842682
-0.0797149 -0.336675 -0.088972
-0.128239 0.0678329 -0.0254542
-0.139807 0.434591 -0.0127746
0.166467 -0.173463 -0.164846
-0.149576 0.37158 0.088972
-0.111034 0.0105289 -0.0252985
0.146487 -0.382609 -0.148561
-0.0614493 -0.299616 0.0026857
0.0980811 -0.302055 -0.088972
0.138861 -0.172373 0.134888
-0.113551 -0.142231 -0.0275756
-0.121835 -0.138807 -0.0889008
-0.0942796 -0.374548 -0.085914
-0.0996225 -0.356926 0.088972
-0.141691 0.109474 0.0438793
0.158756 -0.308422 -0.100739
-0.049387 -0.166129 -0.039527
-0.118883 0.00455898 0.0601821
-0.0572463 -0.187982 0.0616385
0.162692 -0.249096 0.164419
-0.0762315 -0.297217 0.058126
-0.10356 -0.237971 0.0275766
-0.0619021 -0.281658 0.0376355
-0.1021 -0.187982 0.0319777
-0.0387246 -0.172373 0.00815465
-0.0680975 -0.261744 -0.00775307
-0.146874 0.346678 -0.0556162
-0.11713 -0.00146287 -0.0112728
0.092484 -0.187982 -0.0807714
-0.114666 0.024879 -0.0585847
-0.159106 0.175529 -0.0601816
-0.152895 0.232981 0.00696185
-0.00406053 -0.187982 0.033492
-0.141216 0.418975 0.0451547
-0.164375 0.207737 0.0112738
-0.165863 0.219493 -0.0749058
-0.110153 -0.0475249 0.00502997
-0.104212 -0.0242535 -0.0569133
-0.144219 0.44123 0.0496158
0.122996 -0.185657 -0.153507
-0.101605 -0.246467 0.0438793
-0.111042 -0.19256 0.00653349
-0.106781 -0.187982 0.0653993
-0.152801 0.302685 -0.00502897
-0.0625056 -0.166129 -0.0230857
-0.0761439 -0.272429 0.0213327
-0.113254 -0.175874 -0.073363
-0.111932 -0.0685215 -0.00765787
-0.111444 -0.195883 -0.0213317
0.0282058 -0.304885 0.088972
-0.131133 0.0698481 0.0539383
0.146487 -0.306182 0.0268517
-0.163409 0.278184 -0.0748068
-0.104642 -0.0744636 -0.0438783
0.159251 -0.197474 0.163474
0.106292 -0.172373 -0.00578754
-0.118595 -0.173927 0.0601821
-0.0529697 -0.187982 0.101078
-0.149551 0.324767 0.073363
-0.153008 0.426768 -0.00101054
-0.0906368 -0.246433 0.0601821
0.155641 -0.299616 0.13825
0.035032 -0.301926 -0.073363
0.166162 -0.187982 -0.107159
0.155168 -0.308422 0.105482
-0.163799 0.270178 -0.0792747
0.0175288 -0.308422 -0.0873387
-0.104166 -0.225585 0.0275766
-0.107383 -0.205582 0.00744861
-0.0623867 -0.172373 0.0283402
-0.0644628 -0.328535 -0.073363
-0.111046 -0.172373 0.0543864
0.0931684 -0.299616 0.077558
0.0233809 -0.166129 0.0575454
-0.158719 0.185359 -0.088972
-0.00761258 -0.308422 -0.0872886
-0.126206 0.0259561 -0.0376345
0.0886351 -0.187982 -0.137819
-0.162368 0.219768 -0.00502897
-0.121832 0.00310258 0.0408811
-0.113576 -0.0483007 -0.0237346
-0.0633795 -0.187982 -0.0891189
0.0142761 -0.187982 0.05312
-0.0738589 -0.264127 0.0112738
-0.138614 0.0771389 -0.0376345
-0.0518181 -0.30708 0.000539019
-0.0374964 -0.187982 0.0498565
-0.049385 -0.167796 0.0918822
-0.111777 -0.180388 0.0275687
0.156706 -0.187982 0.0908451
-0.133162 0.0838519 -0.0854947
-0.0800306 -0.172373 0.0189821
0.0887269 -0.172373 0.0685116
-0.111935 -0.186613 -0.0398288
-0.149005 0.313315 0.0566701
-0.157777 0.265232 -0.073363
-0.0661911 -0.166201 0.0826103
-0.139537 0.101679 -0.0376345
-0.123601 -0.178827 -0.0601816
0.0771279 -0.187982 0.13673
-0.151202 0.272462 0.0254964
0.0631222 -0.172373 0.0322031
-0.0919179 -0.237844 0.0275766
-0.0942235 -0.253114 0.00502997
-0.0628215 -0.187982 0.0902296
-0.0221849 -0.172373 -0.110448
0.146487 -0.247739 0.14921
-0.0527766 -0.172373 0.0301088
0.0441296 -0.187982 -0.12437
-0.12493 -0.177898 0.0233104
-0.12774 0.0658502 -0.0539383
-0.0887904 -0.247554 0.0275766
-0.162552 0.209229 -0.0112728
0.101279 -0.187982 0.0133816
0.0046819 -0.187982 -0.0841233
-0.165661 0.19017 -0.00634879
-0.0955427 -0.166657 -0.0746407
-0.0922373 -0.230676 0.0239432
-0.107804 -0.101858 0.0213327
-0.112866 -0.0343873 0.0601821
-0.110634 -0.0192455 0.0438793
-0.142745 0.0825747 -0.0601816
-0.1469 0.346302 0.00888711
0.135439 -0.166129 0.0182215
-0.0811109 -0.269816 -0.0539383
0.166467 -0.307467 0.116553
-0.131237 0.0694385 0.0539383
-0.122877 0.0519433 0.0885808
-0.157014 0.188373 0.088972
0.148483 -0.299616 0.0577964
-0.153375 0.219538 0.0755628
-0.122073 -0.140579 0.0878747
-0.124912 -0.176032 0.00601382
0.00860016 -0.166129 0.0638378
-0.151588 0.384944 -0.073363
-0.16122 -0.441489 0.077085
-0.165269 0.235961 0.0600113
0.090656 -0.187982 -0.131621
-0.1595 0.143477 -0.0820177
-0.133771 0.0538065 -0.0376345
0.0657462 -0.166129 -0.0530964
-0.121843 -0.138864 0.0267434
-0.15265 0.157187 0.088972
-0.0405272 -0.187982 -0.0468396
-0.0768261 -0.293773 -0.0108299
-0.149102 0.320635 -0.0539383
-0.11086 0.0094221 0.0275766
-0.0723315 -0.266465 0.0275766
-0.158087 0.364667 -0.043383
0.0678441 -0.187982 -0.0421337
-0.123482 0.0271381 0.0438793
0.146487 -0.356513 -0.152751
-0.118227 0.00862128 0.0601821
-0.075631 -0.251651 0.073363
-0.109519 -0.0802641 -0.0601816
-0.160267 0.168732 -0.0601816
-0.0998811 -0.0619511 -0.0054608
0.000901684 -0.166129 0.0393033
-0.103314 -0.0815224 -0.0112728
-0.161156 0.318911 0.0546448
0.153222 -0.327589 0.148866
-0.0679052 -0.166129 -0.050317
-0.154718 -0.43681 0.073363
-0.109206 -0.0894551 -0.0112728
-0.160676 -0.437645 -0.088327
0.166467 -0.299889 0.159263
-0.023349 -0.308422 -0.0855597
0.163026 -0.431548 0.151561
-0.112502 -0.120054 -0.0275756
-0.0739853 -0.256905 0.0275766
0.144535 -0.299616 0.0758313
-0.157301 0.32038 0.0601821
-0.031686 -0.187982 -0.0593098
-0.159638 0.342595 0.0868152
-0.142727 0.401357 0.0421836
-0.117565 -0.208618 -0.0112728
0.0393332 -0.187982 -0.0778198
-0.121903 -0.391875 -0.088972
0.158193 -0.308422 0.106233
-0.102035 -0.225858 0.0376355
-0.116083 0.00599474 0.0376355
-0.158974 0.248504 -0.0438783
0.117576 -0.172373 -0.0306497
0.165826 -0.43105 0.165281
-0.117934 -0.133555 0.0438793
-0.153775 0.197426 0.085021
0.154193 -0.387118 0.162083
-0.0560158 -0.29129 0.073363
-0.0316163 -0.168279 -0.0975318
-0.156289 -0.431948 0.0847262
-0.145479 0.113955 0.00502997
0.0730931 -0.166129 -0.0144834
-0.110105 -0.0820801 0.088972
0.12744 -0.172373 0.059932
0.0136955 -0.308422 0.0770611
-0.0709779 -0.296657 0.00502997
0.107881 -0.172373 -0.113977
-0.0677813 -0.262226 0.0438793
0.145699 -0.187982 -0.135572
-0.102735 -0.0977845 -0.0601816
-0.0367152 -0.187982 0.105486
0.0929704 -0.187982 -0.143678
-0.159388 0.20949 -0.0539383
0.116259 -0.166129 0.0307378
0.110062 -0.187982 0.137502
-0.145412 0.0920561 -0.073363
0.153505 -0.319457 0.161894
0.0152032 -0.187982 -0.0817954
-0.026294 -0.172373 -0.0708144
0.121645 -0.187982 -0.137594
-0.159732 0.144798 -0.077179
-0.145285 0.0826059 -0.0269225
-0.0949494 -0.262899 -0.076748
0.107421 -0.187294 0.149226
0.0290478 -0.166129 -0.0342659
0.139571 -0.300868 0.088972
0.0673104 -0.299616 0.0859283
0.156636 -0.428303 0.162755
-0.116364 -0.108736 0.0267893
-0.0808749 -0.352009 -0.088972
-0.16518 0.238263 0.0795006
0.13362 -0.187982 -0.0038323
-0.104221 -0.103865 0.0275766
-0.110934 -0.0880786 -0.073363
-0.0756509 -0.286392 -0.0275756
0.0672162 -0.30252 0.088972
-0.152602 0.431243 -0.0660446
-0.155629 0.123519 -0.0852966
0.127958 -0.172373 -0.0171144
-0.155417 0.240423 -0.073363
0.0925466 -0.299616 -0.083214
-0.0852147 -0.275774 -0.0402258
-0.0930756 -0.187982 0.00920817
0.146328 -0.166129 0.0296617
-0.0416886 -0.187982 0.0864496
-0.111683 -0.188666 -0.00809927
-0.0872154 -0.251006 -0.088972
0.00457573 -0.17134 -0.110587
0.146487 -0.288162 -0.157885
-0.11254 -0.0597057 -0.0425743
-0.148811 0.15106 0.073363
-0.151402 0.173227 0.0421359
-0.147737 0.441237 0.0310873
-0.121541 -0.14924 0.0275766
-0.0608041 -0.271934 0.00562999
0.166467 -0.392875 0.159075
-0.0709789 -0.299616 0.0349917
-0.152354 0.246713 0.0775377
-0.101469 -0.358077 -0.0864836
-0.149729 0.0986233 0.0794969
0.046198 -0.172373 -0.055739
-0.0159853 -0.172373 -0.0380073
-0.099257 -0.0819712 0.0275766
-0.0350871 -0.166129 -0.0175928
-0.117193 -0.112471 0.00871859
-0.158084 0.299948 -0.00502897
0.135969 -0.172373 -0.00679766
-0.0344439 -0.187364 -0.110229
-0.0998064 -0.238113 0.0539383
0.166467 -0.180698 0.157368
0.154627 -0.187982 -0.142784
-0.0874613 -0.263912 0.0213327
-0.154284 0.335771 0.0539383
-0.0728097 -0.322418 -0.088972
-0.0907394 -0.268394 -0.0539383
0.0194898 -0.166129 0.051253
-0.1533 0.191597 -0.0548685
-0.129503 0.0717903 -0.0816993
0.0319159 -0.172373 -0.121346
-0.120286 -0.128615 -0.0779913
-0.105172 -0.114658 0.00550181
-0.14497 0.373127 0.0408324
-0.165327 0.223625 -0.0275756
0.16294 -0.302981 -0.164487
-0.0627872 -0.330385 -0.0858466
-0.120173 -0.168312 -0.00502897
-0.142037 0.0848645 0.088972
-0.120563 -0.15442 0.0539383
-0.0924687 -0.230396 -0.0824016
0.164886 -0.308422 -0.0647103
-0.0923619 -0.238306 -0.0112728
-0.0911945 -0.241539 0.00502997
-0.120264 -0.188256 0.0213327
0.104811 -0.166129 0.0446804
0.0545011 -0.172373 -0.0507889
0.133111 -0.299616 0.0768436
0.123659 -0.172373 -0.0219232
0.160805 -0.34014 -0.1639
-0.155194 0.40159 -0.0468935
-0.157584 0.16467 0.0601821
-0.116765 -0.218912 -0.0553685
-0.148206 0.326399 -0.0393615
-0.152644 0.322909 0.0601821
-0.120321 -0.00406971 0.00576488
-0.0931218 -0.187982 -0.0463242
-0.110022 -0.111627 0.0601821
0.0212337 -0.172373 -0.0525474
-0.114088 -0.226444 0.023021
-0.137316 0.0803163 -0.0213317
-0.141898 0.117824 0.0545527
0.150778 -0.299616 -0.0781664
-0.136744 0.0967367 0.0272681
-0.0856834 -0.256735 0.0376355
-0.142797 0.400507 0.0564601
-0.000796579 -0.172373 -0.0789214
-0.140088 0.093444 -0.088972
-0.0516723 -0.293313 0.0759803
-0.108193 -0.122225 -0.0438783
0.141109 -0.185225 -0.158486
0.0677373 -0.187982 -0.0557868
-0.150754 0.106546 0.0539383
0.150479 -0.378154 0.148112
-0.112292 -0.172083 -0.0432349
-0.107039 -0.0580995 -0.073363
-0.103025 -0.105087 0.0399859
-0.0838545 -0.360128 -0.0762693
-0.102983 -0.0876656 0.00502997
-0.0551378 -0.300654 0.0112738
0.0216212 -0.172373 0.0906433
-0.0786527 -0.282677 0.0601821
0.166467 -0.176517 -0.151058
-0.144955 0.132383 0.0389609
-0.0683084 -0.310866 0.073363
-0.150665 0.133475 -0.0112728
0.163687 -0.172373 -0.0330801
-0.12871 0.0452151 0.088972
0.166467 -0.298554 -0.153104
-0.111777 -0.174309 0.06878
0.163641 -0.172373 0.136022
-0.072697 -0.308422 -0.0203489
-0.0376698 -0.187982 -0.0645715
0.0626778 -0.185475 0.136927
0.0662422 -0.186829 -0.137906
-0.143443 0.392624 0.0800987
-0.139403 0.0672819 -0.0275756
0.125237 -0.172373 0.0775684
-0.0990409 -0.221822 -0.043482
-0.150461 0.14595 -0.0438783
0.165776 -0.308422 -0.0516494
-0.0975215 -0.228535 0.073363
0.163377 -0.318945 -0.151657
-0.0115622 -0.172373 -0.00571182
-0.0831132 -0.262805 -0.00502897
-0.157291 0.289442 -0.0112728
0.0852994 -0.166129 -0.101543
-0.0656385 -0.279607 -0.0112728
-0.123125 -0.179925 -0.0213317
-0.116233 0.010772 -0.0275756
-0.137917 0.0841002 -0.0438783
-0.160281 0.268478 -0.0112728
0.151383 -0.402707 -0.14836
-0.105832 -0.228501 0.0275766
0.155077 -0.299616 0.00443164
-0.151247 0.271519 -0.0110742
-0.121377 -0.135575 -0.0578973
-0.151674 0.262397 0.0396934
-0.165966 0.193722 -0.0417334
-0.119001 -0.123095 -0.0376345
-0.162779 0.234477 0.0112738
-0.146937 0.42652 0.088972
-0.0792938 -0.275171 0.0213327
-0.139983 0.43269 0.00174853
0.020078 -0.166129 0.0522081
0.164713 -0.299616 0.0686962
-0.0775393 -0.187982 0.00778865
0.166467 -0.407516 -0.156713
0.154532 -0.214118 -0.149225
-0.113586 -0.0433461 0.0275766
-0.0662917 -0.26423 0.0736346
0.135038 -0.172373 -0.0285851
-0.144376 0.112355 -0.0112728
-0.0783634 -0.249321 0.088972
-0.058961 -0.295405 -0.0376345
-0.0379942 -0.307453 -0.073363
-0.0957132 -0.250979 0.0376355
-0.0713751 -0.286937 0.0112738
-0.149297 0.337795 0.00502997
-0.0518156 -0.305853 0.00502997
0.0509297 -0.187982 0.115137
-0.145049 0.372081 -0.0856295
-0.158898 0.277739 0.0539383
-0.0585539 -0.297116 0.088972
-0.0597588 -0.273428 -0.0825653
0.0208621 -0.187982 0.124145
-0.0771516 -0.313752 0.0848389
-0.142857 0.399788 -0.0166264
-0.162273 0.297133 0.0275766
-0.0792391 -0.166129 -0.0306337
0.0563086 -0.166129 0.0378634
0.145106 -0.172373 -0.155481
-0.105054 -0.0190761 -0.0220976
-0.136312 0.0735268 -0.0275756
-0.112322 -0.229423 -0.0213317
0.0622764 -0.172373 -0.0351202
-0.154287 0.287241 -0.0376345
-0.104436 -0.106522 0.0539383
-0.124404 -0.164733 -0.0590889
-0.14468 0.376931 0.0263072
0.0266527 -0.166129 -0.00466559
-0.114763 -0.0379575 -0.0743729
-0.161382 0.315178 -0.0219908
-0.0927354 -0.187982 -0.0426427
-0.163648 0.2733 -0.0746863
-0.142179 0.0834002 -0.0539383
-0.0684424 -0.306119 -0.0112728
0.0536406 -0.172373 0.0133733
-0.0758111 -0.338919 -0.073363
0.0155526 -0.181012 -0.123973
-0.152831 0.234665 -0.0382728
-0.110902 -0.172373 -0.0484639
-0.116923 -0.0215806 -0.073363
-0.00971455 -0.187982 -0.104914
-0.120036 0.043232 0.0876833
-0.141743 0.412938 -0.0223518
0.0819673 -0.172373 0.136491
-0.086744 -0.187982 0.0549013
-0.157794 0.134192 -0.0873948
-0.112893 -0.0430561 0.0539383
-0.0900457 -0.25688 -0.0376345
0.117357 -0.187982 0.0293823
-0.121594 -0.139539 0.088972
0.163297 -0.187982 0.0904183
0.161848 -0.308422 0.150213
-0.087843 -0.187982 0.0439502
-0.112504 -0.210985 -0.0539383
0.0762718 -0.166129 -0.0755293
-0.0783899 -0.187982 0.0229802
-0.111302 -0.0781116 0.088972
0.156065 -0.299616 -0.127203
-0.10209 -0.0453829 0.073363
-0.0661778 -0.166129 0.0470534
-0.111264 -0.154513 -0.0601816
-0.112573 -0.162767 0.0601821
-0.0151308 -0.166129 -0.00878143
0.081246 -0.187982 -0.115906
-0.103179 -0.0312024 0.00569051
-0.150019 0.295499 -0.0589892
0.052909 -0.172373 0.0498374
-0.066576 -0.166129 -0.0638738
0.0513081 -0.299616 -0.0856748
-0.10472 -0.112539 0.0580879
-0.11082 -0.0610663 -0.0275756
-0.108757 -0.112037 0.0275766
-0.141766 0.0993766 0.073363
-0.159446 0.257578 0.00502997
-0.114089 0.0227207 -0.0833283
0.0571658 -0.187982 0.0738939
-0.106954 -0.0437596 0.0539383
-0.161843 0.286956 0.0213327
0.157071 -0.172323 0.023593
-0.10307 -0.0902108 0.088972
-0.152342 0.247019 0.0750794
-0.103834 -0.0364759 0.0438793
0.0532155 -0.187982 0.130226
-0.127185 0.0249947 -0.0825738
-0.145311 0.385539 -0.088972
-0.105715 -0.227309 -0.0213317
0.0829182 -0.166129 -0.00651796
-0.128772 0.0451625 -0.0438783
-0.103134 -0.0315224 -0.0579693
-0.017402 -0.187982 -0.0450328
-0.114379 -0.0207695 0.0601821
-0.108557 -0.234757 0.0539383
-0.122656 -0.178893 0.0438793
-0.111218 -0.191597 0.0878847
-0.105613 -0.0770749 0.0539383
-0.00509961 -0.172373 -0.0633754
-0.059051 -0.308422 -0.0416112
-0.157212 0.259138 -0.0112728
-0.15152 0.366983 0.00502997
0.0580065 -0.166129 -0.000459958
-0.00820945 -0.187982 0.03543
-0.151143 0.376529 0.0112738
-0.110364 -0.0303904 -0.00502897
0.166467 -0.216986 -0.154129
-0.0638033 -0.323477 0.073363
-0.116105 -0.175282 0.073363
0.0885355 -0.172373 0.00360877
-0.00581129 -0.187982 0.0477713
0.099946 -0.166129 -0.0886492
0.166467 -0.173208 -0.144472
-0.109009 -0.203038 -0.0275756
-0.122554 0.00634224 -0.0109335
-0.118709 -0.212619 -0.00600563
-0.0758727 -0.301505 0.00680317
-0.0101843 -0.303009 -0.073363
-0.15834 0.16861 0.0275766
-0.133604 0.0853786 0.0867785
0.16629 -0.212717 0.165408
0.00031402 -0.172373 -0.0173338
-0.130619 0.0393176 0.00502997
0.0112096 -0.166129 0.0320589
-0.123717 -0.155531 0.0788308
-0.152978 0.141036 0.0438793
-0.146854 0.102497 0.0438793
-0.117547 -0.203025 0.0275766
0.0192794 -0.172373 0.0100446
-0.00672534 -0.172373 0.112384
-0.12027 0.0280356 -0.0601816
-0.117194 -0.0210171 0.0112738
-0.162456 0.164604 0.0112738
-0.150931 0.340668 -0.073363
0.0885673 -0.166129 0.0580115
-0.102796 -0.0339782 0.0218248
0.00709042 -0.308422 -0.0800628
0.159086 -0.187982 -0.0384716
-0.157309 0.154412 0.00502997
0.117949 -0.172373 -0.109508
-0.151846 0.106985 -0.0800812
0.159481 -0.187982 -0.123435
0.158778 -0.187982 -0.0520287
0.0931435 -0.187982 0.0363699
-0.0795336 -0.321509 0.0811535
-0.0383748 -0.166599 -0.0921181
-0.140716 0.424601 -0.0568414
-0.121647 -0.198433 0.0539383
-0.0777275 -0.288917 0.0275766
-0.0959433 -0.257571 0.0275766
-0.066887 -0.166129 0.0809085
0.0546565 -0.187982 0.0783588
-0.142282 0.406651 0.0377884
0.0255552 -0.172373 -0.0535087
-0.15743 0.373489 -0.0427434
-0.154397 0.383881 -0.0539383
-0.162067 0.285505 -0.0275756
0.0553272 -0.172373 -0.0693033
0.166467 -0.301094 -0.0192422
0.163312 -0.398492 0.16459
-0.0989 -0.0802441 0.0396764
0.0240716 -0.172373 -0.123733
-0.0844746 -0.255397 -0.073363
-0.151233 0.33735 -0.0112728
-0.125732 -0.416908 -0.075304
-0.147532 0.375346 0.00502997
0.166467 -0.30625 0.0464925
-0.0789191 -0.272098 -0.0275756
-0.110771 -0.13594 -0.0601816
-0.0384597 -0.166129 -0.0675819
-0.144514 0.44131 -0.0377581
-0.105495 -0.236967 -0.0275756
-0.112589 -0.185948 -0.00502897
0.00409075 -0.187982 0.0189958
0.163316 -0.219492 0.151641
-0.163448 0.277392 -0.0261618
0.146487 -0.206011 0.152226
0.166467 -0.183442 0.0873365
-0.133182 0.0453103 0.0851022
-0.0327851 -0.172373 -0.00288835
-0.0933729 -0.346722 -0.076975
-0.0692338 -0.29905 -0.0213317
-0.100448 -0.0549881 0.0844629
-0.155355 0.196957 0.0213327
0.0410586 -0.166129 -0.0737749
-0.121418 0.00186212 0.0539383
-0.0464744 -0.187982 -0.0313035
-0.111502 -0.0771615 -0.0574475
0.162868 -0.187982 0.0554468
-0.162508 0.295463 -0.026609
-0.117065 -0.203376 0.0539383
0.00228548 -0.187982 0.0637444
0.0900078 -0.299616 -0.0875371
0.116846 -0.172373 -0.116796
-0.123852 -0.1871 0.0438793
-0.076039 -0.29892 -0.02387
0.140284 -0.166129 -0.110594
-0.0626701 -0.291415 -0.0438783
0.0676866 -0.187698 -0.138303
-0.119318 -0.00814508 0.0539383
-0.151553 0.174497 0.0770514
-0.139801 0.0782704 -0.0275756
-0.156077 0.305845 -0.0112728
0.0264209 -0.187982 0.0970856
-0.117418 -0.17535 0.0376355
-0.153222 0.190717 -0.0829495
-0.115981 -0.132928 -0.0438783
0.147008 -0.173088 -0.160108
-0.162569 0.19397 -0.073363
0.136616 -0.187982 0.0506436
0.146487 -0.337349 -0.153769
0.146487 -0.333446 -0.159572
-0.147469 0.109351 0.0539383
0.166467 -0.307062 -0.0566709
0.146936 -0.172373 0.0965133
0.0652761 -0.166374 0.119729
-0.0396223 -0.187982 0.0295401
-0.0335068 -0.172373 -0.00699253
-0.150075 0.303096 0.0275766
-0.0849296 -0.333644 -0.0884107
-0.161049 0.238333 0.0601821
0.0811076 -0.308422 0.0771631
0.162561 -0.198923 0.164383
-0.105197 -0.0263188 -0.0376345
-0.0906026 -0.266813 -0.0112728
-0.100894 -0.357274 0.0751338
0.0746159 -0.166129 -0.00251176
-0.154021 0.273619 0.0213327
-0.00875013 -0.187982 -0.0483266
0.0727716 -0.172373 0.024514
-0.152584 0.316842 0.00502997
0.0446049 -0.187982 -0.066934
-0.0499446 -0.187982 0.0325554
0.00848295 -0.187982 0.0158479
-0.0537017 -0.298834 -0.0112728
-0.161853 0.158036 0.00851921
0.046189 -0.172373 0.0993485
0.00151725 -0.187982 0.106117
-0.0590001 -0.187982 -0.0292868
-0.106753 -0.210831 -0.073363
-0.0714652 -0.342737 -0.073502
0.0515148 -0.172373 0.0124503
0.138773 -0.187982 -0.0168756
-0.15198 0.35481 -0.0376345
-0.150233 0.164127 0.00651002
-0.0384031 -0.166129 -0.0352769
-0.0762487 -0.265077 -0.0438783
-0.159502 0.344613 -0.0109605
-0.157645 0.218238 0.0376355
-0.0620565 -0.187982 0.0537894
-0.0741553 -0.166129 -0.0062674
0.072425 -0.166129 -0.0308872
0.0348128 -0.187982 0.0493576
0.143323 -0.187982 0.0189909
-0.0859027 -0.264926 -0.0275756
0.0963965 -0.166129 -0.0337128
0.0675724 -0.187982 -0.0668265
0.0211882 -0.172373 0.0685872
-0.0512306 -0.298388 -0.082043
-0.072737 -0.295845 -0.073363
0.0989473 -0.172373 -0.0828532
-0.101914 -0.224824 0.0438793
-0.142533 0.403665 -0.0455983
-0.0513612 -0.303395 -0.0359082
-0.125943 0.0203051 0.0879194
0.166467 -0.173797 0.135872
-0.132092 -0.425274 -0.0797199
0.158357 -0.308422 0.0865264
-0.0581024 -0.172373 -0.0212377
-0.106117 -0.0985049 0.0539383
-0.161658 0.243591 0.0376355
0.148751 -0.331588 0.147636
-0.0643516 -0.297429 -0.073363
0.163113 -0.187982 0.110379
0.0805727 -0.187982 0.006013
-0.12821 0.0573504 0.0376355
-0.060558 -0.291692 0.088972
0.137476 -0.172373 0.0806187
-0.0929524 -0.256504 -0.0213317
0.0822082 -0.172373 0.094488
-0.149393 0.158223 -0.0805804
-0.117963 0.0347956 -0.0376345
0.150745 -0.308422 -0.106521
0.00018248 -0.168704 0.10687
-0.02511 -0.187982 -0.0424361
0.0873109 -0.166129 0.0145691
-0.124118 -0.171861 -0.00502897
-0.151268 0.285124 -0.0438783
-0.161374 0.252894 0.0376355
-0.0927189 -0.175095 0.0942108
-0.15781 0.218788 0.0376355
0.138996 -0.187982 0.0128746
0.154247 -0.218788 0.149147
-0.151667 0.363709 0.00502997
-0.115831 -0.214314 -0.088972
0.102214 -0.172373 0.112929
0.156694 -0.432903 0.162771
0.0613223 -0.187982 0.125523
-0.140859 0.438799 0.0280262
0.166467 -0.18715 -0.116849
-0.149753 0.160701 -0.0433912
0.0561799 -0.307995 0.088972
0.159969 -0.182297 -0.163671
-0.101123 -0.0489647 -0.0213317
-0.0657469 -0.308422 -0.0011296
-0.118032 -0.145119 0.0438793
-0.145894 0.137291 0.0747157
-0.100857 -0.187982 -0.0629857
0.0231864 -0.187982 0.103374
-0.0919801 -0.187982 -0.0933736
-0.0953275 -0.262343 -0.0547464
-0.11909 0.040195 0.0779057
-0.152628 0.17771 0.073363
-0.0958144 -0.376654 -0.0788503
-0.116373 -0.404477 0.0870688
-0.0798422 -0.24615 -0.0248522
-0.158184 0.271317 -0.00502897
-0.0540666 -0.166129 -0.0305063
-0.0643201 -0.299616 0.0244498
0.036663 -0.187982 -0.0452233
-0.116085 -0.107519 -0.0091773
-0.118557 -0.152985 -0.088972
0.101511 -0.166129 -0.0665367
-0.135506 0.0808272 0.0275766
0.0642898 -0.299616 -0.084701
0.133722 -0.187522 0.156456
-0.162728 -0.440299 0.0746303
-0.150042 0.148855 -0.0275756
-0.0121824 -0.187982 0.0675195
0.0233995 -0.166129 0.0567742
-0.0187686 -0.187982 0.00875552
-0.15674 0.38246 0.0398453
0.166467 -0.180122 0.01497
-0.157119 0.377571 0.00706317
0.0719666 -0.166129 -0.0994355
-0.0673998 -0.167524 -0.0864484
-0.0572878 -0.308422 0.043299
-0.0326696 -0.172373 0.0183093
-0.156513 0.256713 0.0112738
-0.0821761 -0.280205 -0.0551129
-0.058146 -0.172373 -0.0664506
0.0911337 -0.187982 0.0273519
0.0467496 -0.187982 0.105296
-0.112641 -0.183105 0.00502997
-0.0987956 -0.380734 0.0762262
0.166467 -0.176986 0.0128841
-0.0808336 -0.282605 0.0566037
0.165781 -0.195033 -0.152317
-0.154983 0.202536 -0.0213317
-0.0872225 -0.255035 -0.0213317
-0.120292 0.0408624 0.0539383
-0.151109 0.438815 -0.0667704
-0.162859 0.165141 0.0419689
-0.151691 0.120027 -0.0601816
-0.10201 -0.0693711 0.0539383
0.124133 -0.166129 -0.104108
-0.0512094 -0.299626 -0.00860448
-0.0785529 -0.170984 0.0874761
-0.102099 -0.101305 0.0746924
0.0768255 -0.166262 0.122376
0.00170729 -0.172373 -0.0770271
-0.155185 0.401705 -0.0115299
-0.151953 0.124065 0.0275766
0.0727065 -0.172373 -0.0627888
-0.14121 0.0824908 0.0438793
-0.165048 0.183725 -0.0260268
-0.159322 0.34725 0.00913549
-0.0667675 -0.270302 0.0601821
0.155907 -0.308422 -0.148508
-0.0774348 -0.255243 -0.088972
-0.0732132 -0.276524 -0.073363
0.16332 -0.29388 -0.151641
-0.129872 -0.396915 -0.0792708
-0.156688 0.12861 0.0432316
0.156727 -0.299616 -0.123966
-0.0538196 -0.166129 0.0383772
0.109017 -0.172373 -0.044823
-0.127655 0.0417512 -0.088972
0.121809 -0.166129 -0.108376
-0.0165773 -0.166129 -0.0948826
-0.00374485 -0.172373 -0.114391
0.0541317 -0.187982 -0.125754
-0.138634 0.0664864 0.0112738
-0.153971 0.200483 -0.0253008
0.00429031 -0.166129 -0.0166459
0.158068 -0.252607 0.150198
0.147135 -0.237632 -0.160142
-0.16026 0.314952 -0.0275756
-0.00808891 -0.172373 0.01385
-0.066558 -0.172373 -0.0323521
0.0464044 -0.187982 0.131045
-0.140108 0.431322 0.0105476
-0.100461 -0.0557351 -0.00502897
-0.165914 0.193105 -0.0845457
-0.112909 -0.201993 0.073363
0.112693 -0.187982 0.103897
0.0167956 -0.172373 0.122318
-0.118096 -0.209594 0.0601821
0.124528 -0.166129 -0.0573289
-0.15757 0.133032 0.0256718
-0.152271 0.248715 0.0568672
0.162462 -0.308422 -0.0284643
0.0529617 -0.166129 -0.0531869
0.124498 -0.166129 0.011484
0.147002 -0.267871 0.147156
-0.0921057 -0.166129 0.034685
-0.0705288 -0.299616 -0.0662725
-0.12624 0.0297743 -0.00502897
0.166467 -0.330122 0.155307
-0.15379 0.218355 0.0438793
-0.148503 0.122939 0.0601821
-0.0652684 -0.286811 -0.0601816
0.0668337 -0.166129 0.0914465
-0.103654 -0.107758 -0.0787259
-0.161171 0.269102 -0.0438783
-0.153715 0.14976 -0.0213317
-0.152478 0.243668 -0.00683759
0.0172567 -0.172373 -0.035642
-0.0813726 -0.356667 0.0888505
-0.0767867 -0.187982 0.0840907
-0.16321 0.282129 -0.00941102
-0.155207 0.401435 0.0263574
-0.0737489 -0.308422 0.00920831
-0.15798 0.320678 0.088972
-0.158679 0.356468 -0.0784429
-0.129248 0.0709839 -0.0402801
0.108004 -0.174266 0.149386
0.166467 -0.30441 -0.131075
0.166467 -0.307557 0.0814103
0.152654 -0.308422 0.120101
0.164542 -0.359568 0.164928
-0.156221 0.386947 0.0213327
0.157428 -0.336917 0.150022
-0.109503 -0.13995 0.00771179
0.166467 -0.187768 0.0416868
-0.164988 0.183128 -0.0882427
0.0526903 -0.187982 0.0582676
-0.100103 -0.226424 -0.00502897
0.119661 -0.166129 0.0974466
0.0994419 -0.187982 0.13674
-0.0684625 -0.308422 0.0039696
0.0738709 -0.187982 0.0554902
-0.163392 0.183056 0.0438793
-0.141814 0.0876848 -0.0213317
0.162015 -0.299616 -0.0317052
-0.133906 0.0864335 0.0236977
-0.106151 -0.103744 0.0213327
-0.15433 0.282119 0.0539383
-0.0759947 -0.299411 0.0883301
0.141513 -0.166129 0.0277491
0.160279 -0.339211 -0.150805
-0.155549 0.263697 -0.0438783
-0.152782 0.110872 0.0572347
-0.123857 0.0548198 0.0270151
-0.143026 -0.439505 0.0813625
0.146487 -0.383581 0.156893
-0.115002 -0.0360813 0.0782139
0.160351 -0.381483 -0.163776
-0.111843 -0.0700854 0.0794841
0.0145737 -0.187982 -0.0275112
0.0620654 -0.187982 -0.0749276
0.0495558 -0.299616 -0.0876924
-0.120541 -0.181468 -0.0376345
-0.0560438 -0.187982 -0.0155212
0.109588 -0.172373 0.115445
-0.159419 0.335466 0.073363
-0.149248 0.362528 -0.00502897
-0.155094 0.121031 -0.00916568
0.0846296 -0.308422 0.0743523
-0.0121345 -0.187982 -0.054065
0.0519547 -0.166129 -0.112547
-0.0566252 -0.278414 0.00590422
0.10525 -0.301627 -0.088972
-0.0583654 -0.299616 0.0351798
0.145405 -0.166129 0.00648903
-0.00992321 -0.187982 -0.056996
-0.119695 0.0372545 0.073363
-0.0126164 -0.187982 -0.0181164
-0.076198 -0.308642 -0.0825407
0.0310846 -0.172373 0.035629
0.159212 -0.224036 0.150512
0.166467 -0.412912 0.162302
-0.0257767 -0.166129 -0.0769586
0.146487 -0.300958 -0.0329497
0.15394 -0.299616 -0.112613
-0.154041 0.315223 -0.0112728
0.11483 -0.305708 -0.073363
-0.0472849 -0.172373 0.0463032
-0.111777 -0.180959 -0.0175808
-0.102635 -0.0509262 0.0112738
-0.112983 -0.196224 -0.0213317
0.134121 -0.187982 -0.0457986
-0.123614 0.0193443 0.0601821
-0.166049 0.194733 -0.00689869
-0.0593088 -0.173195 -0.103395
-0.150559 0.285343 -0.0778182
-0.166168 0.196231 0.0245235
-0.111791 -0.0126182 0.0438793
-0.140047 0.431994 0.0500358
-0.144653 0.377287 0.0387752
-0.153793 0.14878 -0.0539383
0.160227 -0.172373 -0.056061
-0.0527519 -0.187982 0.0720391
-0.148601 0.151927 -0.0275756
-0.00174712 -0.167466 0.104378
-0.154417 0.234265 -0.00502897
-0.108573 -0.227722 0.0438793
-0.116403 -0.12375 -0.0539383
0.136456 -0.166129 0.0515118
-0.0670405 -0.27935 0.0601821
-0.146381 0.139935 -0.0561945
0.154721 -0.299616 -0.126853
0.161875 -0.187982 -0.0633473
-0.0792511 -0.286003 -0.0554038
-0.150448 0.355312 0.0539383
0.0663992 -0.172373 -0.114109
0.106621 -0.308422 -0.0801474
0.0305605 -0.172373 0.0877468
-0.0350501 -0.166129 0.0226801
0.0979125 -0.166129 -0.0036872
-0.158689 0.232565 -0.0438783
-0.141479 0.415983 -0.0144205
-0.0987876 -0.168281 -0.0697989
0.154939 -0.187982 -0.133636
-0.112653 -0.177466 -0.0376345
0.165708 -0.204545 -0.152297
-0.0807425 -0.259473 0.073363
-0.0653829 -0.267781 -0.0213317
-0.112841 -0.221647 0.00502997
-0.0662261 -0.294248 0.0213327
0.16425 -0.187982 -0.0716832
0.0945095 -0.172373 -0.0571
-0.150875 0.298436 -0.0112728
0.0765956 -0.187982 0.0951199
-0.0931515 -0.166144 0.0605098
-0.112489 -0.0603698 0.0568057
-0.139828 0.434359 0.0782785
0.0311302 -0.172373 -0.0140699
-0.0295697 -0.187982 0.0820883
-0.0105028 -0.299616 0.0780544
-0.00417007 -0.166129 -0.0246916
0.0531761 -0.187982 -0.0499561
0.166467 -0.303697 -0.140424
-0.131915 0.0796307 0.0552315
0.0394612 -0.308422 0.0887659
0.0195002 -0.172373 0.00822235
-0.112111 -0.0897818 0.0782821
-0.161686 0.156916 -0.0560248
-0.0847968 -0.335137 -0.073363
-0.111777 -0.174283 -0.0652683
-0.159039 0.209302 -0.0601816
-0.108064 -0.0777462 -0.0376345
-0.163277 0.21341 -0.0213317
0.149226 -0.166381 -0.0637853
-0.0767025 -0.187982 -0.0119313
0.166467 -0.275726 0.162224
-0.0148571 -0.187982 -0.0956948
-0.0676262 -0.187982 -0.0343493
-0.0513327 -0.29641 -0.0431019
-0.160782 0.249743 -0.0539383
-0.0180044 -0.172373 -0.113761
-0.0852654 -0.362091 0.0874929
-0.0779717 -0.24857 -0.0222581
-0.0753108 -0.172373 0.050316
0.108858 -0.166129 -0.0821855
-0.125343 0.0179646 -0.0825091
0.107716 -0.166129 -0.0991596
0.149602 -0.187982 -0.0335066
-0.0736022 -0.275605 -0.073363
0.119934 -0.308422 -0.0734768
0.162097 -0.378321 0.151306
-0.0131539 -0.172373 -0.0425789
-0.0925869 -0.236112 -0.0376345
-0.154795 0.343434 -0.0376345
-0.118134 -0.116969 -0.056524
0.138842 -0.167494 0.142902
0.114544 -0.187982 0.0266484
0.119435 -0.172373 -0.00238781
-0.15112 0.118731 -0.0601816
0.13169 -0.166129 -0.0254686
-0.119618 -0.19875 0.088972
-0.0116856 -0.172373 -0.0949401
0.0437455 -0.308422 -0.0781433
0.0859166 -0.300876 0.073363
-0.0987315 -0.0865024 0.0080659
-0.146818 0.125383 -0.0376345
0.154176 -0.38869 0.162079
-0.0919822 -0.248315 0.073363
0.147015 -0.233751 -0.160109
0.161454 -0.362967 0.151129
-0.00551052 -0.166129 -0.0425709
-0.159634 0.212302 -0.073363
-0.161158 0.318885 0.073981
0.149352 -0.16641 0.124192
-0.111191 -0.0240958 -0.0438783
0.0181628 -0.166129 -0.0221632
-0.0519743 -0.291511 -0.0772257
0.142307 -0.166129 0.113227
-0.0648559 -0.314741 -0.073363
-0.157241 0.168034 0.0376355
0.0545824 -0.166129 0.107645
-0.116392 0.0234608 0.0539383
-0.152898 0.381308 0.0438793
0.162429 -0.417706 -0.151396
0.0545344 -0.172373 -0.114003
-0.100211 -0.0940987 0.0736895
-0.141242 0.418682 0.0783032
0.0775517 -0.172373 -0.109772
-0.104659 -0.0802608 -0.0539383
0.0877142 -0.166129 0.0699472
-0.0779262 -0.282148 -0.0438783
0.0515551 -0.172373 -0.00728209
-0.103908 -0.0386741 -0.0275756
-0.156224 0.305615 -0.073363
-0.0938843 -0.187982 -0.0243053
-0.129377 0.0595381 -0.088972
0.121616 -0.166129 -0.0522944
-0.112711 -0.229941 -0.0260954
-0.106012 -0.229024 -0.0438783
-0.113085 -0.150101 0.0213327
0.028741 -0.187982 -0.00154852
-0.104709 -0.385434 0.088972
-0.0792 -0.246979 -0.0769638
-0.124729 0.0155171 -0.0887555
-0.149912 0.105226 -0.0213317
0.13468 -0.299616 0.0831059
0.0438941 -0.172373 0.0297539
-0.0699692 -0.287683 0.0213327
-0.0611769 -0.187982 0.0921759
0.139058 -0.187982 -0.132501
-0.133401 0.0577953 0.0376355
-0.155978 0.363523 -0.073363
0.0628245 -0.169001 0.124447
0.165842 -0.227304 -0.165285
-0.0144489 -0.187982 -0.0458318
0.166467 -0.368989 -0.161476
0.0174909 -0.187982 0.0565957
0.105805 -0.166129 0.0942718
0.0350578 -0.187982 0.0975714
-0.144439 0.129781 -0.082832
0.09315 -0.187982 -0.0497805
-0.107998 -0.10475 -0.0438783
-0.108585 -0.23929 -0.0782927
0.105916 -0.187982 0.104611
-0.115349 -0.391916 0.073363
0.00303321 -0.176262 -0.120532
-0.113135 -0.102772 -0.0601816
-0.119449 -0.123814 0.0599079
0.129535 -0.308422 -0.0822329
-0.112348 -0.173527 0.0572008
-0.0631673 -0.299616 0.042601
-0.133252 0.0455281 0.0856382
-0.112971 -0.0545844 -0.0587616
-0.14687 0.346739 -0.0889606
-0.0853863 -0.242105 -0.088972
-0.153826 0.417579 0.0756461
-0.150191 0.16382 0.0857899
0.0589835 -0.172373 -0.131083
-0.11832 0.037664 0.0213631
0.158808 -0.172373 0.107451
-0.0564561 -0.187982 0.0581369
-0.149645 -0.430717 0.073363
0.00315533 -0.172373 -0.0567622
-0.150774 0.132075 0.088972
-0.144831 0.110006 -0.073363
0.166467 -0.301232 -0.153845
-0.1259 -0.402488 0.073363
-0.162082 0.159589 0.0873768
0.064573 -0.187982 0.0338282
-0.0929911 -0.187982 0.0559333
-0.152117 0.305312 0.0213327
-0.117089 -0.144216 0.0275766
-0.0885869 -0.253482 -0.00502897
-0.166277 0.206613 0.00573667
-0.0991423 -0.247486 0.0376355
0.106397 -0.187982 -0.00187238
0.135039 -0.172373 0.125353
-0.163606 0.274163 0.0436999
-0.150355 0.439706 0.00464674
-0.0867287 -0.166129 -0.0596028
-0.108372 -0.0339226 0.0539383
-0.0587817 -0.166129 0.0151948
0.164681 -0.187982 -0.0903782
-0.147237 0.397708 -0.028005
-0.134874 0.0504863 0.0744431
0.0748594 -0.172373 -0.0809928
-0.166237 0.197109 -0.0100476
-0.085958 -0.238396 -0.0788086
0.127976 -0.166129 0.104451
0.112556 -0.172373 0.129299
-0.111777 -0.179562 -0.0466314
-0.108671 -0.134098 0.0813475
0.115093 -0.180011 0.151335
0.162436 -0.172373 0.0783293
0.0610023 -0.172373 0.115138
0.0740696 -0.187982 -0.0956121
-0.153456 0.175042 -0.0539383
0.0116352 -0.187982 0.0441561
0.0959109 -0.299616 0.078078
-0.115043 0.00626045 0.0539383
-0.164361 0.257944 -0.0596338
-0.153935 0.134438 0.073363
-0.0808503 -0.324957 0.0800725
-0.157873 0.134607 -0.0229449
-0.150878 0.350124 0.0112738
0.106184 -0.187982 -0.107775
-0.141281 0.0892533 0.0112738
-0.111777 -0.172606 -0.0629826
-0.0930422 -0.245178 -0.0213317
-0.141297 0.41805 -0.0035698
-0.153876 0.19132 -0.0275756
-0.0161165 -0.172373 0.0290303
0.00434201 -0.166129 0.0981952
-0.120692 -0.138796 -0.0275756
0.0376655 -0.187982 0.0818619
-0.0860571 -0.238272 0.0418403
-0.0760793 -0.251272 0.0539383
0.157356 -0.172373 0.0458777
0.0345506 -0.187982 -0.0976661
0.115951 -0.172373 0.0516105
0.146487 -0.432688 -0.149222
0.13862 -0.187982 0.018303
-0.130732 0.0462566 -0.0601816
-0.108293 -0.131661 0.0213439
-0.0425498 -0.172373 -0.0425513
-0.166287 0.197772 -0.0788066
-0.0993238 -0.254996 0.0376355
-0.0863699 -0.265114 -0.0601816
-0.114292 -0.0146062 0.0275766
0.157522 -0.172373 0.0749197
-0.13493 0.0900563 -0.0405066
-0.111451 -0.0794852 -0.0883132
-0.154579 0.316002 0.0112738
-0.156146 0.372768 0.088972
-0.160216 0.33387 -0.0761176
-0.10439 -0.362144 0.0737911
-0.057846 -0.187982 0.0770113
-0.0646124 -0.187982 0.0707744
0.07901 -0.172373 0.0240574
-0.0218629 -0.166129 0.0878351
-0.159854 0.145632 0.088972
-0.124828 0.0576381 0.00713431
-0.0850294 -0.239558 -0.00925381
-0.110349 -0.145321 -0.0376345
0.153382 -0.226947 0.16186
-0.14252 0.403823 0.0271381
-0.156918 0.208597 0.0376355
-0.085595 -0.246855 -0.0275756
-0.0746231 -0.259205 0.0438793
-0.103272 -0.0835968 0.0275766
0.0275027 -0.172373 -0.0794882
0.114196 -0.172373 -0.129031
-0.161167 0.318739 0.00595592
-0.0448921 -0.187982 0.0307571
-0.0809069 -0.271458 0.088972
-0.112586 -0.212211 -0.0438783
0.159352 -0.172373 0.11699
-0.0964257 -0.360994 0.088972
-0.0780209 -0.166129 -0.0420951
-0.0676334 -0.172373 0.0764139
0.134707 -0.172373 0.0223986
0.0366301 -0.187982 0.119415
-0.107722 -0.222333 0.0275766
-0.146697 0.0874967 -0.0783583
-0.0609799 -0.302439 0.0438793
-0.136355 0.0845713 0.00502997
0.0648775 -0.187982 -0.108658
-0.165136 0.239375 0.0884549
-0.143108 0.396738 -0.054964
0.153729 -0.299816 0.149005
-0.101959 -0.100743 -0.00533995
-0.139921 0.433369 -0.0632863
-0.147134 0.342854 0.0592841
0.156694 -0.349436 0.162771
-0.0560178 -0.282042 -0.0376345
0.118969 -0.172373 -0.00742757
-0.114175 -0.00678379 -0.0213317
-0.147244 0.0894419 -0.0831589
-0.122266 0.00762311 -0.0112728
-0.156822 0.129271 -0.0384646
-0.143957 -0.415769 -0.0785514
-0.163568 0.223764 -0.00502897
0.116117 -0.187982 -0.13995
-0.155372 0.317038 -0.0438783
-0.0832194 -0.354212 -0.073363
0.0786536 -0.172373 -0.0997457
-0.143783 0.38841 -0.021595
-0.164079 0.22642 -0.0539383
-0.147967 0.143195 -0.0112728
0.157974 -0.237136 -0.150171
-0.107235 -0.24205 0.0781017
-0.101991 -0.0487964 -0.073363
0.166467 -0.299706 0.12583
-0.118418 -0.182949 0.00502997
-0.165013 0.242498 -0.0745389
0.114395 -0.172373 -0.121857
-0.110556 -0.235005 0.00649387
0.166467 -0.342065 0.157567
-0.147586 0.336064 0.0260974
-0.096234 -0.229196 0.0376355
-0.0931728 -0.373026 0.0859144
-0.145358 0.367944 -0.0578963
0.152787 -0.354659 -0.161696
0.146487 -0.284398 -0.150066
0.134727 -0.166129 -0.132636
-0.0906209 -0.172373 0.0522064
-0.105881 -0.0266825 -0.0112728
0.120625 -0.187982 -0.0322285
-0.14587 -0.423055 -0.088972
-0.0672817 -0.308422 0.0262003
0.048942 -0.16626 -0.114697
0.0210332 -0.172373 -0.0192731
0.0739841 -0.187982 0.0235768
-0.15132 0.284987 -0.0376345
-0.156643 0.383703 -0.0881487
-0.148455 0.322413 -0.0275686
-0.157751 0.32327 -0.0539383
-0.10521 -0.105137 0.0112738
-0.0758455 -0.303114 -0.0514673
0.146487 -0.21894 -0.15413
-0.147184 0.441374 -0.0839701
-0.0759157 -0.187982 -0.00918256
-0.0533468 -0.166129 -0.0770987
-0.157823 0.36825 0.00937763
-0.134962 0.0507515 0.00735935
-0.141059 0.43907 0.0432328
-0.144504 0.397708 0.0418615
-0.163676 0.25103 0.00502997
-0.117279 -0.379909 -0.0754792
-0.072295 -0.166129 -0.0739567
-0.153143 0.22618 -0.041173
0.166467 -0.182392 0.0621917
-0.150375 0.290001 -0.088972
-0.0783984 -0.288217 -0.0850185
-0.155938 0.124978 0.0543924
-0.104091 -0.10968 0.0249863
-0.154782 0.257359 -0.0213317
-0.125221 0.0174843 0.00918096
-0.136423 0.0894467 0.0539383
0.166467 -0.331143 0.156252
-0.0648551 -0.297256 -0.0376345
-0.156601 0.315666 0.073363
-0.0158873 -0.166129 -0.0265356
-0.120353 -0.20641 0.0213327
0.151196 -0.308422 0.131097
0.142546 -0.187982 -0.14134
-0.110448 -0.1273 -0.0601816
-0.092324 -0.187982 -0.0191356
0.0107964 -0.166129 0.041542
0.0222224 -0.187982 0.000224303
-0.0517119 -0.301832 -0.073363
0.0413711 -0.308422 0.0794151
-0.0583474 -0.172373 0.0670959
-0.154352 0.142174 0.0376355
-0.156584 0.16515 0.0112738
-0.061317 -0.186549 -0.102843
0.166467 -0.185435 -0.0338235
-0.113095 0.0152687 -0.073363
0.160934 -0.299616 0.0518782
-0.153068 0.397666 -0.0601816
-0.150538 0.381165 0.00502997
0.0816775 -0.304489 -0.088972
-0.10977 -0.0524394 -0.0112728
0.122584 -0.166129 0.0159547
-0.0177085 -0.187982 0.00721342
-0.106412 -0.21005 0.088972
-0.0297438 -0.187982 -0.0753053
-0.140358 0.428566 0.00742973
0.145472 -0.166129 -0.0816099
0.150575 -0.222846 -0.161088
-0.0519895 -0.187982 0.0381959
0.0842191 -0.172373 0.0515193
-0.141134 0.419909 0.0161441
-0.157555 0.143848 -0.0438783
-0.114426 -0.0406957 0.0777173
0.131672 -0.166129 0.0829868
0.105463 -0.172373 -0.0769406
-0.151007 0.341512 -0.0213317
0.0106232 -0.166129 0.0149406
-0.0758529 -0.302232 -0.0675413
-0.107957 -0.222802 0.0112738
-0.143242 -0.439783 0.0749811
-0.157291 0.188116 -0.0112728
-0.161521 0.312848 -0.054245
-0.0700735 -0.299616 0.0264439
-0.0813408 -0.268615 -0.0539383
-0.113029 -0.0539278 0.0392945
-0.15035 0.372217 0.088972
-0.0942777 -0.166323 0.0346407
-0.0694454 -0.326829 0.073363
-0.0792093 -0.166129 -0.054154
-0.111777 -0.174271 0.0111812
-0.0778849 -0.289753 -0.0877393
0.146487 -0.219866 0.149666
0.166467 -0.417155 -0.1651
-0.152206 0.173096 -0.088972
0.0412142 -0.172373 -0.0732493
-0.156089 0.193898 -0.0213317
0.0266133 -0.172373 0.0739905
-0.15489 0.148268 0.073363
-0.0136975 -0.187982 -0.0904119
0.0703652 -0.307003 0.088972
-0.111582 -0.187982 0.0821533
0.160354 -0.299616 -0.0501845
-0.102011 -0.362609 -0.073363
-0.107146 -0.0842854 -0.0275756
0.0110522 -0.30373 0.073363
-0.0398852 -0.172373 -0.0284556
0.0652071 -0.304467 -0.073363
-0.156664 0.214898 0.073363
-0.105614 -0.0158144 -0.0420024
0.0846486 -0.30243 -0.088972
-0.144619 0.37773 0.0813258
-0.150785 0.280913 -0.0592469
0.114936 -0.172373 0.129494
-0.0159572 -0.187982 -0.0225976
0.155141 -0.187982 0.103396
0.0809199 -0.187982 -0.0715684
0.0184664 -0.187982 -0.10035
-0.103205 -0.0733983 0.0539383
-0.113729 -0.185943 -0.0213317
0.0237601 -0.306974 0.088972
-0.122318 -0.189786 -0.0539383
0.154955 -0.187982 0.0232862
-0.14593 0.360134 0.0824244
