ply
format ascii 1.0
comment Created by Open3D
element vertex 975
property double x
property double y
property double z
end_header
-0.101381 -0.252414 0.361466
-0.0907676 -0.252272 0.361465
-0.0822856 -0.252158 0.361464
-0.0716938 -0.252016 0.361463
-0.0611139 -0.251874 0.361462
-0.0505459 -0.251732 0.361461
-0.0421001 -0.251619 0.36146
-0.0315535 -0.251478 0.361459
-0.0210188 -0.251336 0.361458
-0.0104958 -0.251195 0.361457
-0.00208602 -0.251082 0.361456
0.00841565 -0.250941 0.361455
0.0189055 -0.250801 0.361454
0.0293837 -0.25066 0.361453
0.0377577 -0.250548 0.361452
0.0482147 -0.250408 0.361451
0.05866 -0.250267 0.36145
0.0690937 -0.250127 0.361449
0.0795156 -0.249988 0.361448
0.012613 -0.242487 0.361455
0.0230982 -0.242351 0.361454
0.0335716 -0.242216 0.361453
0.0440333 -0.24208 0.361452
0.0544833 -0.241944 0.361451
0.0628349 -0.241836 0.36145
0.0732638 -0.241701 0.361449
0.0836811 -0.241566 0.361448
-0.101381 -0.241853 0.361466
-0.0907676 -0.241716 0.361465
-0.0822856 -0.241607 0.361464
-0.0716938 -0.241471 0.361463
-0.0611139 -0.241335 0.361462
-0.0505459 -0.2412 0.361461
-0.0421001 -0.241091 0.36146
-0.0315535 -0.240955 0.361459
-0.0210188 -0.24082 0.361458
-0.0104958 -0.240685 0.361457
-0.00208602 -0.240577 0.361456
-0.0273382 -0.232486 0.361459
-0.0168082 -0.232355 0.361458
-0.00629 -0.232224 0.361457
0.00421639 -0.232094 0.361456
0.012613 -0.23199 0.361455
0.0230982 -0.23186 0.361454
0.0335716 -0.23173 0.361453
0.0440333 -0.2316 0.361452
0.0544833 -0.231471 0.361451
0.0628349 -0.231367 0.36145
0.0732638 -0.231238 0.361449
0.0836811 -0.231109 0.361448
-0.101381 -0.231292 0.361466
-0.0907676 -0.231161 0.361465
-0.0822856 -0.231057 0.361464
-0.0716938 -0.230927 0.361463
-0.0611139 -0.230797 0.361462
-0.0505459 -0.230667 0.361461
-0.0421001 -0.230563 0.36146
-0.0716938 -0.222491 0.361463
-0.0611139 -0.222366 0.361462
-0.0505459 -0.222241 0.361461
-0.0421001 -0.222141 0.36146
-0.0315535 -0.222016 0.361459
-0.0210188 -0.221891 0.361458
-0.0104958 -0.221766 0.361457
-0.00208602 -0.221667 0.361456
0.00841565 -0.221542 0.361455
0.0189055 -0.221418 0.361454
0.0293837 -0.221294 0.361453
0.0377577 -0.221195 0.361452
0.0482147 -0.221071 0.361451
0.05866 -0.220947 0.36145
0.0690937 -0.220824 0.361449
0.0795156 -0.2207 0.361448
-0.101381 -0.22073 0.361466
-0.0907676 -0.220606 0.361465
-0.0822856 -0.220506 0.361464
0.0649216 -0.212499 0.36145
0.0732638 -0.212404 0.361449
0.0836811 -0.212285 0.361448
-0.101381 -0.212281 0.361466
-0.0907676 -0.212162 0.361465
-0.0822856 -0.212066 0.361464
-0.0716938 -0.211946 0.361463
-0.0611139 -0.211827 0.361462
-0.0505459 -0.211708 0.361461
-0.0421001 -0.211613 0.36146
-0.0315535 -0.211494 0.361459
-0.0210188 -0.211375 0.361458
-0.0104958 -0.211256 0.361457
-0.00208602 -0.211161 0.361456
0.00841565 -0.211043 0.361455
0.0189055 -0.210924 0.361454
0.0293837 -0.210806 0.361453
0.0377577 -0.210712 0.361452
0.0482147 -0.210594 0.361451
0.0230982 -0.202484 0.361454
0.0335716 -0.202371 0.361453
0.0440333 -0.202257 0.361452
0.0544833 -0.202144 0.361451
0.0628349 -0.202054 0.36145
0.0732638 -0.201941 0.361449
0.0836811 -0.201828 0.361448
-0.101381 -0.20172 0.361466
-0.0907676 -0.201606 0.361465
-0.0822856 -0.201515 0.361464
-0.0716938 -0.201402 0.361463
-0.0611139 -0.201288 0.361462
-0.0505459 -0.201175 0.361461
-0.0421001 -0.201085 0.36146
-0.0315535 -0.200972 0.361459
-0.0210188 -0.200859 0.361458
-0.0104958 -0.200746 0.361457
-0.00208602 -0.200656 0.361456
0.00841565 -0.200543 0.361455
-0.0252312 -0.192489 0.361459
-0.0168082 -0.192402 0.361458
-0.00629 -0.192294 0.361457
0.00421639 -0.192187 0.361456
0.012613 -0.1921 0.361455
0.0230982 -0.191993 0.361454
0.0335716 -0.191885 0.361453
0.0440333 -0.191778 0.361452
0.0544833 -0.19167 0.361451
0.0628349 -0.191584 0.36145
0.0732638 -0.191477 0.361449
0.0836811 -0.19137 0.361448
-0.101381 -0.191159 0.361466
-0.0907676 -0.191051 0.361465
-0.0822856 -0.190965 0.361464
-0.0716938 -0.190857 0.361463
-0.0611139 -0.19075 0.361462
-0.0505459 -0.190642 0.361461
-0.0421001 -0.190557 0.36146
-0.0780474 -0.182483 0.361464
-0.0716938 -0.182422 0.361463
-0.0611139 -0.182319 0.361462
-0.0505459 -0.182216 0.361461
-0.0421001 -0.182134 0.36146
-0.0315535 -0.182032 0.361459
-0.0210188 -0.18193 0.361458
-0.0104958 -0.181827 0.361457
-0.00208602 -0.181746 0.361456
0.00841565 -0.181644 0.361455
0.0189055 -0.181542 0.361454
0.0293837 -0.18144 0.361453
0.0377577 -0.181359 0.361452
0.0482147 -0.181257 0.361451
0.05866 -0.181156 0.36145
0.0690937 -0.181055 0.361449
0.0795156 -0.180953 0.361448
-0.101381 -0.180598 0.361466
-0.0907676 -0.180496 0.361465
-0.101381 -0.172149 0.361466
-0.0907676 -0.172051 0.361465
-0.0822856 -0.171974 0.361464
-0.0716938 -0.171877 0.361463
-0.0611139 -0.17178 0.361462
-0.0505459 -0.171684 0.361461
-0.0421001 -0.171606 0.36146
-0.0315535 -0.17151 0.361459
-0.0210188 -0.171413 0.361458
-0.0104958 -0.171317 0.361457
-0.00208602 -0.17124 0.361456
0.00841565 -0.171144 0.361455
0.0189055 -0.171048 0.361454
0.0293837 -0.170952 0.361453
0.0377577 -0.170876 0.361452
0.0482147 -0.17078 0.361451
0.05866 -0.170684 0.36145
0.0690937 -0.170589 0.361449
0.0795156 -0.170494 0.361448
0.0377577 -0.162489 0.361452
0.0482147 -0.162398 0.361451
0.05866 -0.162307 0.36145
0.0690937 -0.162217 0.361449
0.0795156 -0.162126 0.361448
-0.101381 -0.161587 0.361466
-0.0907676 -0.161496 0.361465
-0.0822856 -0.161423 0.361464
-0.0716938 -0.161332 0.361463
-0.0611139 -0.161242 0.361462
-0.0505459 -0.161151 0.361461
-0.0421001 -0.161078 0.36146
-0.0315535 -0.160988 0.361459
-0.0210188 -0.160897 0.361458
-0.0104958 -0.160807 0.361457
-0.00208602 -0.160735 0.361456
0.00841565 -0.160644 0.361455
0.0189055 -0.160554 0.361454
0.0293837 -0.160464 0.361453
-0.0210188 -0.152484 0.361458
-0.0104958 -0.152399 0.361457
-0.00208602 -0.15233 0.361456
0.00841565 -0.152245 0.361455
0.0189055 -0.152159 0.361454
0.0293837 -0.152074 0.361453
0.0377577 -0.152006 0.361452
0.0482147 -0.151921 0.361451
0.05866 -0.151836 0.36145
0.0690937 -0.151751 0.361449
0.0795156 -0.151666 0.361448
-0.101381 -0.151026 0.361466
-0.0907676 -0.150941 0.361465
-0.0822856 -0.150873 0.361464
-0.0716938 -0.150788 0.361463
-0.0611139 -0.150703 0.361462
-0.0505459 -0.150618 0.361461
-0.0421001 -0.15055 0.36146
-0.0315535 -0.150466 0.361459
-0.0907676 -0.142497 0.361465
-0.0822856 -0.142432 0.361464
-0.0716938 -0.142352 0.361463
-0.0611139 -0.142272 0.361462
-0.0505459 -0.142192 0.361461
-0.0421001 -0.142128 0.36146
-0.0315535 -0.142048 0.361459
-0.0210188 -0.141968 0.361458
-0.0104958 -0.141888 0.361457
-0.00208602 -0.141825 0.361456
0.00841565 -0.141745 0.361455
0.0189055 -0.141666 0.361454
0.0293837 -0.141586 0.361453
0.0377577 -0.141523 0.361452
0.0482147 -0.141444 0.361451
0.05866 -0.141364 0.36145
0.0690937 -0.141285 0.361449
0.0795156 -0.141206 0.361448
-0.101381 -0.140465 0.361466
-0.101381 -0.132016 0.361466
-0.0907676 -0.131941 0.361465
-0.0822856 -0.131882 0.361464
-0.0716938 -0.131807 0.361463
-0.0611139 -0.131733 0.361462
-0.0505459 -0.131659 0.361461
-0.0421001 -0.1316 0.36146
-0.0315535 -0.131526 0.361459
-0.0210188 -0.131452 0.361458
-0.0104958 -0.131378 0.361457
-0.00208602 -0.131319 0.361456
0.00841565 -0.131245 0.361455
0.0189055 -0.131172 0.361454
0.0293837 -0.131098 0.361453
0.0377577 -0.13104 0.361452
0.0482147 -0.130966 0.361451
0.05866 -0.130893 0.36145
0.0690937 -0.13082 0.361449
0.0795156 -0.130747 0.361448
0.0628349 -0.122488 0.36145
0.0732638 -0.12242 0.361449
0.0836811 -0.122352 0.361448
-0.101381 -0.121455 0.361466
-0.0907676 -0.121386 0.361465
-0.0822856 -0.121331 0.361464
-0.0716938 -0.121263 0.361463
-0.0611139 -0.121195 0.361462
-0.0505459 -0.121126 0.361461
-0.0421001 -0.121072 0.36146
-0.0315535 -0.121004 0.361459
-0.0210188 -0.120936 0.361458
-0.0104958 -0.120868 0.361457
-0.00208602 -0.120814 0.361456
0.00841565 -0.120746 0.361455
0.0189055 -0.120678 0.361454
0.0293837 -0.120611 0.361453
0.0377577 -0.120556 0.361452
0.0482147 -0.120489 0.361451
-0.0168082 -0.112498 0.361458
-0.00629 -0.112434 0.361457
0.00421639 -0.112371 0.361456
0.012613 -0.112321 0.361455
0.0230982 -0.112258 0.361454
0.0335716 -0.112195 0.361453
0.0440333 -0.112132 0.361452
0.0544833 -0.11207 0.361451
0.0628349 -0.112019 0.36145
0.0732638 -0.111957 0.361449
0.0836811 -0.111894 0.361448
-0.101381 -0.110893 0.361466
-0.0907676 -0.110831 0.361465
-0.0822856 -0.110781 0.361464
-0.0716938 -0.110718 0.361463
-0.0611139 -0.110656 0.361462
-0.0505459 -0.110594 0.361461
-0.0421001 -0.110544 0.36146
-0.0315535 -0.110482 0.361459
-0.101381 -0.102444 0.361466
-0.0907676 -0.102386 0.361465
-0.0822856 -0.10234 0.361464
-0.0716938 -0.102283 0.361463
-0.0611139 -0.102225 0.361462
-0.0505459 -0.102167 0.361461
-0.0421001 -0.102122 0.36146
-0.0315535 -0.102064 0.361459
-0.0210188 -0.102007 0.361458
-0.0104958 -0.101949 0.361457
-0.00208602 -0.101904 0.361456
0.00841565 -0.101847 0.361455
0.0189055 -0.101789 0.361454
0.0293837 -0.101732 0.361453
0.0377577 -0.101687 0.361452
0.0482147 -0.10163 0.361451
0.05866 -0.101573 0.36145
0.0690937 -0.101516 0.361449
0.0795156 -0.101459 0.361448
-0.101381 -0.091883 0.361466
-0.0907676 -0.0918311 0.361465
-0.0822856 -0.0917897 0.361464
-0.0716938 -0.091738 0.361463
-0.0611139 -0.0916864 0.361462
-0.0505459 -0.0916348 0.361461
-0.0421001 -0.0915935 0.36146
-0.0315535 -0.091542 0.361459
-0.0210188 -0.0914906 0.361458
-0.0104958 -0.0914392 0.361457
-0.00208602 -0.0913981 0.361456
0.00841565 -0.0913469 0.361455
0.0189055 -0.0912956 0.361454
0.0293837 -0.0912445 0.361453
0.0377577 -0.0912036 0.361452
0.0482147 -0.0911525 0.361451
0.05866 -0.0911015 0.36145
0.0690937 -0.0910506 0.361449
0.0795156 -0.0909997 0.361448
-0.101381 -0.0813217 0.361466
-0.0907676 -0.0812759 0.361465
-0.0822856 -0.0812392 0.361464
-0.0716938 -0.0811934 0.361463
-0.0611139 -0.0811477 0.361462
-0.0505459 -0.081102 0.361461
-0.0421001 -0.0810655 0.36146
-0.0315535 -0.08102 0.361459
-0.0210188 -0.0809744 0.361458
-0.0104958 -0.080929 0.361457
-0.00208602 -0.0808926 0.361456
0.00841565 -0.0808472 0.361455
0.0189055 -0.0808019 0.361454
0.0293837 -0.0807566 0.361453
0.0377577 -0.0807204 0.361452
0.0482147 -0.0806752 0.361451
0.05866 -0.0806301 0.36145
0.0690937 -0.080585 0.361449
0.0795156 -0.08054 0.361448
-0.00418776 -0.0724963 0.361457
0.00421639 -0.0724638 0.361456
0.012613 -0.0724313 0.361455
0.0230982 -0.0723907 0.361454
0.0335716 -0.0723501 0.361453
0.0440333 -0.0723096 0.361452
0.0544833 -0.0722691 0.361451
0.0628349 -0.0722368 0.36145
0.0732638 -0.0721964 0.361449
0.0836811 -0.072156 0.361448
-0.101381 -0.0707605 0.361466
-0.0907676 -0.0707205 0.361465
-0.0822856 -0.0706886 0.361464
-0.0716938 -0.0706488 0.361463
-0.0611139 -0.070609 0.361462
-0.0505459 -0.0705693 0.361461
-0.0421001 -0.0705375 0.36146
-0.0315535 -0.0704979 0.361459
-0.0210188 -0.0704583 0.361458
-0.101381 -0.0623114 0.361466
-0.0907676 -0.0622763 0.361465
-0.0822856 -0.0622482 0.361464
-0.0716938 -0.0622131 0.361463
-0.0611139 -0.0621781 0.361462
-0.0505459 -0.0621431 0.361461
-0.0421001 -0.0621152 0.36146
-0.0315535 -0.0620802 0.361459
-0.0210188 -0.0620453 0.361458
-0.0104958 -0.0620105 0.361457
-0.00208602 -0.0619827 0.361456
0.00841565 -0.0619479 0.361455
0.0189055 -0.0619131 0.361454
0.0293837 -0.0618785 0.361453
0.0377577 -0.0618507 0.361452
0.0482147 -0.0618161 0.361451
0.05866 -0.0617815 0.36145
0.0690937 -0.061747 0.361449
0.0795156 -0.0617124 0.361448
-0.101381 -0.0517502 0.361466
-0.0907676 -0.051721 0.361465
-0.0822856 -0.0516977 0.361464
-0.0716938 -0.0516685 0.361463
-0.0611139 -0.0516394 0.361462
-0.0505459 -0.0516104 0.361461
-0.0421001 -0.0515872 0.36146
-0.0315535 -0.0515581 0.361459
-0.0210188 -0.0515292 0.361458
-0.0104958 -0.0515002 0.361457
-0.00208602 -0.0514771 0.361456
0.00841565 -0.0514482 0.361455
0.0189055 -0.0514194 0.361454
0.0293837 -0.0513906 0.361453
0.0377577 -0.0513675 0.361452
0.0482147 -0.0513388 0.361451
0.05866 -0.0513101 0.36145
0.0690937 -0.0512814 0.361449
0.0795156 -0.0512527 0.361448
-0.101381 -0.0411889 0.361466
-0.0907676 -0.0411657 0.361465
-0.0822856 -0.0411471 0.361464
-0.0716938 -0.0411239 0.361463
-0.0611139 -0.0411008 0.361462
-0.0505459 -0.0410777 0.361461
-0.0421001 -0.0410592 0.36146
-0.0315535 -0.0410361 0.361459
-0.0210188 -0.041013 0.361458
-0.0104958 -0.04099 0.361457
-0.00208602 -0.0409716 0.361456
0.00841565 -0.0409486 0.361455
0.0189055 -0.0409256 0.361454
0.0293837 -0.0409027 0.361453
0.0377577 -0.0408844 0.361452
0.0482147 -0.0408615 0.361451
0.05866 -0.0408386 0.36145
0.0690937 -0.0408158 0.361449
0.0795156 -0.040793 0.361448
0.0377577 -0.0324978 0.361452
0.0482147 -0.0324796 0.361451
0.05866 -0.0324615 0.36145
0.0690937 -0.0324433 0.361449
0.0795156 -0.0324252 0.361448
-0.101381 -0.0306277 0.361466
-0.0907676 -0.0306104 0.361465
-0.0822856 -0.0305966 0.361464
-0.0716938 -0.0305793 0.361463
-0.0611139 -0.0305621 0.361462
-0.0505459 -0.0305449 0.361461
-0.0421001 -0.0305312 0.36146
-0.0315535 -0.030514 0.361459
-0.0210188 -0.0304969 0.361458
-0.0104958 -0.0304797 0.361457
-0.00208602 -0.030466 0.361456
0.00841565 -0.030449 0.361455
0.0189055 -0.0304319 0.361454
0.0293837 -0.0304148 0.361453
-0.101381 -0.0221787 0.361466
-0.0907676 -0.0221661 0.361465
-0.0822856 -0.0221561 0.361464
-0.0716938 -0.0221437 0.361463
-0.0611139 -0.0221312 0.361462
-0.0505459 -0.0221187 0.361461
-0.0421001 -0.0221088 0.36146
-0.0315535 -0.0220964 0.361459
-0.0210188 -0.0220839 0.361458
-0.0104958 -0.0220715 0.361457
-0.00208602 -0.0220616 0.361456
0.00841565 -0.0220492 0.361455
0.0189055 -0.0220369 0.361454
0.0293837 -0.0220245 0.361453
0.0377577 -0.0220147 0.361452
0.0482147 -0.0220023 0.361451
0.05866 -0.02199 0.36145
0.0690937 -0.0219777 0.361449
0.0795156 -0.0219655 0.361448
-0.101381 -0.0116174 0.361466
-0.0907676 -0.0116108 0.361465
-0.0822856 -0.0116056 0.361464
-0.0716938 -0.0115991 0.361463
-0.0611139 -0.0115925 0.361462
-0.0505459 -0.011586 0.361461
-0.0421001 -0.0115808 0.36146
-0.0315535 -0.0115743 0.361459
-0.0210188 -0.0115678 0.361458
-0.0104958 -0.0115613 0.361457
-0.00208602 -0.0115561 0.361456
0.00841565 -0.0115496 0.361455
0.0189055 -0.0115431 0.361454
0.0293837 -0.0115367 0.361453
0.0377577 -0.0115315 0.361452
0.0482147 -0.011525 0.361451
0.05866 -0.0115186 0.36145
0.0690937 -0.0115121 0.361449
0.0795156 -0.0115057 0.361448
-0.101381 -0.00105613 0.361466
-0.0907676 -0.00105554 0.361465
-0.0822856 -0.00105506 0.361464
-0.0716938 -0.00105447 0.361463
-0.0611139 -0.00105387 0.361462
-0.0505459 -0.00105328 0.361461
-0.0421001 -0.00105281 0.36146
-0.0315535 -0.00105221 0.361459
-0.0210188 -0.00105162 0.361458
-0.0104958 -0.00105103 0.361457
-0.00208602 -0.00105056 0.361456
0.00841565 -0.00104997 0.361455
0.0189055 -0.00104938 0.361454
0.0293837 -0.00104879 0.361453
0.0377577 -0.00104832 0.361452
0.0482147 -0.00104774 0.361451
0.05866 -0.00104715 0.36145
0.0690937 -0.00104657 0.361449
0.0795156 -0.00104598 0.361448
-0.101381 0.00950513 0.361466
-0.0907676 0.00949977 0.361465
-0.0822856 0.00949549 0.361464
-0.0716938 0.00949014 0.361463
-0.0611139 0.0094848 0.361462
-0.0505459 0.00947946 0.361461
-0.0421001 0.00947519 0.36146
-0.0315535 0.00946986 0.361459
-0.0210188 0.00946454 0.361458
-0.0104958 0.00945923 0.361457
-0.00208602 0.00945498 0.361456
0.00841565 0.00944967 0.361455
0.0189055 0.00944438 0.361454
0.0293837 0.00943908 0.361453
0.0377577 0.00943485 0.361452
0.0482147 0.00942957 0.361451
0.05866 0.0094243 0.36145
0.0690937 0.00941903 0.361449
0.0795156 0.00941376 0.361448
0.0992106 0.0137852 0.243063
-0.101381 0.0179541 0.361466
-0.0907676 0.017944 0.361465
-0.0822856 0.0179359 0.361464
-0.0716938 0.0179258 0.361463
-0.0611139 0.0179157 0.361462
-0.0505459 0.0179056 0.361461
-0.0421001 0.0178976 0.36146
-0.0315535 0.0178875 0.361459
-0.0210188 0.0178775 0.361458
-0.0104958 0.0178674 0.361457
-0.00208602 0.0178594 0.361456
0.00841565 0.0178494 0.361455
0.0189055 0.0178394 0.361454
0.0293837 0.0178294 0.361453
0.0377577 0.0178214 0.361452
0.0482147 0.0178114 0.361451
0.05866 0.0178014 0.36145
0.0690937 0.0177915 0.361449
0.0795156 0.0177815 0.361448
0.0992106 0.0238107 0.243063
-0.101381 0.0285154 0.361466
-0.0907676 0.0284993 0.361465
-0.0822856 0.0284865 0.361464
-0.0716938 0.0284704 0.361463
-0.0611139 0.0284544 0.361462
-0.0505459 0.0284384 0.361461
-0.0421001 0.0284256 0.36146
-0.0315535 0.0284096 0.361459
-0.0210188 0.0283936 0.361458
-0.0104958 0.0283777 0.361457
-0.00208602 0.0283649 0.361456
0.00841565 0.028349 0.361455
0.0189055 0.0283331 0.361454
0.0293837 0.0283173 0.361453
0.0377577 0.0283046 0.361452
0.0482147 0.0282887 0.361451
0.05866 0.0282729 0.36145
0.0690937 0.0282571 0.361449
0.0795156 0.0282413 0.361448
0.0992106 0.0338363 0.243063
0.0992106 0.0438618 0.243063
-0.101381 0.0390767 0.361466
-0.0907676 0.0390546 0.361465
-0.0822856 0.039037 0.361464
-0.0716938 0.039015 0.361463
-0.0611139 0.0389931 0.361462
-0.0505459 0.0389711 0.361461
-0.0421001 0.0389536 0.36146
-0.0315535 0.0389317 0.361459
-0.0210188 0.0389098 0.361458
-0.0104958 0.0388879 0.361457
-0.00208602 0.0388705 0.361456
0.00841565 0.0388487 0.361455
0.0189055 0.0388269 0.361454
0.0293837 0.0388051 0.361453
0.0377577 0.0387877 0.361452
0.0482147 0.038766 0.361451
0.05866 0.0387443 0.36145
0.0690937 0.0387227 0.361449
0.0795156 0.038701 0.361448
0.0992106 0.0538874 0.243063
-0.101381 0.0475257 0.361466
-0.0907676 0.0496099 0.361465
-0.0822856 0.0495876 0.361464
-0.0716938 0.0495596 0.361463
-0.0611139 0.0495317 0.361462
-0.0505459 0.0495038 0.361461
-0.0421001 0.0494816 0.36146
-0.0315535 0.0494538 0.361459
-0.0210188 0.049426 0.361458
-0.0104958 0.0493982 0.361457
-0.00208602 0.049376 0.361456
0.00841565 0.0493483 0.361455
0.0189055 0.0493206 0.361454
0.0293837 0.049293 0.361453
0.0377577 0.0492709 0.361452
0.0482147 0.0492433 0.361451
0.05866 0.0492158 0.36145
0.0690937 0.0491883 0.361449
0.0795156 0.0491608 0.361448
0.0992106 0.063913 0.243063
-0.101381 0.0580869 0.361466
-0.0907676 0.0580542 0.361465
-0.0822856 0.058028 0.361464
-0.0716938 0.0579953 0.361463
-0.0611139 0.0579627 0.361462
-0.0505459 0.05793 0.361461
-0.0421001 0.057904 0.36146
-0.0315535 0.0578714 0.361459
-0.0210188 0.0578389 0.361458
-0.0104958 0.0578064 0.361457
-0.00208602 0.0577804 0.361456
0.00841565 0.057748 0.361455
0.0189055 0.0577157 0.361454
0.0293837 0.0576833 0.361453
0.0377577 0.0576575 0.361452
0.0482147 0.0576252 0.361451
0.05866 0.0575929 0.36145
0.0690937 0.0575607 0.361449
0.0795156 0.0575286 0.361448
-0.101381 0.0686482 0.361466
-0.0907676 0.0686095 0.361465
-0.0822856 0.0685785 0.361464
-0.0716938 0.0685399 0.361463
-0.0611139 0.0685013 0.361462
-0.0505459 0.0684628 0.361461
-0.0421001 0.068432 0.36146
-0.0315535 0.0683935 0.361459
-0.0210188 0.0683551 0.361458
-0.0104958 0.0683167 0.361457
-0.00208602 0.068286 0.361456
0.00841565 0.0682477 0.361455
0.0189055 0.0682094 0.361454
0.0293837 0.0681712 0.361453
0.0377577 0.0681406 0.361452
0.0482147 0.0681025 0.361451
0.05866 0.0680644 0.36145
0.0690937 0.0680263 0.361449
0.0795156 0.0679883 0.361448
-0.101381 0.0792095 0.361466
-0.0907676 0.0791648 0.361465
-0.0822856 0.0791291 0.361464
-0.0716938 0.0790845 0.361463
-0.0611139 0.07904 0.361462
-0.0505459 0.0789955 0.361461
-0.0421001 0.0789599 0.36146
-0.0315535 0.0789155 0.361459
-0.0210188 0.0788712 0.361458
-0.0104958 0.0788269 0.361457
-0.00208602 0.0787915 0.361456
0.00841565 0.0787473 0.361455
0.0189055 0.0787031 0.361454
0.0293837 0.078659 0.361453
0.0377577 0.0786238 0.361452
0.0482147 0.0785798 0.361451
0.05866 0.0785358 0.36145
0.0690937 0.0784919 0.361449
0.0795156 0.078448 0.361448
-0.101381 0.0876585 0.361466
-0.0907676 0.087609 0.361465
-0.0822856 0.0875695 0.361464
-0.0716938 0.0875202 0.361463
-0.0611139 0.0895786 0.361462
-0.0505459 0.0895282 0.361461
-0.0421001 0.0894879 0.36146
-0.0315535 0.0894376 0.361459
-0.0210188 0.0893874 0.361458
-0.0104958 0.0893371 0.361457
-0.00208602 0.089297 0.361456
0.00841565 0.0892469 0.361455
0.0189055 0.0891969 0.361454
0.0293837 0.0891469 0.361453
0.0377577 0.089107 0.361452
0.0482147 0.0890571 0.361451
0.05866 0.0890072 0.36145
0.0690937 0.0889575 0.361449
0.0795156 0.0889077 0.361448
-0.101381 0.0982197 0.361466
-0.0907676 0.0981643 0.361465
-0.0822856 0.0981201 0.361464
-0.0716938 0.0980648 0.361463
-0.0611139 0.0980096 0.361462
-0.0505459 0.0979544 0.361461
-0.0421001 0.0979103 0.36146
-0.0315535 0.0978553 0.361459
-0.0210188 0.0978003 0.361458
-0.0104958 0.0977454 0.361457
-0.00208602 0.0977015 0.361456
0.00841565 0.0976466 0.361455
0.0189055 0.0975919 0.361454
0.0293837 0.0975372 0.361453
0.0377577 0.0995901 0.361452
0.0482147 0.0995344 0.361451
0.05866 0.0994787 0.36145
0.0690937 0.0994231 0.361449
0.0795156 0.0993675 0.361448
-0.101381 0.108781 0.361466
-0.0907676 0.10872 0.361465
-0.0822856 0.108671 0.361464
-0.0716938 0.108609 0.361463
-0.0611139 0.108548 0.361462
-0.0505459 0.108487 0.361461
-0.0421001 0.108438 0.36146
-0.0315535 0.108377 0.361459
-0.0210188 0.108316 0.361458
-0.0104958 0.108256 0.361457
-0.00208602 0.108207 0.361456
0.00841565 0.108146 0.361455
0.0189055 0.108086 0.361454
0.0293837 0.108025 0.361453
0.0377577 0.107977 0.361452
0.0482147 0.107916 0.361451
0.05866 0.107856 0.36145
0.0690937 0.107796 0.361449
0.0795156 0.107735 0.361448
-0.101381 0.119342 0.361466
-0.0907676 0.119275 0.361465
-0.0822856 0.119221 0.361464
-0.0716938 0.119154 0.361463
-0.0611139 0.119087 0.361462
-0.0505459 0.11902 0.361461
-0.0421001 0.118966 0.36146
-0.0315535 0.118899 0.361459
-0.0210188 0.118833 0.361458
-0.0104958 0.118766 0.361457
-0.00208602 0.118713 0.361456
0.00841565 0.118646 0.361455
0.0189055 0.118579 0.361454
0.0293837 0.118513 0.361453
0.0377577 0.11846 0.361452
0.0482147 0.118394 0.361451
0.05866 0.118327 0.36145
0.0690937 0.118261 0.361449
0.0795156 0.118195 0.361448
-0.101381 0.127791 0.361466
-0.0907676 0.127719 0.361465
-0.0822856 0.127662 0.361464
-0.0716938 0.12759 0.361463
-0.0611139 0.127518 0.361462
-0.0505459 0.129553 0.361461
-0.0421001 0.129494 0.36146
-0.0315535 0.129421 0.361459
-0.0210188 0.129349 0.361458
-0.0104958 0.129276 0.361457
-0.00208602 0.129218 0.361456
0.00841565 0.129146 0.361455
0.0189055 0.129073 0.361454
0.0293837 0.129001 0.361453
0.0377577 0.128943 0.361452
0.0482147 0.128871 0.361451
0.05866 0.128799 0.36145
0.0690937 0.128727 0.361449
0.0795156 0.128655 0.361448
-0.101381 0.138353 0.361466
-0.0907676 0.138275 0.361465
-0.0822856 0.138212 0.361464
-0.0716938 0.138134 0.361463
-0.0611139 0.138056 0.361462
-0.0505459 0.137979 0.361461
-0.0421001 0.137917 0.36146
-0.0315535 0.137839 0.361459
-0.0210188 0.137762 0.361458
-0.0104958 0.137684 0.361457
-0.00208602 0.137622 0.361456
0.00841565 0.137545 0.361455
0.0189055 0.139567 0.361454
0.0293837 0.139489 0.361453
0.0377577 0.139426 0.361452
0.0482147 0.139348 0.361451
0.05866 0.13927 0.36145
0.0690937 0.139192 0.361449
0.0795156 0.139115 0.361448
-0.101381 0.148914 0.361466
-0.0907676 0.14883 0.361465
-0.0822856 0.148763 0.361464
-0.0716938 0.148679 0.361463
-0.0611139 0.148595 0.361462
-0.0505459 0.148512 0.361461
-0.0421001 0.148445 0.36146
-0.0315535 0.148361 0.361459
-0.0210188 0.148278 0.361458
-0.0104958 0.148195 0.361457
-0.00208602 0.148128 0.361456
0.00841565 0.148045 0.361455
0.0189055 0.147962 0.361454
0.0293837 0.147879 0.361453
0.0377577 0.147813 0.361452
0.0482147 0.14773 0.361451
0.05866 0.147647 0.36145
0.0690937 0.147565 0.361449
0.0795156 0.149574 0.361448
-0.101381 0.159475 0.361466
-0.0907676 0.159385 0.361465
-0.0822856 0.159313 0.361464
-0.0716938 0.159223 0.361463
-0.0611139 0.159134 0.361462
-0.0505459 0.159044 0.361461
-0.0421001 0.158973 0.36146
-0.0315535 0.158883 0.361459
-0.0210188 0.158794 0.361458
-0.0104958 0.158705 0.361457
-0.00208602 0.158634 0.361456
0.00841565 0.158545 0.361455
0.0189055 0.158456 0.361454
0.0293837 0.158367 0.361453
0.0377577 0.158296 0.361452
0.0482147 0.158207 0.361451
0.05866 0.158119 0.36145
0.0690937 0.15803 0.361449
0.0795156 0.157942 0.361448
-0.101381 0.167924 0.361466
-0.0907676 0.167829 0.361465
-0.0822856 0.167754 0.361464
-0.0716938 0.167659 0.361463
-0.0611139 0.167565 0.361462
-0.0505459 0.169577 0.361461
-0.0421001 0.169501 0.36146
-0.0315535 0.169405 0.361459
-0.0210188 0.16931 0.361458
-0.0104958 0.169215 0.361457
-0.00208602 0.169139 0.361456
0.00841565 0.169044 0.361455
0.0189055 0.168949 0.361454
0.0293837 0.168855 0.361453
0.0377577 0.168779 0.361452
0.0482147 0.168685 0.361451
0.05866 0.16859 0.36145
0.0690937 0.168496 0.361449
0.0795156 0.168402 0.361448
-0.101381 0.178485 0.361466
-0.0907676 0.178385 0.361465
-0.0822856 0.178304 0.361464
-0.0716938 0.178204 0.361463
-0.0611139 0.178103 0.361462
-0.0505459 0.178003 0.361461
-0.0421001 0.177923 0.36146
-0.0315535 0.177823 0.361459
-0.0210188 0.177723 0.361458
-0.0104958 0.177623 0.361457
-0.00208602 0.177544 0.361456
0.00841565 0.179544 0.361455
0.0189055 0.179443 0.361454
0.0293837 0.179343 0.361453
0.0377577 0.179262 0.361452
0.0482147 0.179162 0.361451
0.05866 0.179062 0.36145
0.0690937 0.178962 0.361449
0.0795156 0.178861 0.361448
-0.101381 0.189047 0.361466
-0.0907676 0.18894 0.361465
-0.0822856 0.188855 0.361464
-0.0716938 0.188748 0.361463
-0.0611139 0.188642 0.361462
-0.0505459 0.188536 0.361461
-0.0421001 0.188451 0.36146
-0.0315535 0.188345 0.361459
-0.0210188 0.188239 0.361458
-0.0104958 0.188134 0.361457
-0.00208602 0.188049 0.361456
0.00841565 0.187944 0.361455
0.0189055 0.187838 0.361454
0.0293837 0.187733 0.361453
0.0377577 0.187649 0.361452
0.0482147 0.187544 0.361451
0.05866 0.189533 0.36145
0.0690937 0.189427 0.361449
0.0795156 0.189321 0.361448
-0.101381 0.199608 0.361466
-0.0907676 0.199495 0.361465
-0.0822856 0.199405 0.361464
-0.0716938 0.199293 0.361463
-0.0611139 0.199181 0.361462
-0.0505459 0.199069 0.361461
-0.0421001 0.198979 0.36146
-0.0315535 0.198867 0.361459
-0.0210188 0.198755 0.361458
-0.0104958 0.198644 0.361457
-0.00208602 0.198555 0.361456
0.00841565 0.198443 0.361455
0.0189055 0.198332 0.361454
0.0293837 0.198221 0.361453
0.0377577 0.198132 0.361452
0.0482147 0.198021 0.361451
0.05866 0.19791 0.36145
0.0690937 0.1978 0.361449
0.0795156 0.197689 0.361448
-0.101381 0.208057 0.361466
-0.0907676 0.20794 0.361465
-0.0822856 0.207846 0.361464
-0.0716938 0.207729 0.361463
-0.0611139 0.207612 0.361462
-0.0505459 0.209601 0.361461
-0.0421001 0.209507 0.36146
-0.0315535 0.209389 0.361459
-0.0210188 0.209272 0.361458
-0.0104958 0.209154 0.361457
-0.00208602 0.20906 0.361456
0.00841565 0.208943 0.361455
0.0189055 0.208826 0.361454
0.0293837 0.208709 0.361453
0.0377577 0.208615 0.361452
0.0482147 0.208498 0.361451
0.05866 0.208382 0.36145
0.0690937 0.208265 0.361449
0.0795156 0.208149 0.361448
-0.101381 0.218618 0.361466
-0.0907676 0.218495 0.361465
-0.0822856 0.218396 0.361464
-0.0716938 0.218273 0.361463
-0.0611139 0.21815 0.361462
-0.0505459 0.218028 0.361461
-0.0421001 0.217929 0.36146
-0.0315535 0.217807 0.361459
-0.0210188 0.217685 0.361458
-0.0104958 0.217562 0.361457
-0.00208602 0.219566 0.361456
0.00841565 0.219442 0.361455
0.0189055 0.219319 0.361454
0.0293837 0.219197 0.361453
0.0377577 0.219098 0.361452
0.0482147 0.218976 0.361451
0.05866 0.218853 0.36145
0.0690937 0.218731 0.361449
0.0795156 0.218609 0.361448
-0.101381 0.229179 0.361466
-0.0907676 0.22905 0.361465
-0.0822856 0.228947 0.361464
-0.0716938 0.228818 0.361463
-0.0611139 0.228689 0.361462
-0.0505459 0.22856 0.361461
-0.0421001 0.228457 0.36146
-0.0315535 0.228329 0.361459
-0.0210188 0.228201 0.361458
-0.0104958 0.228073 0.361457
-0.00208602 0.22797 0.361456
0.00841565 0.227842 0.361455
0.0189055 0.227714 0.361454
0.0293837 0.227587 0.361453
0.0377577 0.229581 0.361452
0.0482147 0.229453 0.361451
0.05866 0.229325 0.36145
0.0690937 0.229196 0.361449
0.0795156 0.229068 0.361448
-0.101381 0.237628 0.361466
-0.0907676 0.239605 0.361465
-0.0822856 0.239497 0.361464
-0.0716938 0.239362 0.361463
-0.0611139 0.239228 0.361462
-0.0505459 0.239093 0.361461
-0.0421001 0.238985 0.36146
-0.0315535 0.238851 0.361459
-0.0210188 0.238717 0.361458
-0.0104958 0.238583 0.361457
-0.00208602 0.238476 0.361456
0.00841565 0.238342 0.361455
0.0189055 0.238208 0.361454
0.0293837 0.238075 0.361453
0.0377577 0.237968 0.361452
0.0482147 0.237835 0.361451
0.05866 0.237702 0.36145
0.0690937 0.237569 0.361449
0.0795156 0.239528 0.361448
-0.101381 0.24819 0.361466
-0.0907676 0.24805 0.361465
-0.0822856 0.247938 0.361464
-0.0716938 0.247798 0.361463
-0.0611139 0.247659 0.361462
-0.0505459 0.247519 0.361461
-0.0421001 0.249513 0.36146
-0.0315535 0.249373 0.361459
-0.0210188 0.249233 0.361458
-0.0104958 0.249093 0.361457
-0.00208602 0.248981 0.361456
0.00841565 0.248841 0.361455
0.0189055 0.248702 0.361454
0.0293837 0.248563 0.361453
0.0377577 0.248451 0.361452
0.0482147 0.248312 0.361451
0.05866 0.248173 0.36145
0.0690937 0.248034 0.361449
0.0795156 0.247896 0.361448
