ply
format ascii 1.0
comment Created by Open3D
element vertex 1615
property double x
property double y
property double z
end_header
0.0414882 -0.0640848 0.450069
0.067268 0.0349638 0.446333
-0.00707753 -0.107915 -0.450069
-0.106742 0.15201 -0.306102
-0.096376 0.15201 0.0952751
0.0648146 -0.0663763 0.0266512
0.0928951 -0.0663763 -0.190953
0.043379 -0.15201 0.347417
-0.0687838 -0.15201 0.0765299
0.0759642 -0.15201 -0.447301
-0.00894189 0.0192005 -0.0898676
-0.0530529 -0.15201 -0.437562
-0.00894189 0.0476845 0.0619829
0.155984 -0.135841 -0.0938208
-0.120628 -0.148896 0.450069
-0.155984 0.14098 -0.359231
0.155984 -0.139038 0.192794
0.104784 -0.0663763 -0.163368
0.143727 -0.15201 -0.0434507
-0.0364718 -0.0727963 0.450069
0.155984 -0.0752073 0.230984
-0.00894189 -0.00323365 0.105299
-0.00894189 0.130516 -0.225851
-0.109144 -0.0971198 0.450069
-0.155984 0.13539 0.323753
0.102195 -0.0663763 -0.257034
-0.127543 0.15201 0.109779
-0.155984 -0.120818 0.0836566
-0.0865872 0.0677146 -0.450069
-0.155984 -0.115484 0.383715
-0.113448 0.141926 0.450069
-0.155984 0.0802412 0.365505
-0.155984 -0.0427768 0.363861
-0.0388177 -0.15201 -0.276719
-0.0623966 -0.15201 -0.0451443
-0.00894189 0.0409684 -0.254077
0.155984 -0.0852964 0.0301968
-0.0243493 0.15201 0.440701
-0.155984 0.130574 -0.391535
0.0837696 -0.0663763 -0.322903
0.0178891 -0.0663763 0.282714
-0.0664556 0.15201 0.176826
0.0828208 -0.15201 -0.0944747
0.101476 -0.0349153 0.450069
-0.0202857 0.15201 0.213338
0.155984 -0.0665325 0.122084
-0.155984 0.00170149 -0.114441
-0.155984 -0.0194655 -0.444513
-0.155984 0.127462 -0.447554
0.155984 -0.135653 0.290279
0.0800847 -0.15201 -0.0311295
0.0125526 -0.0401481 -0.450069
0.0725546 -0.0663763 -0.214398
-0.102724 -0.15201 -0.353707
0.0316146 -0.15201 0.136604
-0.0583729 0.0295236 -0.450069
-0.155984 0.130024 -0.406612
-0.0364121 0.0846112 0.450069
-0.0151865 0.15201 -0.0864692
-0.11912 0.15201 -0.279025
0.0621102 -0.15201 0.074259
0.0226542 -0.0663763 0.260102
0.0949204 -0.15201 -0.00104815
-0.152627 0.0661247 0.450069
-0.155984 -0.106068 0.162836
0.155984 -0.125354 0.317216
0.0998064 -0.0663763 -0.0178491
0.0667942 -0.0663763 0.332356
-0.155984 -0.0396896 -0.418005
-0.155984 0.150229 0.27816
-0.102162 -0.15201 -0.267013
-0.00894189 0.0745126 0.172461
-0.155984 0.110193 0.265743
-0.0435288 -0.15201 0.0532403
-0.00894189 -0.0242283 -0.224483
0.00532157 -0.15201 -0.449333
-0.059132 0.15201 -0.0480671
-0.143019 0.105958 -0.450069
0.0993755 -0.15201 0.368823
-0.155984 -0.138049 -0.127856
-0.155984 0.123946 -0.428256
-0.0288616 -0.15201 0.131929
0.0919918 -0.0408064 0.450069
-0.128911 0.15201 -0.172299
-0.00894189 0.0611838 0.436183
-0.155984 -0.151036 -0.0700662
-0.155984 -0.124112 -0.319062
-0.00356011 -0.15201 0.290093
-0.130919 0.15201 0.102508
0.0958524 -0.0600325 0.450069
-0.155984 -0.0745669 0.0167355
0.155984 -0.131114 -0.0796684
0.124106 -0.104989 -0.450069
-0.0214653 -0.15201 0.399957
-0.155984 0.0405899 0.253281
-0.00894189 0.134727 0.000354096
-0.00894189 0.126084 0.393744
-0.153823 -0.15201 0.442491
0.155984 -0.143277 0.186501
-0.00894189 0.0195078 -0.139674
-0.155984 0.0836089 -0.121552
-0.0852974 0.15201 -0.0971347
-0.00894189 0.106026 -0.255672
-0.155984 -0.100867 -0.177696
-0.103485 -0.15201 -0.0034221
-0.0377577 -0.15201 -0.179479
0.155984 -0.043434 0.426076
-0.0317996 -0.15201 0.0322756
-0.138445 -0.15201 -0.283172
-0.0895068 0.129271 0.450069
-0.155984 -0.117898 0.234552
-0.0942256 -0.15201 -0.23495
0.0757445 -0.15201 0.41124
-0.112811 -0.15201 0.264976
0.155984 -0.129087 -0.00613381
-0.00894189 0.094852 -0.361995
0.0282895 0.00534763 0.376026
0.107925 0.0349638 -0.442152
-0.0585596 0.0818793 -0.450069
-0.125916 -0.15201 -0.414455
-0.0926701 0.0449157 0.450069
-0.155984 0.0715269 -0.296911
-0.0249774 0.15201 -0.0674547
-0.155984 0.142554 -0.0457777
-0.150171 0.15201 0.317794
-0.0772884 0.151077 -0.450069
-0.155984 0.0739219 0.153378
-0.00894189 0.0833667 -0.06616
-0.0549865 -0.15201 -0.00761772
-0.155984 0.0690349 0.275376
0.0382336 -0.0663763 -0.101725
0.155984 -0.000919779 -0.386721
-0.0728274 -0.15201 0.176259
0.0590533 -0.0602703 0.450069
-0.155984 -0.109545 0.231499
-0.0655724 0.15201 -0.122908
0.137847 -0.0325477 0.376026
-0.141278 -0.15201 -0.282711
-0.155984 0.120519 -0.157402
-0.155984 0.00430764 -0.0557631
-0.00304262 -0.15201 0.137438
-0.155984 0.0238903 -0.25979
0.0253369 -0.0663763 0.264298
-0.00894189 0.0450457 0.261811
0.135655 -0.0663763 0.282749
0.155984 -0.0918043 -0.086357
-0.0154089 -0.13604 -0.450069
-0.1126 -0.15201 0.213412
-0.155984 0.100496 -0.0456187
0.135482 -0.15201 -0.225699
0.155984 -0.118523 -0.0471473
-0.0790046 0.0704762 0.450069
-0.145023 -0.15201 -0.00694059
-0.029794 0.15201 -0.374184
-0.00894189 0.142263 -0.169486
-0.0847256 -0.15201 0.178033
-0.0732211 -0.15201 -0.119244
-0.155984 -0.0889918 0.195379
-0.142303 0.15201 0.27535
0.0490701 -0.15201 0.126188
-0.155984 -0.117707 0.129899
-0.00894189 -0.0372301 0.116966
-0.00666663 -0.0663763 0.255956
-0.00894189 -0.0410752 0.0705133
-0.0276018 0.15201 0.215273
0.155984 -0.113788 -0.0859203
-0.0518678 -0.15201 -0.20532
-0.0699405 -0.15201 -0.2096
-0.0823231 0.0681318 0.450069
0.143555 -0.15201 0.351299
-0.154881 -0.15201 -0.193184
-0.155984 0.109378 -0.229401
0.155984 -0.0586043 0.419454
-0.0686387 -0.15201 0.217071
-0.0643347 -0.0258591 -0.450069
-0.12449 0.15201 0.316679
0.155984 -0.085903 -0.380178
-0.0503922 0.15201 -0.342703
-0.0422492 -0.15201 -0.17444
0.0549378 -0.0322042 0.376026
0.135239 -0.0663763 -0.274274
-0.0548531 0.15201 -0.269611
-0.133796 -0.119545 0.450069
0.155984 -0.149103 0.25826
-0.00894189 0.0881116 0.101652
-0.00894189 0.113798 -0.17955
-0.155984 -0.0203841 0.365502
0.019232 -0.0663763 0.0911175
-0.155984 -0.0836179 0.167306
-0.155984 0.0437404 -0.352615
-0.155984 0.0116553 -0.210891
-0.065381 -0.0651113 -0.450069
-0.106027 -0.0566573 0.450069
-0.0341677 0.15201 0.0279837
-0.00374 -0.0663763 -0.297291
-0.144266 0.15201 -0.262327
-0.121307 0.15201 0.159077
-0.00894189 0.143299 -0.124413
-0.155984 0.12333 0.227023
-0.00894189 0.00926705 -0.00668491
0.155984 -0.134331 -0.314736
-0.0672343 -0.15201 0.367099
0.00434808 -0.0689348 0.450069
-0.0125637 0.135316 -0.450069
-0.0681169 -0.15201 0.37233
-0.0683637 -0.15201 0.222213
-0.155984 0.0500462 0.305639
-0.130954 0.15201 0.317688
-0.155984 0.139952 0.143123
-0.00894189 0.0636258 0.363503
-0.00894189 0.0534012 0.170436
-0.155984 0.0666052 -0.283746
-0.114718 0.15201 -0.15211
0.155984 -0.0816584 0.167471
-0.155984 0.0462791 0.191162
-0.155984 -0.144229 -0.434839
-0.029501 0.15201 -0.174299
0.107148 -0.137439 0.450069
-0.032931 -0.15201 -0.342003
0.133907 0.0349638 -0.405128
-0.00720976 -0.0514778 -0.450069
-0.138633 0.15201 0.0871963
-0.0789216 -0.15201 -0.276496
0.0259085 -0.15201 0.230926
-0.0510161 0.15201 -0.446461
0.131109 -0.0663763 -0.341856
-0.155984 0.126158 0.245306
-0.0246442 0.15201 -0.275505
-0.155984 -0.0119783 0.425808
-0.00894189 0.00123223 0.29273
-0.134394 -0.0551907 -0.450069
0.128473 -0.15201 0.062601
-0.0988536 0.15201 0.325273
-0.141642 -0.15201 0.0462759
-0.155984 -0.0268284 0.00823617
-0.155984 -0.124799 -0.23408
-0.155984 -0.148595 -0.0530394
0.0493626 -0.0663763 -0.215251
-0.155984 0.0217404 -0.393868
-0.121457 0.0994531 -0.450069
0.00467258 -0.0663763 0.263097
-0.0833856 0.15201 0.172397
-0.00894189 0.0276613 0.0886361
-0.155984 0.125209 0.423584
-0.127699 0.15201 0.270697
0.0748511 0.0349638 -0.352918
0.116575 -0.0663763 -0.0679759
0.0709189 -0.0490366 -0.450069
0.0189088 -0.15201 0.0113164
0.00901448 -0.103834 0.450069
0.0701617 -0.15201 0.0942008
-0.00894189 0.0948553 -0.0216628
-0.0758268 -0.15201 -0.228364
-0.00894189 0.096982 -0.051347
0.155984 -0.100816 0.299632
-0.144412 -0.109519 -0.450069
-0.155984 0.00089635 0.23796
-0.155984 -0.0712236 -0.114025
0.138385 -0.143615 0.450069
-0.149218 -0.104275 -0.450069
-0.0844258 -0.15201 -0.169321
-0.00894189 0.134929 -0.0369497
-0.00894189 0.0299421 0.249618
-0.0263573 -0.15201 -0.417783
-0.138597 -0.15201 -0.193844
0.109409 -0.130206 0.450069
-0.155984 0.0156868 -0.438484
-0.147729 -0.15201 0.0483919
0.0450256 -0.15201 0.0449938
-0.127301 -0.15201 0.243001
-0.029515 -0.15201 -0.153046
-0.00894189 0.130908 0.111871
-0.155984 -0.0598068 -0.0313495
0.12126 -0.15201 0.159434
-0.00894189 -0.00826545 -0.00270806
0.155984 -0.114883 0.169303
-0.155984 -0.141196 0.0612421
-0.155984 -0.133756 0.0484342
0.0127827 -0.15201 0.0602796
-0.129194 -0.15201 0.0937155
-0.0676099 -0.128242 -0.450069
-0.155984 -0.149657 0.0257414
-0.0869296 -0.0109629 0.450069
-0.155984 -0.0471509 0.411502
-0.0542083 0.142231 0.450069
-0.00894189 0.0543939 -0.425288
-0.00894189 -0.0436535 0.047105
0.045285 -0.0663763 0.273207
0.155984 -0.0728944 0.235468
-0.000786358 0.016031 0.450069
-0.155984 -0.0444916 0.0140259
-0.0801136 0.15201 0.0815631
-0.101526 0.15201 0.440919
0.134369 -0.15201 -0.00199091
-0.155984 -0.143295 0.0237179
0.0521472 -0.15201 -0.183139
0.0286318 -0.0663763 0.0443203
-0.155889 -0.15201 -0.322495
-0.0881034 0.15201 0.399652
-0.122744 0.15201 -0.439869
-0.144686 0.15201 0.144429
0.154161 -0.15201 -0.408266
-0.155984 0.0678927 -0.301656
0.140971 -0.15201 -0.341872
0.155138 -0.15201 -0.199678
-0.00894189 0.0296114 -0.325068
0.0470046 -0.15201 0.44026
0.0448087 -0.15201 -0.439836
-0.0864734 0.15201 -0.131188
0.155984 -0.11279 -0.241572
-0.155984 0.0508706 0.120407
0.0428226 -0.0663763 0.109009
-0.00894189 0.124684 0.361865
-0.155984 0.0731132 -0.364848
0.0862907 -0.12344 -0.450069
-0.00894189 0.0467187 0.199144
0.144601 -0.0663763 -0.0378
0.0571557 0.0312323 -0.450069
-0.136985 0.15201 -0.183866
0.116856 -0.15201 0.420726
-0.0230603 0.15201 -0.0941144
0.12327 -0.0663763 -0.155146
-0.123331 0.15201 0.388201
-0.107279 -0.15201 -0.0407511
-0.00353204 -0.0382296 -0.450069
0.155984 -0.0675452 -0.0527064
0.155984 0.0106707 -0.432986
-0.00894189 0.140673 -0.34446
0.0634611 0.0349638 0.376648
0.137224 -0.15201 -0.387304
-0.0408746 0.15201 0.130963
-0.0676912 -0.15201 0.42316
-0.155984 0.146005 -0.376291
0.0520496 -0.15201 -0.181736
0.0379727 -0.0637798 0.376026
0.155984 -0.118404 0.185948
-0.155984 0.0809304 -0.333347
-0.102133 -0.15201 0.193893
-0.155984 0.0269422 0.235112
-0.155984 -0.0109598 0.284254
-0.155984 -0.0529437 0.214644
-0.00894189 0.000104507 0.222059
-0.0675367 0.15201 0.0661222
0.144606 -0.0663763 -0.33423
-0.128728 -0.15201 0.310715
-0.155984 -0.129252 0.329092
-0.129442 -0.15201 -0.144693
-0.140536 -0.0360812 -0.450069
-0.11182 0.15201 0.138364
0.155984 -0.125786 -0.272276
-0.155984 -0.0602637 0.114913
0.0272168 -0.119592 0.450069
-0.0908578 0.15201 -0.18899
0.0140465 -0.0663763 0.284341
0.0269615 0.0349638 -0.437868
0.0416778 -0.047685 0.376026
0.00865699 -0.0663763 0.0879931
-0.0032042 -0.15201 0.289565
-0.00894189 -0.0105773 -0.0116123
-0.00894189 0.104401 -0.298166
-0.0270876 -0.15201 0.323224
0.155984 -0.0598563 0.381108
0.112388 -0.15201 0.233356
-0.155984 0.100535 -0.125986
-0.155984 0.130754 0.216019
0.123112 -0.15201 -0.100507
-0.00894189 -0.0610121 -0.282646
-0.0604664 -0.15201 -0.0680185
0.155984 -0.0706781 0.247569
-0.00894189 0.0660616 0.161699
-0.155984 0.103734 -0.198348
-0.0499803 0.15201 0.12524
-0.00894189 0.0398583 -0.358434
-0.0160102 -0.15201 0.236281
0.0404023 0.027876 0.376026
-0.10922 0.15201 0.303121
-0.00894189 0.0743254 -0.231199
0.153606 0.0349638 0.433084
-0.138065 0.15201 0.115788
-0.0956152 -0.15201 0.114936
0.0546539 -0.0207224 0.450069
-0.155984 -0.0751588 0.347782
-0.140402 -0.15201 0.243551
0.0430175 -0.15201 0.298869
-0.155984 0.0387657 0.291938
-0.151898 -0.15201 0.430846
0.155984 -0.0972139 -0.138381
-0.00894189 0.0803047 -0.00831847
-0.0728624 -0.0922391 -0.450069
0.0889578 -0.0663763 0.18229
-0.155984 0.0717977 -0.237064
0.0550567 -0.0652062 0.376026
-0.155984 -0.0775041 -0.290543
0.155984 -0.108173 -0.0197709
-0.0777306 0.15201 -0.235685
0.144222 -0.0663763 0.357726
-0.00894189 0.095856 0.376617
-0.0723539 0.15201 -0.412238
-0.101208 0.15201 0.199655
-0.00894189 -0.0409953 -0.0952914
-0.108994 0.15201 0.246813
-0.0132224 -0.15201 0.348521
0.0389257 -0.15201 0.118707
-0.123549 0.0831197 0.450069
0.155984 -0.116861 -0.247075
-0.00894189 0.139728 -0.332479
0.0476365 -0.15201 0.160202
-0.109882 -0.0222064 -0.450069
0.121951 -0.15201 -0.170564
-0.155984 -0.139424 -0.254967
0.056358 0.0349638 0.407905
0.0280154 -0.15201 -0.348506
0.0389488 -0.0663763 -0.221201
0.00409325 0.0349638 0.410453
-0.0287263 -0.15201 0.255642
0.0605829 -0.0663763 -0.210967
-0.0250044 -0.15201 0.147769
0.00416607 -0.15201 0.0622679
0.097742 -0.0663763 0.0410147
-0.00894189 -0.0499386 0.189485
-0.00894189 0.130627 0.0268125
0.123012 -0.0663763 0.205246
-0.0387815 -0.104993 -0.450069
-0.0404594 -0.15201 0.339635
-0.0255606 -0.125443 0.450069
-0.00894189 0.144299 0.228392
0.155984 -0.14577 0.277534
-0.00894189 0.0914755 -0.446475
0.0263969 -0.0663763 0.00542127
0.0659329 -0.15201 0.421654
-0.0484462 0.15201 0.00527733
0.0356434 -0.15201 0.0290097
-0.138805 -0.0917299 0.450069
0.0812452 -0.15201 0.337414
-0.155984 0.0450829 0.0713766
-0.00136756 -0.15201 0.435627
-0.00894189 -0.0298991 0.360708
-0.102526 -0.15201 0.368195
-0.0729499 -0.15201 -0.227548
0.0615813 -0.0663763 -0.0958893
-0.155984 0.0323951 0.384678
0.0144591 -0.15201 0.220487
-0.121604 0.15201 0.168918
0.058495 0.0139674 -0.450069
-0.00894189 -0.00499474 0.118561
-0.0574008 0.15201 0.147356
0.123183 -0.0663763 0.00389786
-0.00894189 -0.048096 -0.197886
-0.0471296 0.15201 -0.049725
0.0696292 0.0349638 -0.434162
-0.0982384 -0.15201 -0.259163
-0.1214 -0.0425855 -0.450069
0.00955301 -0.10038 0.450069
-0.111111 0.15201 0.195242
0.1089 -0.15201 -0.396763
-0.0839529 -0.15201 0.390988
0.0384305 -0.0663763 0.0524864
0.137486 0.0153337 0.450069
0.093441 -0.0663763 -0.341722
-0.155984 0.0534705 0.267068
-0.00894189 -0.00623144 0.00137163
-0.00894189 0.0724821 -0.26569
-0.155984 -0.0242356 0.283697
0.0216928 -0.15201 0.227251
0.152886 -0.15201 -0.0312694
-0.0778328 -0.15201 0.118863
-0.00894189 0.127362 0.154733
0.126891 -0.0663763 -0.173324
0.155984 -0.076609 -0.352637
-0.155984 -0.0147197 0.161352
-0.155984 0.067764 -0.325519
-0.10395 -0.0683277 -0.450069
-0.00894189 0.076797 -0.0530709
-0.155984 0.0757489 -0.216145
-0.117117 0.15201 -0.38514
0.141494 -0.0663763 -0.192364
-0.00894189 0.0303893 -0.243343
-0.0498099 -0.0699884 -0.450069
0.155984 -0.00328257 -0.387403
-0.00894189 0.00899468 0.337828
0.125558 -0.0663763 -0.343286
-0.108739 -0.15201 0.1971
-0.155984 -0.0979126 -0.241483
0.0769577 -0.0663763 0.0640242
-0.0933042 -0.053387 -0.450069
0.00672739 0.0349638 -0.382286
-0.131557 -0.0818765 -0.450069
-0.00894189 0.0610377 0.298158
-0.00894189 0.047464 -0.419749
0.123512 -0.0663763 0.140325
0.112917 -0.15201 -0.057635
0.0466083 -0.15201 -0.39694
-0.0516343 -0.142623 -0.450069
-0.155984 0.151242 -0.244205
-0.064395 0.0108626 0.450069
0.101091 -0.0663763 0.224494
-0.155984 -0.00796526 -0.351212
-0.0265701 0.108951 0.450069
-0.00894189 -0.0452531 0.270157
-0.155984 -0.0451413 0.168843
0.142128 -0.0474663 0.376026
0.143992 -0.15201 -0.185433
-0.12851 -0.15201 -0.101138
0.105526 -0.15201 -0.0175236
0.00711602 -0.15201 0.430027
0.147165 -0.0663763 0.19778
-0.155984 0.114405 0.337425
0.155984 -0.145475 0.255878
-0.00894189 0.0812876 0.204399
0.142562 -0.0663763 -0.145974
0.0745437 -0.0663763 0.279226
-0.00894189 0.0654285 0.100636
-0.0295603 -0.15201 -0.187856
0.155984 -0.149909 -0.407199
-0.00894189 0.0853468 0.260155
-0.0641627 0.15201 -0.380429
-0.00894189 0.060304 -0.16735
-0.0902221 0.15201 0.0850749
0.0746814 -0.0663763 0.329485
-0.155984 -0.0850177 0.0443625
-0.0018212 0.0270285 -0.450069
-0.148803 -0.15201 -0.272401
0.152827 -0.0663763 0.254223
0.149285 -0.0663763 -0.0933439
0.117199 -0.0162995 -0.450069
-0.151356 -0.15201 0.408808
0.0602261 -0.0663763 0.208865
-0.0979457 -0.15201 0.412235
0.155984 -0.0287019 -0.37962
0.0975205 -0.023118 0.450069
0.105779 -0.0663763 0.328511
-0.0997341 0.15201 -0.360292
-0.0911746 -0.0594803 -0.450069
-0.0211221 0.102377 -0.450069
-0.00894189 0.0606145 0.405061
-0.0166271 -0.15201 0.213514
-0.0472786 -0.15201 0.398009
-0.155984 0.0430108 0.0279164
0.155984 -0.108617 0.158119
-0.00894189 0.0607011 -0.425576
-0.0491652 -0.0152719 -0.450069
-0.00894189 0.0350585 -0.142147
0.155984 -0.101392 0.333414
0.10182 -0.00252821 0.376026
-0.155984 0.0601514 -0.137336
0.155984 -0.15101 -0.336392
0.155605 -0.15201 0.20708
-0.00894189 0.119163 -0.131034
-0.0665055 -0.15201 0.0610329
-0.155984 0.0407401 0.213404
0.155984 -0.0888217 0.384678
-0.155984 -0.0589194 0.421347
-0.00894189 0.00163786 0.267826
-0.081872 0.0156309 -0.450069
0.081328 -0.0798782 0.450069
-0.0743066 0.15201 -0.168726
0.155984 -0.0321822 0.439387
0.155984 -0.101756 -0.118356
-0.00894189 0.0590484 -0.361323
-0.155984 -0.0412906 -0.24874
0.0722927 -0.15201 0.087267
-0.155984 -0.148033 -0.037221
-0.074061 -0.113863 -0.450069
-0.0590526 0.15201 -0.0478806
0.0924306 -0.15201 0.234657
0.155984 -0.135221 0.1827
-0.0297632 -0.0525094 0.450069
-0.00894189 0.126925 -0.25719
0.0377855 -0.0663763 0.223554
0.0865362 -0.0663763 0.0865746
-0.01831 -0.0209608 0.450069
-0.155984 0.129469 0.109454
0.0733994 -0.104664 0.450069
0.00386275 -0.0663763 -0.270902
-0.155984 0.139263 -0.31804
-0.00894189 0.0760166 0.26207
0.00509646 -0.151277 0.450069
-0.155984 -0.0252954 0.0436476
-0.155984 -0.0125866 0.406631
-0.00894189 0.0769861 0.200784
-0.00894189 -0.000578047 -0.151934
0.116059 -0.15201 0.375176
-0.00894189 0.0881641 -0.0116025
0.0386954 -0.15201 -0.0524829
-0.0988286 -0.111021 -0.450069
0.0190932 0.0349638 0.386885
-0.155984 -0.0252659 -0.394306
-0.155984 0.116221 -0.395833
-0.155984 0.0113186 0.161973
-0.128508 0.119526 0.450069
-0.0727915 -0.15201 -0.243661
0.0465334 -0.15201 0.060526
-0.00894189 -0.0215409 0.198803
-0.00894189 0.117267 -0.0971155
0.143653 -0.0663763 0.0610894
-0.0174006 0.0300098 -0.450069
0.101301 -0.0265391 0.376026
0.1086 -0.15201 -0.385787
0.111228 -0.15201 -0.210956
-0.00894189 -0.0244401 -0.150028
-0.155984 -0.0895282 0.0490746
0.0543862 -0.0663763 -0.166455
-0.146085 -0.075137 0.450069
-0.0566045 -0.10476 0.450069
-0.00894189 0.0296044 -0.311076
-0.0324761 0.15201 0.137405
-0.119043 0.15201 -0.171601
-0.00894189 0.0440192 0.14403
-0.00894189 -0.052525 0.249225
-0.155984 -0.069413 -0.312246
-0.0297554 0.15201 0.399079
-0.14461 -0.15201 -0.0992252
-0.111573 0.15201 -0.190135
-0.139395 0.15201 0.169559
-0.00894189 0.0506553 -0.380815
0.155984 -0.0518841 -0.362503
-0.132679 -0.15201 0.0626357
0.123511 -0.15201 0.429614
0.0992275 -0.0637882 0.450069
-0.139628 -0.15201 -0.310178
0.0171468 -0.0663763 0.176619
0.0733575 -0.0663763 -0.296796
-0.00894189 0.0422745 0.403027
-0.155984 0.138821 -0.418732
0.108674 0.025296 0.376026
0.0958361 -0.15201 -0.101649
-0.0349952 0.15201 0.219875
0.155984 -0.074094 0.217869
-0.155984 -0.0967552 0.291587
0.129916 -0.0490605 0.376026
-0.155984 0.108864 0.140305
-0.00422252 -0.0663763 -0.239332
0.155984 -0.0158974 0.422869
0.138677 -0.15201 -0.0137768
-0.0869562 -0.15201 0.385369
-0.121838 -0.0170064 0.450069
-0.094286 -0.15201 0.108377
-0.155984 0.0444688 -0.435632
-0.154267 -0.15201 -0.070446
0.155984 -0.149261 0.234236
0.155984 -0.107235 -0.0876976
-0.0917871 -0.15201 0.131766
0.0609139 -0.15201 0.0942433
-0.155984 0.131129 0.253094
0.08987 -0.0663763 -0.0400974
0.155984 -0.129595 0.433254
0.155984 0.00377845 0.405186
0.0646788 -0.15201 0.413221
0.141186 -0.15201 -0.220866
0.0422203 -0.15201 0.26686
-0.155984 -0.102104 -0.324621
-0.155984 0.0469014 -0.272858
-0.0853831 0.15201 -0.309784
-0.0455421 0.15201 0.234307
0.0303012 -0.15201 -0.00735133
-0.0844163 -0.15201 -0.0413217
-0.0284807 0.15201 0.366122
-0.155984 -0.0583344 0.181679
-0.155984 -0.119967 0.184521
0.155984 -0.137734 -0.286529
0.155984 -0.071768 -0.404953
-0.126161 0.0316653 0.450069
-0.00894189 -0.0602191 0.310947
-0.155984 -0.131527 -0.262721
0.0441321 -0.0663763 0.296099
0.0703014 -0.0663763 -0.118809
-0.155984 0.10471 0.400595
-0.114136 -0.027264 -0.450069
-0.123544 0.0147713 -0.450069
-0.0625637 0.12676 -0.450069
-0.144082 0.0415769 0.450069
0.132579 -0.0663763 0.0588486
0.0123929 -0.15201 -0.107373
-0.00894189 -0.0541625 0.0265797
0.0711537 0.0349638 0.376546
-0.155984 0.0357968 -0.295605
-0.00894189 -0.0199522 0.25824
-0.155984 0.122012 -0.249047
-0.00894189 0.0335808 0.260065
0.133741 -0.0663763 -0.283797
-0.070495 0.15201 0.0495976
-0.155984 0.0971169 0.29387
-0.108947 -0.15201 0.444979
0.155984 -0.0762713 0.40985
0.00324484 -0.15201 0.189037
-0.116928 -0.15201 -0.113954
0.155984 -0.0812606 -0.146404
-0.0576098 -0.15201 -0.256543
0.0679114 -0.15201 0.0916968
0.0767108 -0.15201 0.187509
-0.105911 -0.0964334 -0.450069
-0.155984 0.00259495 0.411683
-0.00894189 -0.0216426 -0.236671
-0.00894189 0.0312036 0.00441805
0.142314 -0.0663763 -0.0413146
-0.00894189 -0.052752 0.0186435
-0.155984 0.030943 -0.0865989
-0.0402319 0.15201 -0.244686
0.105213 -0.15201 -0.406689
0.0813708 0.0349638 -0.363929
-0.00894189 0.144447 -0.152041
-0.155984 0.106727 0.328532
-0.155984 -0.0221914 0.187534
-0.00894189 0.112999 0.299816
-0.0288988 0.15201 -0.303
0.113453 -0.0663763 0.347434
0.155984 -0.112858 0.411242
0.0570862 -0.0395589 0.450069
0.155984 -0.0807191 0.246268
-0.155984 0.0111858 -0.194159
-0.0506825 0.15201 -0.414076
-0.123848 0.0158214 0.450069
-0.155984 -0.105241 -0.367922
-0.00894189 0.0481561 0.282354
0.0972602 -0.15201 -0.218208
-0.00636823 -0.15201 -0.107526
-0.0652008 0.15201 -0.183172
-0.0955694 0.15201 -0.246135
0.0291284 -0.15201 0.146334
0.15354 -0.15201 -0.348774
0.00302333 -0.0663763 -0.155101
-0.1027 0.0501574 0.450069
0.0425281 -0.0663763 0.231091
-0.129312 -0.0325305 0.450069
0.010415 -0.0663763 0.0394312
-0.0515939 -0.15201 0.245093
-0.0336384 0.15201 0.131871
-0.00894189 0.140972 -0.133018
-0.155984 0.0337984 -0.258562
0.102111 -0.15201 -0.141619
0.155984 -0.150123 -0.160925
0.0653373 -0.0663763 0.246096
-0.00894189 0.0865299 -0.384531
0.0860651 -0.15201 -0.114447
-0.155421 -0.133816 -0.450069
-0.155984 -0.0971044 -0.251737
0.0560427 0.0349638 -0.419893
0.142749 -0.15201 0.425017
0.00959827 0.0185231 -0.349251
0.155984 -0.136221 0.231123
0.0569487 -0.0663763 0.107738
0.00975922 -0.014078 -0.349251
0.155984 -0.139121 0.367621
-0.155984 -0.0698359 -0.348253
0.0441752 0.0349638 0.434962
0.116553 -0.0659836 -0.450069
0.0644028 -0.15201 0.315026
0.013926 -0.15201 -0.244517
-0.00894189 0.0181688 -0.170371
0.116207 -0.15201 0.0143923
-0.0966183 0.15201 -0.379508
-0.155984 -0.0724114 0.39839
0.0680382 -0.15201 -0.282157
-0.155984 -0.0256353 0.0674172
-0.0907472 0.102792 -0.450069
-0.0976769 -0.15201 -0.191542
0.135088 -0.103789 -0.450069
-0.155984 -0.110709 -0.0264006
-0.115699 0.15201 -0.0965165
0.135065 -0.15201 -0.32603
0.00631976 -0.15201 -0.119785
0.0141908 -0.0663763 -0.254532
0.0720447 -0.0663763 0.21338
-0.155984 0.114785 0.228577
-0.108146 0.15201 -0.155071
0.104557 -0.0663763 -0.181884
-0.00894189 -0.0137932 0.104087
-0.155984 -0.0648208 -0.409494
-0.0687422 0.15201 -0.0473704
-0.0381924 -0.0218355 -0.450069
-0.155984 0.0724849 0.0973138
-0.00894189 0.0136786 0.0370395
-0.101109 0.11105 0.450069
-0.132293 -0.15201 0.216959
-0.155984 0.111336 0.223198
-0.155984 -0.0326322 0.370657
-0.0556594 0.15201 -0.404471
-0.0611327 0.15201 0.337517
-0.00894189 0.00507907 -0.117989
-0.00894189 -0.0577471 -0.145041
-0.148417 0.15201 -0.178479
-0.0531637 0.15201 -0.159475
-0.00894189 0.113749 -0.0574038
-0.00894189 -0.0122802 -0.268551
0.155984 -0.114157 0.154535
0.0677691 -0.0663763 -0.0483757
-0.00894189 -0.0330169 0.210688
0.0523011 -0.0663763 -0.00393409
-0.155984 0.0458262 0.401061
-0.118098 0.15201 -0.157168
0.0457767 -0.137892 0.450069
0.137215 0.0349638 -0.36415
-0.00894189 0.0689461 -0.0239126
-0.14563 -0.15201 0.423209
0.000822324 -0.15201 -0.151207
-0.143917 0.0872039 -0.450069
0.155984 -0.102564 -0.190119
0.0277094 -0.0663763 -0.216763
0.030625 -0.15201 -0.34296
-0.155984 -0.0243142 0.0572605
0.0930497 -0.0663763 0.23192
0.0919465 -0.15201 0.325067
-0.155984 -0.0950901 -0.367479
-0.00894189 -0.0404663 0.284696
0.102939 -0.15201 -0.277116
0.111905 -0.131732 -0.450069
-0.00894189 0.019983 0.112503
0.0752934 -0.0663763 0.0280057
-0.155984 0.0539697 -0.15853
-0.00894189 0.0683387 0.435434
-0.00894189 -0.0175014 -0.178764
-0.155984 0.138084 -0.243128
0.152099 -0.15201 -0.055559
0.00628908 -0.0663763 0.0426589
-0.155984 0.12503 0.105253
0.155984 -0.113762 0.444911
0.113968 -0.0663763 -0.265228
-0.00894189 0.138083 0.156012
-0.00894189 0.101302 -0.35078
-0.155984 -0.0251223 -0.254472
0.155984 -0.131051 -0.406443
0.0325701 -0.15201 0.28639
-0.147335 -0.15201 0.39989
-0.13235 -0.15201 0.104411
-0.155984 0.125487 -0.17538
0.0308484 -0.15201 0.32761
0.0432367 -0.0162439 0.450069
-0.155984 -0.102623 0.116486
-0.00894189 0.120302 -0.419328
0.155984 -0.0817558 0.0361605
-0.155984 -0.0851854 0.268179
0.155984 -0.0741813 -0.270447
-0.00894189 -0.0534736 -0.158327
-0.116757 -0.15201 -0.257817
0.112167 -0.0663763 -0.126384
0.00577927 -0.15201 -0.34924
0.119754 -0.00315918 -0.450069
-0.155984 0.0811443 -0.332376
-0.00894189 0.0925607 -0.111176
-0.00894189 0.102086 0.145153
-0.00765958 -0.15201 -0.157657
-0.155984 0.112758 -0.247656
-0.103224 0.15201 0.120759
-0.0337634 0.15201 0.390852
0.155984 -0.077242 0.322646
-0.155984 -0.0217763 -0.130776
-0.00894189 -0.024138 0.054314
-0.00894189 -0.00811257 -0.078241
-0.155984 -0.0348468 0.0276395
-0.0175166 0.0981659 0.450069
0.155984 -0.0947752 -0.0502039
-0.155984 -0.0284183 -0.164619
0.021873 -0.15201 0.431258
-0.0920825 -0.15201 0.44418
0.155984 -0.115644 -0.025314
-0.155984 0.00146144 -0.175491
-0.00894189 0.0728604 0.101764
-0.00894189 -0.00771252 0.0888815
-0.121773 0.15201 -0.0711675
-0.0594455 0.15201 -0.15779
-0.00894189 0.0183982 0.147587
-0.0660413 0.15201 -0.0817231
-0.0909718 0.15201 0.241404
0.155984 -0.0766731 -0.324217
0.155984 -0.0810726 -0.154817
-0.155984 0.00502846 -0.390983
0.0751002 -0.0663763 0.0972525
0.0665881 -0.0663763 0.0697288
-0.0440936 0.0663697 -0.450069
-0.0127868 -0.15201 0.0604176
0.146052 -0.15201 -0.181361
-0.00894189 0.0775647 -0.430276
-0.155984 0.054254 -0.127108
-0.0275956 0.15201 0.292945
0.0113354 -0.0981144 -0.450069
-0.100276 0.15201 0.294719
0.027355 -0.0663763 0.207323
-0.00894189 0.00906533 0.125191
-0.0510568 -0.15201 -0.0516462
-0.155984 -0.134206 0.376707
-0.0841519 -0.132402 -0.450069
-0.00894189 0.0965174 -0.0677323
0.0653163 -0.15201 0.316182
0.120954 -0.124366 0.450069
0.136127 -0.0663763 -0.080477
-0.126412 0.088066 -0.450069
-0.117615 0.15201 -0.233302
0.101215 -0.0663763 -0.288141
-0.155984 -0.0118061 -0.259801
-0.00894189 0.0632639 -0.0025846
-0.155984 0.0641178 -0.0106288
-0.00894189 0.101729 -0.214295
-0.00894189 -0.0283584 0.00741899
-0.155984 -0.0768141 -0.0490807
-0.155984 0.132295 0.05339
-0.00894189 0.0697631 -0.342682
-0.0316489 -0.15201 -0.389681
-0.155984 -0.0191582 0.195258
-0.155984 -0.11473 -0.0425153
-0.00894189 0.0568908 -0.120688
0.155984 -0.0912561 -0.170737
-0.0880078 0.0792502 -0.450069
0.1463 -0.15201 0.0642929
-0.155984 0.0711119 -0.424199
0.155984 -0.115896 -0.328028
-0.155984 -0.128385 0.000847593
0.00146067 -0.15201 0.0893802
-0.00894189 -0.0654204 0.295266
-0.127338 0.15201 -0.0913538
0.0849297 -0.15201 0.124968
-0.00894189 0.0431307 0.290477
-0.0737102 -0.15201 -0.449382
0.118932 0.0259526 -0.450069
-0.0846214 0.15201 -0.240146
0.0378679 -0.0663763 0.018764
0.155984 -0.097229 -0.0512976
-0.155984 -0.103103 0.191946
-0.0304081 0.0682573 -0.450069
-0.155984 0.114852 0.348973
-0.00894189 -0.00189052 -0.327795
0.0729492 -0.15201 -0.408314
0.0340651 -0.15201 0.0729938
0.137874 -0.15201 -0.121218
-0.0635012 -0.15201 0.118701
-0.00950001 -0.15201 -0.369971
0.0284849 -0.0663763 -0.268042
0.0578259 0.0125815 0.376026
-0.155984 -0.05727 0.441967
-0.145853 -0.15201 -0.048859
0.0083371 -0.15201 -0.118869
0.11448 -0.15201 0.318425
-0.0206604 -0.15201 -0.188574
0.128327 -0.15201 -0.421902
-0.00634444 -0.15201 0.35317
-0.00894189 0.084526 0.090341
-0.155984 -0.069811 0.323612
0.155984 -0.0147618 0.439717
-0.0964159 -0.15201 -0.0740376
0.00593166 -0.15201 -0.055871
-0.155984 -0.0831467 0.21869
0.139072 -0.0663763 -0.28004
-0.141824 -0.0803173 -0.450069
-0.155984 -0.0876708 -0.248109
-0.155984 -0.0302215 0.039599
-0.00894189 0.0581169 -0.247546
0.138581 -0.15201 -0.146367
-0.155984 0.146494 -0.0944786
-0.103386 -0.15201 0.0554038
-0.0840529 0.15201 -0.115553
0.0185388 -0.0663763 -0.173877
0.0468734 -0.0964587 -0.450069
0.155984 -0.11802 0.258671
-0.0690888 -0.15201 -0.385158
-0.155984 -0.0656373 0.372055
-0.0363757 0.15201 0.0770833
0.0221549 -0.0663763 -0.134137
-0.155984 -0.0509422 0.205576
-0.150088 0.135907 -0.450069
-0.00894189 -0.00817817 -0.262297
-0.155984 0.0247771 -0.0428016
0.00143756 -0.0663763 0.218947
-0.155984 -0.0825135 -0.418619
-0.00894189 0.139209 -0.174388
0.110622 -0.0663763 0.122482
-0.00894189 0.141323 0.314931
0.155984 -0.100076 0.209643
-0.146321 0.15201 -0.0259192
0.0714552 -0.15201 0.029463
0.00336818 -0.15201 0.227959
-0.0431774 0.15201 0.346362
-0.0575726 0.15201 -0.349521
-0.155984 -0.101247 0.220807
-0.114881 -0.115108 0.450069
-0.00894189 0.131378 -0.102823
-0.155984 0.041558 0.112478
-0.155984 -0.064441 0.0596028
-0.124421 0.0857608 -0.450069
-0.155984 0.0740905 -0.39132
-0.00894189 -0.0475546 0.154081
-0.155984 -0.111722 -0.370245
0.0236234 -0.15201 -0.099735
-0.155984 0.0195407 0.236698
0.0326752 -0.15201 0.0124613
-0.00894189 0.0166512 0.169368
0.155984 -0.107551 -0.215321
0.155984 -0.0984863 0.0447939
-0.00894189 0.0917294 0.0389934
-0.00894189 -0.0440865 0.360031
-0.150881 -0.15201 0.406423
0.0663233 -0.0798999 -0.450069
0.0594114 -0.15201 0.449205
-0.0773487 -0.0300184 -0.450069
-0.0389621 -0.15201 0.417156
-0.0837008 0.15201 0.300298
0.116329 -0.15201 0.160762
-0.00894189 0.107297 0.143563
-0.0453201 -0.15201 -0.32816
-0.155984 -0.0792569 -0.399643
0.0663568 -0.0663763 0.222526
-0.00894189 0.0840551 0.21811
-0.00894189 0.00582661 -0.231152
-0.00894189 0.0175198 -0.028133
0.107262 -0.15201 -0.301465
0.00697385 -0.15201 -0.124004
-0.155984 0.112914 0.105564
-0.108286 -0.15201 -0.0761345
-0.00894189 0.0164261 -0.0601977
-0.019216 -0.0392391 0.450069
-0.151533 -0.15201 0.095439
-0.155984 0.0920475 0.0531547
-0.00894189 -0.0579667 0.0520458
0.135494 -0.0663763 -0.0443299
0.0949093 -0.15201 -0.211454
-0.155984 0.150671 -0.101153
-0.126739 0.15201 -0.0014293
-0.0212393 -0.15201 0.332214
-0.0938744 0.15201 -0.083153
-0.149743 -0.15201 -0.0168185
-0.155984 -0.129398 0.112348
-0.155984 0.0499983 -0.294739
-0.0708892 0.15201 0.265126
-0.155984 -0.144678 0.33643
-0.0445374 0.15201 -0.228433
0.146643 -0.15201 -0.0081668
-0.0121223 -0.15201 0.239541
-0.00894189 0.121235 -0.353334
-0.155984 -0.0806343 -0.436028
0.155984 -0.15135 -0.144877
0.155984 -0.140269 0.0425773
0.040529 -0.15201 0.00335607
-0.131631 0.15201 -0.00834471
-0.101142 0.15201 -0.0419572
-0.155984 -0.149142 -0.0333474
-0.0593912 0.0448935 0.450069
0.0942874 -0.0663763 -0.289191
-0.0276248 -0.15201 -0.218605
-0.00894189 0.108255 0.421435
-0.00894189 0.0132646 0.0954349
-0.136611 -0.15201 -0.0159201
0.114984 -0.15201 -0.346015
-0.155984 0.0862424 0.182551
-0.155984 -0.10534 0.210024
0.0115056 -0.15201 -0.186989
-0.0144454 -0.15201 0.032172
-0.0662373 -0.0558163 0.450069
-0.155984 -0.00337235 -0.342309
-0.155984 0.0181855 0.0418792
0.0780224 -0.0663763 -0.30202
0.0258209 -0.15201 0.330541
0.127777 -0.15201 0.226694
-0.00894189 0.122089 -0.419329
-0.139907 -0.15201 0.251768
-0.00894189 0.0764045 -0.299114
-0.0389028 -0.15201 0.240469
0.0685914 -0.15201 -0.162592
0.019844 -0.0663763 0.204708
0.0369103 -0.15201 0.296243
-0.0781748 0.15201 0.0317077
0.0353076 -0.120292 -0.450069
-0.00894189 0.0585002 0.329654
-0.155984 -0.0714959 0.125337
-0.155984 -0.0445256 -0.239655
-0.155984 0.0892606 0.145419
0.0915221 -0.0609782 0.376026
0.155984 -0.15003 -0.320865
-0.155984 -0.118065 0.385935
0.0202144 -0.0246701 -0.450069
0.125936 -0.0139985 0.376026
0.045888 -0.0663763 0.109609
-0.155984 0.023792 0.272858
-0.0132607 0.15201 -0.281529
0.0303805 -0.15201 0.0582737
-0.00894189 -0.05177 0.0109994
-0.0418138 -0.15201 0.173623
-0.00894189 0.0558602 -0.290538
0.0858585 -0.0197892 -0.450069
-0.0136591 0.15201 -0.415911
-0.10229 0.15201 0.293063
-0.00894189 0.0644515 0.306674
0.0451864 0.0349638 -0.423365
-0.155984 0.0742768 0.104164
0.106449 -0.0663763 0.153008
0.0393677 -0.0160253 -0.450069
0.0765098 -0.15201 0.18672
-0.0444056 -0.0566998 0.450069
0.060646 -0.0663763 -0.0354107
0.0831697 0.0338843 0.376026
0.0393016 0.0349638 0.420031
0.0519215 -0.15201 -0.00547999
-0.155984 0.0910849 0.373673
-0.135221 0.15201 -0.0897999
0.0521718 -0.0663763 1.2517e-06
-0.0732615 -0.130324 0.450069
-0.00894189 0.119157 -0.13761
-0.0872127 -0.15201 0.11193
-0.155984 0.134969 0.392423
-0.155984 0.0758678 -0.18396
0.155984 -0.100087 -0.299649
0.155984 -0.116869 0.0575166
-0.00894189 0.108506 0.0603585
-0.155984 -0.0279663 0.122208
0.00757757 -0.0663763 0.0269091
0.113569 -0.15201 -0.0752257
-0.155984 -0.138606 0.43437
-0.0076608 -0.0663763 0.10661
-0.0122519 -0.15201 0.177078
-0.155984 -0.0601922 -0.15638
-0.0656032 0.15201 -0.373301
-0.155984 0.0113682 -0.130257
-0.0521674 0.15201 0.25551
-0.0403473 0.0650762 -0.450069
0.155984 0.0323316 -0.418554
0.010328 0.0349638 0.441322
-0.118514 -0.15201 -0.0102253
-0.0218298 -0.15201 0.229116
0.155984 -0.141393 0.343205
0.0612757 -0.0387328 -0.450069
-0.117296 0.15201 -0.298976
-0.0765756 -0.110348 0.450069
-0.0191211 0.15201 0.261388
-0.155984 -0.0884023 -0.417686
-0.0948902 0.15201 0.22012
-0.0340736 -0.0347126 0.450069
0.155984 -0.0942808 -0.0855
-0.155984 0.0805686 0.0842954
-0.155984 -0.0973456 0.166951
-0.0951088 -0.00190128 0.450069
-0.0239652 0.15201 -0.0441285
0.155984 -0.151336 -0.392734
-0.00894189 0.136869 0.37935
-0.0643916 -0.15201 -0.400049
-0.155984 -0.047517 -0.0421857
0.155984 -0.0741381 -0.220743
-0.00894189 0.0822265 0.031161
0.135973 0.0349638 0.38758
-0.0761556 -0.15201 -0.250965
-0.00894189 0.116031 -0.399748
0.127932 -0.0514962 -0.450069
-0.129418 -0.15201 -0.245997
-0.155984 -0.111105 -0.430055
-0.00894189 0.028409 0.245416
0.0846644 -0.0663763 0.357173
-0.0145214 0.033884 0.450069
0.0899461 0.0349638 -0.385584
-0.00894189 0.00417972 -0.0252275
-0.00894189 0.117594 0.351497
0.0376958 0.0349638 -0.360147
-0.00894189 0.135589 0.253422
0.155984 -0.104882 0.223813
0.0148967 -0.0291214 0.376026
0.115184 -0.15201 0.254632
-0.155984 0.144137 0.102132
0.155984 -0.0768123 0.3651
0.0160701 -0.114836 0.450069
0.14128 -0.15201 0.118326
-0.0277917 -0.15201 0.0022582
-0.155984 0.0269656 0.0405581
0.0157702 -0.0663763 -0.0149271
-0.0455625 -0.15201 -0.447891
0.155984 -0.138271 0.0965976
0.0400058 -0.0663763 -0.126805
-0.0300604 0.0015855 -0.450069
0.145675 -0.15201 -0.298146
0.097679 -0.0463436 -0.349251
-0.134267 0.15201 0.0414113
0.0164306 -0.0663763 0.117744
-0.0549393 0.15201 -0.201881
-0.155984 0.0415123 -0.178519
-0.00894189 -0.0414969 -0.127922
-0.00894189 0.00131823 0.307476
-0.155984 0.0362252 0.448442
-0.155984 0.135302 -0.0882534
-0.00894189 0.139879 0.0732187
0.0850827 -0.15201 0.191804
-0.155984 0.0391904 -0.23069
0.0621504 -0.15201 0.0889419
0.12909 -0.0663763 0.309103
0.130969 -0.0115748 -0.349251
0.103097 -0.00756243 -0.450069
0.104965 -0.15201 0.000358075
0.155984 -0.134893 0.275541
-0.150556 0.15201 -0.066113
-0.0937099 -0.0310773 -0.450069
0.00177369 0.0251974 0.376026
0.111401 -0.0663763 0.278954
-0.0997777 -0.15201 0.44833
-0.0814395 -0.15201 -0.354896
0.00712793 -0.0663763 0.239182
0.155984 -0.0866336 0.350222
0.104028 -0.0663763 0.0274202
0.0427256 -0.15201 0.421029
0.0611755 -0.0663763 -0.273307
-0.155984 -0.0390597 0.264749
0.00977269 -0.0663763 -0.102406
0.152989 -0.0663763 -0.30252
0.117131 -0.0663763 -0.291117
0.117777 -0.0663763 -0.0563251
-0.155984 0.0568883 0.184536
-0.0940073 -0.15201 -0.242054
0.0350656 0.0349638 0.446348
0.145854 -0.15201 0.14613
0.0136835 -0.15201 -0.0487757
-0.0860055 0.15201 -0.0988647
0.0645199 -0.15201 0.374715
-0.155984 0.0868673 -0.252927
-0.00894189 0.108701 0.0504091
0.155984 -0.0524148 -0.352664
-0.148981 0.15201 -0.0159199
-0.0728564 0.15201 -0.23105
0.129395 -0.10362 -0.450069
-0.155984 0.0186543 0.126882
0.149739 -0.0663763 0.142634
0.0332898 0.0349638 -0.421923
0.132626 -0.15201 0.169972
0.0743843 -0.0663763 -0.159558
-0.155984 -0.151597 0.190271
-0.025691 -0.15201 -0.289152
0.103024 0.0349638 -0.397821
0.038632 -0.0663763 -0.109228
0.128275 -0.15201 0.346769
-0.155984 0.0883775 -0.186613
-0.112965 -0.15201 0.0152462
0.109502 -0.0663763 -0.142431
-0.0636487 0.15201 -0.0843157
0.00155184 -0.15201 -0.41662
0.155984 -0.117222 0.364489
0.155984 -0.0898141 0.342939
-0.0205101 0.15201 0.0336946
-0.00894189 -0.0623265 0.0287423
-0.0233808 -0.15201 -0.322353
0.0955709 -0.0663763 0.287754
0.0747758 -0.0314984 0.450069
-0.00704906 -0.0663763 0.0814816
0.0869636 -0.0663763 0.368948
-0.155984 0.00635908 0.108929
0.155984 -0.0899688 0.369386
-0.155984 -0.150415 0.332119
0.155984 0.0237515 -0.387721
-0.150116 0.15201 0.165204
-0.155984 0.0825216 0.286734
-0.00894189 -0.0375167 -0.139947
0.143734 -0.050672 -0.450069
0.125651 -0.15201 -0.21226
-0.0268419 -0.0838057 -0.450069
-0.155984 -0.11022 -0.385784
0.155984 0.0320147 -0.371298
0.114535 -0.00912371 -0.349251
-0.00894189 0.0310424 0.203092
0.144366 -0.0663763 -0.325466
-0.00894189 0.0617803 0.112489
0.0270916 0.0349638 -0.443996
0.0431531 -0.0663763 0.146424
-0.154415 -0.15201 0.272333
-0.155984 -0.126385 0.079888
-0.155984 -0.0919995 -0.109265
-0.00894189 -0.0409682 0.267439
0.0780648 -0.0663763 0.160644
0.108258 -0.15201 0.014178
-0.00894189 0.132672 -0.252136
0.094827 -0.0663763 0.31768
-0.0401323 -0.15201 -0.429879
-0.155984 0.0461561 0.0429493
-0.155984 0.0368131 0.262944
-0.00894189 0.112352 0.164757
-0.155984 0.135967 0.169596
0.12009 0.0349638 0.400463
-0.112638 -0.15201 0.425226
-0.00894189 -0.0495804 -0.0994461
0.0133676 -0.0663763 0.30301
0.155984 -0.150167 0.380752
0.154738 -0.15201 -0.0232305
0.0022819 -0.15201 -0.348987
-0.00835518 -0.0663763 -0.262546
0.036479 -0.0347019 -0.450069
-0.12633 0.0741736 0.450069
-0.155984 -0.100714 0.210274
-0.155984 0.0745837 0.305986
-0.0296138 -0.15201 -0.0920587
-0.0743788 -0.15201 -0.157773
-0.155984 -0.0260048 -0.0496548
0.155984 -0.11253 0.329993
-0.155984 -0.0821213 -0.385781
-0.00894189 0.136503 0.00841448
0.0990373 -0.15201 -0.397783
-0.0425926 -0.0906991 -0.450069
-0.00894189 0.106557 0.159959
-0.118563 0.15201 0.297241
0.0413642 -0.102489 -0.450069
0.155984 -0.0938336 0.274119
-0.155984 0.0667269 0.0848707
-0.155984 0.11082 0.385508
0.155984 -0.0970516 0.0117067
0.0398024 -0.15201 -0.275437
0.155984 -0.0845302 -0.209061
-0.00894189 0.043395 -0.243284
-0.132921 0.15201 0.108374
-0.155984 0.106337 -0.193767
0.141414 -0.0663763 -0.0432765
0.147144 -0.15201 0.374371
-0.0259498 0.15201 -0.163693
0.0450006 0.0323941 0.376026
-0.155984 0.082542 0.232242
-0.00894189 0.0728151 -0.257237
-0.00894189 0.149789 0.357596
-0.00894189 0.128308 0.149033
0.155984 -0.0667815 0.02598
0.0665703 -0.15201 -0.145829
-0.095139 -0.15201 -0.0973755
-0.155984 0.00874462 0.287983
-0.155984 -0.0638273 -0.223443
0.0713106 0.0349638 -0.415325
0.0811303 -0.0882709 0.450069
-0.155984 0.12956 -0.0429319
-0.0230536 0.15201 -0.365134
-0.155984 -0.0174025 0.334967
0.0676292 -0.0663763 0.181909
0.00940679 -0.0663763 -0.106572
-0.00894189 -0.0467381 0.242254
-0.144991 0.15201 0.376653
0.111468 -0.15201 -0.0467609
-0.0352144 -0.15201 -0.392884
0.0749922 -0.0420996 0.376026
0.0135354 -0.15201 0.311682
-0.00894189 -0.0278853 0.0599221
-0.0495655 0.15201 0.144392
-0.155984 0.106174 0.351317
-0.0622702 0.15201 -0.0240535
-0.100709 -0.15201 -0.136701
-0.0217524 -0.15201 0.05716
0.0309642 -0.0663763 0.329568
-0.155984 0.0185484 -0.242685
-0.0734452 -0.15201 -0.414291
0.143996 -0.0663763 -0.0818066
0.0466503 -0.15201 0.385437
-0.0812558 -0.15201 0.386966
0.0810151 0.0349638 0.396221
-0.155984 0.051 -0.0768058
-0.155984 -0.135567 -0.106752
-0.155984 0.117387 0.300347
-0.097258 -0.107405 -0.450069
0.138781 -0.15201 -0.271907
-0.0205671 0.15201 -0.0677763
-0.155984 0.0886114 0.348191
0.0626378 -0.0663763 0.0970099
-0.155984 0.0418608 -0.0144009
-0.00894189 0.104106 -0.37467
-0.00894189 0.0391491 0.0765995
-0.155984 -0.0983825 0.239318
-0.0126807 -0.15201 -0.42165
-0.00894189 0.0411426 -0.356469
0.0596405 0.00568746 -0.450069
0.155984 -0.0818654 -0.415035
-0.137095 -0.15201 -0.131014
0.147232 0.0110852 0.376026
-0.00894189 0.108184 -0.0579156
-0.00696982 -0.15201 -0.33493
0.0899993 0.027845 0.376026
-0.00894189 0.0494679 -0.0114298
0.0577206 -0.0819969 0.450069
-0.155984 -0.0653801 -0.024235
-0.0841503 -0.110107 0.450069
-0.00894189 -0.0221583 -0.0361771
-0.0724775 -0.15201 -0.190288
-0.0921399 -0.0482098 -0.450069
-0.00894189 -0.0107736 -0.00350199
-0.0737056 -0.15201 0.270185
0.136371 -0.0663763 0.284837
-0.00894189 -0.012234 0.271816
0.155984 -0.0884035 0.366188
0.155984 -0.0909024 0.385619
-0.155984 -0.0951278 -0.141321
-0.155984 -0.0949289 -0.152561
0.0144869 -0.15201 0.0437979
0.155984 -0.116161 0.138973
-0.0555466 0.15201 -0.12359
0.0142806 0.0349638 -0.442582
0.0131784 -0.12919 -0.450069
0.155984 -0.0839157 0.32834
0.0761264 -0.15201 0.310582
0.0321566 -0.0663763 -0.270571
-0.0230143 0.15201 0.0204257
-0.131499 -0.15201 -0.353843
-0.155984 -0.122726 0.138236
0.139635 -0.0663763 0.17578
-0.00894189 0.134709 -0.0662082
0.107377 -0.0663763 0.313877
-0.155984 -0.0903362 0.378832
-0.103884 0.15201 -0.423027
-0.155984 0.0442425 0.119155
-0.11007 -0.15201 -0.0472439
0.126651 -0.0176768 0.376026
0.0241096 -0.15201 -0.187433
-0.00894189 -0.0454383 -0.168766
0.0925167 -0.0959307 0.450069
0.0982546 0.0349638 0.38299
-0.0572387 -0.15201 0.362243
0.155984 -0.0849284 -0.0858768
-0.08278 0.0995398 0.450069
-0.154686 0.15201 0.111905
0.108691 0.0315807 -0.450069
0.141414 -0.15201 -0.231636
0.147662 -0.029692 0.450069
-0.0582517 0.15201 -0.377155
-0.155984 -0.0525485 0.110992
-0.155984 0.111982 0.392034
0.070494 -0.15201 -0.407435
0.00242932 -0.0663763 -0.0920059
0.00767844 -0.15201 -0.259539
-0.155984 -0.0485462 -0.211803
0.155984 -0.1157 -0.387226
-0.155984 0.142913 -0.117166
-0.00894189 0.0530757 -0.208757
0.0915849 -0.0663763 0.304077
-0.0374817 0.0572085 0.450069
-0.00474115 -0.0663763 -0.0627946
-0.155984 0.0459299 0.418601
0.155984 -0.116319 0.153941
-0.00894189 0.0179159 -0.0780263
-0.073954 -0.15201 0.0329548
0.0444576 -0.15201 0.266218
-0.155984 -0.0814949 -0.433843
0.148004 -0.15201 0.362922
-0.144591 -0.15201 -0.199675
-0.0542601 0.15201 0.0361651
-0.0986288 0.15201 -0.277472
0.099011 -0.0663763 0.164854
-0.153052 -0.15201 -0.196392
-0.0820409 -0.15201 -0.0546144
-0.152172 -0.0852565 0.450069
0.00851282 -0.15201 -0.144981
0.155984 -0.124596 0.3603
0.155984 -0.0535671 0.41836
-0.00894189 -0.0176786 0.234527
0.155984 -0.151595 0.062401
0.0183595 -0.15201 -0.311563
-0.129984 0.15201 0.3175
0.10669 -0.0147175 -0.349251
-0.100195 -0.15201 0.14639
-0.00894189 0.104586 -0.331131
-0.00894189 0.0712335 0.166935
-0.155984 0.141301 -0.00480211
-0.143865 -0.15201 -0.392331
0.127553 -0.0663763 0.256274
-0.0592307 -0.118274 0.450069
-0.155984 -0.0150626 0.314337
-0.0580275 0.15201 -0.0943509
0.125638 -0.0663763 0.257496
-0.0792446 -0.15201 -0.327811
-0.155984 0.000408377 0.203642
0.0541588 -0.15201 0.367766
0.0703703 -0.0955504 -0.450069
-0.0103654 -0.15201 0.0801433
-0.00894189 -0.0332825 -0.0845963
-0.0943263 0.15201 0.333384
0.0524538 -0.0401735 0.376026
-0.100716 0.1498 -0.450069
0.155984 -0.139142 -0.367526
0.155984 -0.0289796 -0.442882
-0.155984 0.065424 -0.145176
-0.067593 -0.15201 -0.289
-0.00894189 0.0795875 -0.404904
-0.00894189 -0.000602047 -0.126879
-0.155984 -0.0411409 0.101757
-0.155984 0.14641 0.00348009
-0.00894189 -0.00717559 -0.244435
-0.00894189 0.0294988 0.1504
-0.128178 -0.15201 -0.245253
-0.00986849 -0.15201 0.286783
-0.155984 0.0977378 0.0212369
-0.143953 0.15201 -0.398362
-0.00894189 -0.00492613 -0.0462754
0.155984 -0.0816545 0.166176
-0.155984 0.103163 0.154344
0.155984 -0.0405246 -0.449005
0.0538094 -0.0663763 -0.205275
-0.0361087 0.15201 0.0569081
-0.131034 0.15201 -0.193582
-0.119091 -0.15201 0.0593306
-0.155984 -0.10637 0.0495434
-0.065794 0.15201 -0.305944
0.144001 -0.125657 -0.450069
-0.155984 -0.130954 0.205415
-0.00894189 0.0411145 0.0824726
-0.155984 0.0268235 0.348163
-0.155984 -0.0412859 0.269664
-0.00894189 0.0339223 -0.299606
-0.0895433 0.15201 0.232422
-0.00894189 0.083267 -0.108169
-0.150364 0.15201 0.443202
0.115279 -0.15201 0.00777143
0.155984 -0.126359 -0.427715
0.0567423 -0.0663763 0.251146
-0.06056 0.14073 -0.450069
0.155984 -0.145942 -0.29501
-0.155984 -0.00074631 0.0197049
-0.00894189 0.0937949 0.392911
-0.120682 0.15201 0.00128316
0.138599 -0.0663763 -0.314718
0.155984 -0.144277 -0.122403
-0.0459008 -0.15201 0.0872124
-0.155984 0.0967688 0.32894
-0.0672329 0.15201 0.147518
-0.0598118 -0.15201 -0.430563
-0.155984 -0.0290015 -0.449927
-0.0375485 -0.15201 -0.0439704
0.124907 -0.15201 0.0797752
-0.155984 -0.0649656 0.15701
-0.00894189 0.037317 0.257074
-0.155984 -0.148652 0.100576
0.12906 -0.0663763 -0.164316
0.00574965 -0.0663763 -0.0231549
-0.0303599 -0.10495 0.450069
-0.107399 0.129249 0.450069
0.155984 -0.00358932 0.378835
0.155984 -0.000774255 0.408446
0.0627255 -0.15201 -0.0962273
-0.155984 0.0279866 -0.28149
0.155984 0.0042541 0.434729
0.0179683 -0.0663763 0.157457
-0.0271473 0.15201 -0.349709
0.155984 -0.0718585 -0.345699
0.0199958 -0.0663763 0.17025
0.0190978 -0.0967466 0.450069
-0.00894189 -0.0532538 0.0903319
0.083004 -0.0663763 0.121013
-0.155984 0.101788 0.108186
-0.0523499 0.15201 0.157552
-0.155984 0.00859478 -0.306415
-0.056552 0.12677 -0.450069
-0.0774761 -0.0144718 -0.450069
0.155984 -0.141348 -0.0439376
-0.155984 -0.0619412 0.0717924
-0.133086 -0.104583 0.450069
0.155984 -0.118089 0.311131
-0.00894189 -0.0122768 0.120634
-0.0866717 -0.0690769 -0.450069
-0.068592 0.15201 -0.24094
-0.0071995 -0.0683893 -0.450069
0.118486 -0.15201 -0.414783
-0.155984 -0.032695 -0.195797
0.0723923 0.000346642 0.450069
0.0645537 0.0266578 0.376026
0.155984 -0.133023 0.248102
0.0259533 -0.15201 -0.159843
-0.155984 -0.00293201 0.10552
-0.155984 -0.139308 -0.440151
0.143707 -0.0749619 -0.450069
-0.00894189 0.128748 -0.414227
-0.0727158 0.15201 0.266205
-0.155984 -0.043564 0.257312
-0.155984 0.14347 0.198532
-0.00894189 0.130004 -0.257233
0.12014 -0.0478589 -0.450069
-0.0388126 -0.15201 0.197919
-0.155984 -0.117404 0.407571
0.146858 -0.151827 -0.450069
-0.155984 -0.120424 -0.365471
0.149438 -0.0168913 -0.349251
0.155984 0.00969136 -0.377557
-0.155984 0.0554506 -0.373061
-0.124228 0.15201 -0.405934
0.104916 -0.0663763 -0.194706
-0.155984 -0.0355808 -0.0451587
0.0673052 -0.15201 0.130923
0.155984 -0.0261658 0.396116
-0.0357777 0.15201 -0.0927949
0.00644667 -0.0663763 -0.0544544
-0.0958577 0.15201 -0.0695736
-0.155984 0.0591286 0.182173
-0.155984 0.00937641 0.179933
-0.00894189 -0.023843 -0.298789
0.0720259 -0.0601149 -0.450069
-0.00894189 0.0456332 0.000341445
-0.155984 0.0249199 0.412329
0.080799 -0.0354955 0.450069
-0.0908909 -0.15201 0.221767
0.111618 -0.0663763 -0.0993231
0.0381603 -0.00835494 -0.349251
-0.0362434 0.15201 -0.423972
-0.0777703 0.15201 -0.141147
-0.0579012 -0.115752 0.450069
-0.0958604 -0.15201 0.349977
-0.00894189 0.124757 0.429255
0.000286996 -0.15201 0.307647
-0.155984 0.0170438 -0.0710667
-0.0108099 0.15201 0.387851
-0.00894189 0.125399 0.136916
0.144225 0.0349638 -0.431136
0.151324 0.0349638 -0.36779
0.155984 -0.0746897 -0.365321
0.155984 -0.150385 0.329914
-3.09764e-05 -0.0663763 -0.248906
0.155984 0.0304029 0.437931
0.13495 -0.15201 -0.135865
0.0526276 0.000121675 0.450069
-0.155984 -0.0702544 0.406245
0.155984 -0.0892846 -0.0738745
-0.035019 0.108267 0.450069
0.155984 -0.0672873 0.277762
-0.155984 0.05985 0.440808
-0.00894189 0.0158108 0.155362
-0.102744 -0.15201 -0.170008
-0.116694 -0.15201 0.382178
-0.155984 -0.0784375 0.151329
-0.00894189 0.0572927 0.445822
-0.126956 -0.0851734 -0.450069
-0.00469495 -0.0663763 -0.0431008
-0.00894189 0.0968185 -0.178979
0.155984 -0.142163 -0.355218
0.155984 -0.0680639 0.399869
-0.0305989 0.15201 0.446859
-0.0282293 -0.15201 0.204108
0.0712052 -0.134128 0.450069
-0.0890072 -0.15201 0.283881
-0.0710265 0.15201 -0.285801
