ply
format ascii 1.0
comment Created by Open3D
element vertex 985
property double x
property double y
property double z
end_header
0.183743 -0.233676 -0.318896
0.180219 -0.233173 -0.294112
0.14514 -0.233618 -0.294132
0.183751 -0.211185 -0.305
0.183737 -0.206978 -0.329943
0.180219 -0.206776 -0.294112
0.184142 -0.233608 0.312864
0.184132 -0.232675 0.294371
0.184156 -0.23136 0.335253
0.158904 -0.231844 0.294322
0.14514 -0.206134 -0.294132
0.183751 -0.190795 -0.305
0.184291 -0.186465 -0.332624
0.183916 -0.186887 -0.262721
0.185224 -0.185558 -0.285275
0.184156 -0.211095 0.335253
0.184149 -0.210586 0.324032
0.171704 -0.211915 0.294332
0.183863 -0.186984 -0.196154
0.185523 -0.185298 -0.225357
0.183978 -0.18691 -0.130407
0.184993 -0.18588 -0.148632
0.186163 -0.184691 -0.169643
0.19531 -0.1754 -0.333911
0.183924 -0.187011 -0.0593707
0.184957 -0.185962 -0.0783036
0.186147 -0.184753 -0.100125
0.195136 -0.175619 -0.26499
0.152378 -0.205704 0.294317
0.184045 -0.186936 0.0108383
0.185093 -0.18587 -0.00880347
0.18613 -0.184816 -0.0282226
0.195264 -0.175531 -0.199386
0.197736 -0.171345 -0.284344
0.197723 -0.170512 -0.303643
0.184168 -0.186858 0.0833888
0.185584 -0.185417 0.0562578
0.186632 -0.184351 0.0361824
0.195554 -0.17528 -0.134619
0.197777 -0.171215 -0.219582
0.18411 -0.186964 0.161954
0.185194 -0.185861 0.140739
0.186265 -0.184771 0.119773
0.187148 -0.183873 0.102488
0.195214 -0.175672 -0.0552788
0.197819 -0.17108 -0.152672
0.197764 -0.167456 -0.239515
0.184156 -0.19083 0.335253
0.184149 -0.19037 0.324032
0.171704 -0.191571 0.294332
0.184235 -0.186885 0.239694
0.185154 -0.18595 0.221305
0.186245 -0.18484 0.199478
0.187144 -0.183925 0.181488
0.195352 -0.17558 0.0174276
0.196002 -0.174919 0.00442527
0.197863 -0.170941 -0.0835035
0.185114 -0.186041 0.304854
0.186594 -0.184536 0.2746
0.197698 -0.157408 -0.344374
0.197967 -0.171428 0.0818209
0.197955 -0.170647 0.0620789
0.197713 -0.155535 -0.320037
0.195794 -0.175284 0.251337
0.198014 -0.171154 0.15578
0.197791 -0.157475 -0.196558
0.197751 -0.155041 -0.259252
0.198063 -0.170871 0.232307
0.198001 -0.167177 0.13536
0.19784 -0.157453 -0.11988
0.197806 -0.155419 -0.17327
0.197739 -0.151398 -0.278795
0.197727 -0.150661 -0.298149
0.198136 -0.171958 0.348485
0.198125 -0.171265 0.329937
0.198113 -0.170577 0.311538
0.19789 -0.15743 -0.0402465
0.197878 -0.156733 -0.0588946
0.197849 -0.155017 -0.1048
0.198099 -0.166463 0.289653
0.197943 -0.157406 0.0425159
0.197926 -0.15646 0.0167062
0.197904 -0.155178 -0.0182798
0.197828 -0.150797 -0.137831
0.197771 -0.147487 -0.228149
0.197993 -0.157139 0.121852
0.19798 -0.156416 0.101744
0.197951 -0.154757 0.0555381
0.197865 -0.149872 -0.0804432
0.198049 -0.157108 0.211174
0.198036 -0.156371 0.190239
0.198006 -0.154679 0.142146
0.197965 -0.152439 0.078518
0.197786 -0.142453 -0.205223
0.197696 -0.137461 -0.347059
0.198088 -0.155951 0.271576
0.198074 -0.15521 0.250072
0.198016 -0.152077 0.159202
0.197884 -0.14488 -0.0495913
0.197748 -0.13746 -0.264855
0.197711 -0.135464 -0.322756
0.198063 -0.151342 0.232307
0.19794 -0.144829 0.0392727
0.197802 -0.137459 -0.179117
0.198136 -0.151924 0.348485
0.198125 -0.151311 0.329937
0.198113 -0.150704 0.311538
0.19792 -0.140652 0.00710741
0.197912 -0.140232 -0.0056241
0.197853 -0.137157 -0.0987378
0.19784 -0.136459 -0.11988
0.197815 -0.135181 -0.158578
0.197736 -0.131029 -0.284344
0.198099 -0.146685 0.289653
0.197976 -0.140402 0.0950828
0.197894 -0.136233 -0.0339936
0.197874 -0.132191 -0.0650741
0.197828 -0.129894 -0.137831
0.197771 -0.127043 -0.228149
0.198045 -0.137456 0.204174
0.198027 -0.136599 0.176391
0.197993 -0.134917 0.121852
0.198088 -0.136252 0.271576
0.198074 -0.135604 0.250072
0.197967 -0.130537 0.0818209
0.197849 -0.124917 -0.1048
0.197789 -0.122066 -0.199451
0.198063 -0.131814 0.232307
0.198014 -0.129565 0.15578
0.197955 -0.126811 0.0620789
0.195973 -0.117448 -0.264947
0.195092 -0.116585 -0.298387
0.194584 -0.116087 -0.317669
0.194009 -0.115524 -0.339504
0.198136 -0.13189 0.348485
0.198125 -0.131358 0.329937
0.198113 -0.130831 0.311538
0.198001 -0.125781 0.13536
0.197922 -0.122196 0.0103022
0.19791 -0.121649 -0.00879511
0.196024 -0.117433 -0.164348
0.195495 -0.116916 -0.184849
0.198099 -0.126907 0.289653
0.198049 -0.124715 0.211174
0.197976 -0.121471 0.0950828
0.19454 -0.115914 -0.119486
0.190368 -0.111832 -0.284892
0.195734 -0.117012 0.0367023
0.19409 -0.115404 -0.0300069
0.193628 -0.114952 -0.0487312
0.191373 -0.112747 -0.140197
0.193693 -0.114948 0.0667959
0.190402 -0.11173 -0.0699163
0.186799 -0.108207 -0.219562
0.186313 -0.107732 -0.239762
0.195655 -0.116793 0.269378
0.195238 -0.116386 0.251646
0.193843 -0.115023 0.192271
0.184855 -0.106237 -0.190298
0.186491 -0.102437 -0.329596
0.187342 -0.101562 -0.359428
0.19187 -0.113016 0.232052
0.190359 -0.111539 0.166092
0.188904 -0.100034 -0.298948
0.191396 -0.11247 0.341769
0.190904 -0.11199 0.319763
0.190498 -0.111594 0.301568
0.187041 -0.10822 0.146839
0.186586 -0.107775 0.126461
0.18422 -0.105466 0.0205467
0.182511 -0.105199 0.0015198
0.186612 -0.102471 -0.0909554
0.187106 -0.101963 -0.10945
0.186673 -0.10249 0.0394474
0.1613 -0.10472 0.0136259
0.191774 -0.097245 -0.158133
0.194385 -0.094557 -0.259403
0.138576 -0.103946 0.0128388
0.191675 -0.0974315 -0.0199668
0.194603 -0.0944186 -0.137514
0.197739 -0.090839 -0.278795
0.185985 -0.103381 0.360423
0.187887 -0.101421 0.281146
0.188418 -0.100875 0.259044
0.191979 -0.0972086 0.110758
0.192465 -0.0967066 0.09045
0.19413 -0.0949898 0.0209941
0.19475 -0.0943515 -0.00482129
0.197801 -0.0901615 -0.179117
0.193214 -0.0960292 0.210113
0.193624 -0.0956067 0.192377
0.194353 -0.0948555 0.160843
0.197887 -0.0901115 -0.043366
0.197874 -0.0896468 -0.0650739
0.197789 -0.0867701 -0.199451
0.197776 -0.0863391 -0.219582
0.197764 -0.0859123 -0.239515
0.194337 -0.0949699 0.321285
0.194835 -0.0944571 0.29892
0.198005 -0.0908936 0.142146
0.197728 -0.0817873 -0.298148
0.197714 -0.0813346 -0.320037
0.198066 -0.0896452 0.239397
0.197961 -0.0863031 0.0719276
0.197837 -0.0824154 -0.122883
0.197811 -0.0815855 -0.164467
0.197682 -0.0774625 -0.371063
0.197903 -0.08143 -0.0182796
0.197702 -0.0752624 -0.338991
0.197992 -0.0809503 0.121852
0.197979 -0.0805782 0.101745
0.197858 -0.0770372 -0.0896105
0.197786 -0.0748978 -0.205223
0.198137 -0.0818715 0.352214
0.198089 -0.0805019 0.275181
0.198082 -0.08031 0.264386
0.197948 -0.0765388 0.0522754
0.197804 -0.0724767 -0.176195
0.197761 -0.0712502 -0.245174
0.197747 -0.0708506 -0.267651
0.198051 -0.0761844 0.214683
0.198033 -0.0757084 0.186769
0.197889 -0.0718369 -0.0402464
0.197878 -0.0715189 -0.0588945
0.197824 -0.0700713 -0.14378
0.198149 -0.075494 0.370943
0.198123 -0.0748244 0.329938
0.198112 -0.074524 0.311539
0.198007 -0.0718137 0.145547
0.197773 -0.0657585 -0.225298
0.197961 -0.0674733 0.0719276
0.197934 -0.0668125 0.0295723
0.197922 -0.0665118 0.0103024
0.197858 -0.064953 -0.0896105
0.197847 -0.0646687 -0.107825
0.197731 -0.0617852 -0.292638
0.197717 -0.0614427 -0.314588
0.198066 -0.0668264 0.239397
0.198022 -0.0657866 0.1695
0.197969 -0.0645314 0.085129
0.197815 -0.0609058 -0.158578
0.197998 -0.0620465 0.131976
0.197986 -0.0617606 0.111775
0.197909 -0.0600544 -0.00879496
0.197705 -0.0554581 -0.333594
0.197692 -0.0551539 -0.355093
0.198137 -0.0618214 0.352214
0.198098 -0.0609815 0.289654
0.198086 -0.0607388 0.271577
0.197802 -0.0546881 -0.179117
0.198055 -0.0568224 0.221716
0.198042 -0.0565553 0.200682
0.19796 -0.0549201 0.0719276
0.197948 -0.0546706 0.0522754
0.197828 -0.0522563 -0.137831
0.197764 -0.0509649 -0.239515
0.197748 -0.0506431 -0.264855
0.198149 -0.0553622 0.370943
0.198123 -0.0548712 0.329938
0.198112 -0.0546509 0.311539
0.197898 -0.0505886 -0.027722
0.197884 -0.0503268 -0.0495912
0.198073 -0.0506474 0.250072
0.198011 -0.0495483 0.152364
0.19596 -0.0471738 -0.0678124
0.194472 -0.0457691 -0.199366
0.194245 -0.0455533 -0.219576
0.195714 -0.046768 0.180939
0.194122 -0.0452619 0.0306983
0.193916 -0.0450685 0.0113946
0.192493 -0.0437289 -0.122264
0.19211 -0.0433692 -0.158157
0.190825 -0.0421552 -0.279264
0.190618 -0.0419594 -0.298793
0.192149 -0.0432178 0.131005
0.191948 -0.0430283 0.11077
0.165315 -0.0432371 0.00595012
0.15434 -0.0437425 0.00543821
0.190739 -0.0418959 -0.0101947
0.187479 -0.0388296 -0.337681
0.187262 -0.0386258 -0.359441
0.191116 -0.0420484 0.349443
0.190571 -0.0415358 0.290523
0.190403 -0.0413782 0.272405
0.132043 -0.041483 0.00768165
0.187051 -0.038244 -0.0879358
0.184908 -0.0362361 -0.318764
0.186877 -0.037862 0.231121
0.186695 -0.0376913 0.209861
0.185655 -0.0367256 0.0895719
0.108639 -0.0391113 0.0100365
0.179102 -0.0350717 -0.139035
0.174705 -0.0350713 -0.159901
0.170936 -0.0350709 -0.177786
0.166534 -0.0350706 -0.198651
0.162155 -0.0350695 -0.219515
0.157776 -0.0350684 -0.240379
0.15402 -0.0350675 -0.25826
0.149638 -0.0350665 -0.279121
0.145257 -0.0350655 -0.299981
0.141501 -0.0350646 -0.31786
0.13712 -0.0350636 -0.338718
0.184507 -0.0354209 0.33128
0.184331 -0.0352573 0.309037
0.176664 -0.0350634 0.247371
0.173917 -0.0350629 0.23431
0.169797 -0.0350622 0.214719
0.163595 -0.0350621 0.185343
0.159453 -0.0350623 0.165764
0.155298 -0.035063 0.146188
0.151143 -0.0350637 0.126613
0.146988 -0.0350644 0.107036
0.142833 -0.0350651 0.0874583
0.140063 -0.0350655 0.0744063
0.135907 -0.0350662 0.0548275
0.129674 -0.0350673 0.0254579
0.0840439 -0.036619 0.0125112
0.0577117 -0.0375642 0.0115501
0.0440294 -0.0380554 0.0110507
0.0155619 -0.0390773 0.0100117
0.120617 -0.0350707 -0.0169564
0.115114 -0.0350702 -0.0430754
0.110987 -0.0350698 -0.0626641
0.108236 -0.0350695 -0.075723
0.104109 -0.0350691 -0.0953109
0.0979189 -0.0350685 -0.124692
0.0937889 -0.0350682 -0.144278
0.0896576 -0.0350679 -0.163865
0.0855265 -0.0350677 -0.18345
0.0813955 -0.0350675 -0.203036
0.0772644 -0.0350672 -0.222621
0.0745094 -0.0350671 -0.235678
0.0703767 -0.0350669 -0.255263
0.0337913 -0.0362017 -0.279954
-0.10191 -0.0410218 -0.291599
-0.0712057 -0.0398415 -0.300698
-0.0247325 -0.0381588 -0.300892
0.0178359 -0.0366175 -0.30108
0.0572446 -0.0351906 -0.301243
0.0801129 -0.0342816 -0.311939
0.0836132 -0.0340151 -0.330231
0.0821063 -0.033927 -0.348897
0.097982 -0.0350645 0.358037
0.0941833 -0.0350641 0.339992
0.0903312 -0.0350656 0.321978
0.0857084 -0.0350674 0.30036
0.0613599 -0.0358703 0.30123
0.0803412 -0.0350685 0.275121
0.0780858 -0.0350674 0.264282
0.0720726 -0.0350644 0.23538
0.0698127 -0.0350634 0.224545
0.0637144 -0.0350635 0.195687
0.0614277 -0.0350635 0.184864
0.0553296 -0.0350635 0.156006
0.0507559 -0.0350636 0.134362
0.0446576 -0.0350636 0.105503
0.0423708 -0.0350636 0.0946805
0.0362455 -0.0350646 0.0658292
0.0316504 -0.0350654 0.0441898
0.00120723 -0.0358477 0.0132294
-0.0296624 -0.036851 0.0122074
-0.0457569 -0.0373741 0.0116752
-0.0793619 -0.0384663 0.0105651
-0.10196 -0.039209 0.0110056
0.0186623 -0.0350664 -0.0171332
0.0148627 -0.0350661 -0.0351739
0.00878322 -0.0350655 -0.064038
0.00421989 -0.0350651 -0.0856849
-0.0018667 -0.0350648 -0.114547
-0.00414908 -0.0350646 -0.12537
-0.0102355 -0.0350643 -0.154231
-0.012518 -0.0350642 -0.165053
-0.0186043 -0.0350638 -0.193913
-0.018761 -0.0349191 -0.215581
-0.000865579 -0.0342109 -0.233293
0.0187408 -0.0334284 -0.253651
-0.0376087 -0.0349395 -0.30185
0.0368676 -0.0328142 0.301626
0.0206015 -0.0332901 0.301552
0.0367844 -0.0326879 0.28082
0.0233374 -0.0329676 0.26237
0.00709951 -0.0333341 0.244748
-0.0102134 -0.0337315 0.227031
-0.0254071 -0.0340842 0.212121
-0.0481042 -0.0346185 0.191049
-0.0673468 -0.0350652 0.172177
-0.071607 -0.0350653 0.152017
-0.0758671 -0.0350653 0.131858
-0.102348 -0.0357837 0.122632
-0.102387 -0.0356232 0.0965132
-0.102406 -0.0355435 0.0835413
-0.102449 -0.0353589 0.0534982
-0.102541 -0.0349698 -0.00984058
-0.102571 -0.034842 -0.0306447
-0.102602 -0.0347151 -0.0512974
-0.102626 -0.0346142 -0.0677115
-0.102655 -0.034489 -0.0880956
-0.102685 -0.0343646 -0.108333
-0.102714 -0.0342412 -0.128424
-0.102743 -0.0341186 -0.148372
-0.0751756 -0.0332286 -0.161734
-0.0555935 -0.0325551 -0.177912
-0.0382115 -0.0319502 -0.193412
0.0705876 -0.0284132 0.362217
-0.102849 -0.0318284 0.166881
-0.106369 -0.031853 0.154728
0.000352621 -0.0265997 -0.302438
0.0840337 -0.0241887 0.333701
0.0661716 -0.0244424 0.302767
-0.0216273 -0.0240076 -0.204724
0.0356108 -0.0222608 -0.302993
-0.0820456 -0.0187658 0.164226
-0.104711 -0.018631 0.0157809
0.0324428 -0.0155685 -0.270013
0.0239949 -0.0156321 -0.290584
-0.0633545 -0.0169432 -0.303765
-0.0176083 -0.0162337 -0.303832
0.0632856 -0.0149791 -0.303952
0.0833548 -0.0146224 -0.31786
0.0836075 -0.0145477 -0.339484
0.0756879 -0.0146066 -0.358998
0.0318868 -0.0135784 0.304204
0.00707591 -0.0138774 0.304148
0.0149077 -0.0136333 0.245417
-0.000478625 -0.0137722 0.227094
-0.0147486 -0.0139059 0.212029
-0.0305078 -0.014058 0.197139
-0.0484052 -0.0142367 0.182579
-0.10516 -0.0147705 0.123473
-0.105185 -0.0147041 0.0972867
-0.105198 -0.0146711 0.0842817
-0.105227 -0.0145948 0.0541621
-0.105284 -0.0144444 -0.00514586
-0.105305 -0.0143914 -0.0260321
-0.105333 -0.0143179 -0.0550168
-0.107718 -0.0142951 -0.0752407
-0.105373 -0.0142142 -0.0959138
-0.105393 -0.0141629 -0.116141
-0.105413 -0.014112 -0.136223
-0.105432 -0.0140614 -0.15616
-0.105575 -0.0136887 -0.303143
0.0788897 -0.00939053 0.357256
-0.105681 -0.0106437 0.172295
-0.105701 -0.0106035 0.15008
-0.0435717 -0.00946384 -0.182115
-0.0768719 -0.00952747 -0.30477
0.045895 -0.00574807 0.305263
0.0313313 -0.00579961 0.28353
-0.0725745 -0.00584609 -0.165723
-0.00655532 -0.0054504 -0.215645
0.00870526 -0.00535239 -0.233183
0.0229206 -0.00525672 -0.253519
0.00718188 -0.00528153 -0.305293
0.0840284 -0.00185773 0.325557
0.0720146 -0.00187196 0.30779
-0.0731386 -0.00207181 0.16987
-0.106926 -0.0020741 0.0162368
-0.0427756 -0.0018464 -0.305786
0.0364741 0.00170973 -0.306208
0.075624 0.00565783 0.36336
0.0508426 0.00572416 0.306805
0.0349665 0.00580621 0.306807
0.025503 0.00584205 0.294839
0.0243967 0.00581632 0.266038
0.0136237 0.00585011 0.245997
-0.000846505 0.00590443 0.227251
-0.0148728 0.00596035 0.21208
-0.0309914 0.00602754 0.197327
-0.0502678 0.00611181 0.183265
-0.107979 0.00635531 0.133122
-0.107992 0.00632662 0.106789
-0.112724 0.00633821 0.0949996
-0.113536 0.0063047 0.0604633
-0.108024 0.00625604 0.0419841
-0.108043 0.00621443 0.00379066
-0.108057 0.00618245 -0.025566
-0.108067 0.00615982 -0.0463507
-0.121191 0.00619796 -0.0735378
-0.117518 0.00616496 -0.086375
-0.108101 0.00608407 -0.115894
-0.108111 0.00606214 -0.136024
-0.108121 0.00604037 -0.156009
-0.0698756 0.00582778 -0.169694
-0.0223683 0.00554799 -0.201086
-0.00447977 0.00543577 -0.219202
0.0123345 0.00532609 -0.240065
0.0243572 0.00524191 -0.260259
0.0291957 0.00519511 -0.280221
0.0176646 0.00523558 -0.297738
-0.0557292 0.00560499 -0.306792
0.00923657 0.00989963 0.30734
-0.0897306 0.0105044 0.171253
-0.108532 0.01067 0.173268
-0.108542 0.0106215 0.14656
-0.0469868 0.00949348 -0.181992
-0.0166339 0.00900417 -0.307219
0.0699011 0.00814624 -0.369087
0.0588334 0.011695 -0.307534
-0.0686435 0.0185998 0.176976
-0.109707 0.0187257 0.0210529
0.0798185 0.0146761 -0.318215
0.0836071 0.0145477 -0.339484
0.0840284 0.0204349 0.325557
0.0700731 0.0206324 0.308843
-0.0352842 0.0201565 -0.308728
0.0299631 0.0252847 0.309417
0.0234568 0.0253065 0.283239
0.0184418 0.0253311 0.264683
0.00727367 0.0254865 0.24467
-0.00734496 0.0257247 0.225814
-0.0220023 0.0259816 0.210745
-0.0394471 0.0263041 0.19633
-0.110824 0.0278183 0.178535
-0.110824 0.0277336 0.160638
-0.110824 0.026542 -0.0912386
-0.110824 0.0264649 -0.107534
-0.110823 0.0263691 -0.12777
-0.110823 0.0262741 -0.14786
-0.0772071 0.0254013 -0.173213
-0.063404 0.0250714 -0.177606
0.00225067 0.0229791 -0.309088
0.0840492 0.0280439 0.358289
0.0124316 0.0296308 0.30999
-0.0947835 0.0316776 0.177427
-0.111388 0.0316309 0.0902759
-0.111376 0.0308196 -0.0582841
-0.111364 0.0302215 -0.167782
-0.0444448 0.0283736 -0.189535
0.03733 0.0256061 -0.309413
-0.111967 0.0361653 0.138774
-0.111964 0.0360558 0.121101
-0.111953 0.0357314 0.0687177
-0.11195 0.0356246 0.0514656
-0.111943 0.0354128 0.0172689
-0.11194 0.0353341 0.00454977
-0.111935 0.0352035 -0.0165236
0.0740202 0.0275804 -0.368463
0.0840383 0.0354091 0.341871
0.0587136 0.0360236 0.310875
-0.0616794 0.0391108 0.187472
-0.0197297 0.0349758 -0.211974
-0.00643504 0.0344416 -0.226288
0.00659633 0.0338951 -0.243643
0.0174327 0.0334001 -0.263933
0.0215857 0.0331252 -0.284029
0.0789298 0.0391562 0.320288
-0.113038 0.0433362 -0.0414353
0.0596242 0.0350325 -0.310666
0.0802624 0.0342047 -0.321287
0.0836071 0.0339446 -0.339484
0.0168177 0.04517 0.299227
0.016448 0.0450444 0.282466
0.00879717 0.0451661 0.260795
-0.00344682 0.0454856 0.24101
-0.019297 0.0459576 0.22237
-0.0969698 0.0487024 0.182634
-0.121152 0.0494297 0.155056
-0.113661 0.0486324 0.095255
-0.118938 0.0467433 -0.155398
0.0136082 0.0402414 -0.304773
-0.114071 0.0504144 -0.175617
-0.0514243 0.0475576 -0.193074
-0.0185078 0.0459025 -0.219176
0.0757009 0.0509984 0.371637
-0.0356449 0.0546083 0.211967
-0.0552307 0.0553827 0.198061
-0.0837945 0.0566005 0.18679
-0.114764 0.0566331 0.0435197
-0.114749 0.056422 0.0221088
-0.124551 0.0566875 0.0027332
-0.114723 0.056046 -0.0160313
-0.114694 0.0556341 -0.0578175
-0.11468 0.0554304 -0.078481
-0.114666 0.0552282 -0.0989938
-0.114652 0.0550274 -0.119358
-0.114639 0.0548281 -0.139574
-0.0899425 0.0532778 -0.180454
0.0539275 0.0552498 0.313452
-0.0666066 0.0559695 -0.188892
0.0381708 0.0494294 -0.31261
0.0840383 0.0577727 0.341871
0.0773304 0.0578975 0.321183
-0.121189 0.0664732 0.141638
-0.115965 0.0659759 0.122283
-0.115934 0.0655777 0.0871282
-0.115923 0.0654296 0.0740546
-0.00600851 0.0560122 -0.240399
0.00503337 0.0552292 -0.257543
0.012899 0.054581 -0.277767
0.0787832 0.0500475 -0.367742
0.0114609 0.0653004 0.314776
0.0106745 0.0650932 0.293796
-0.00536132 0.0655338 0.254581
-0.106758 0.0705293 0.190579
-0.116588 0.0708592 0.171518
-0.129148 0.0676539 -0.154822
0.00894499 0.0579577 -0.308524
0.0750632 0.054077 -0.318692
0.0836053 0.0533047 -0.34256
0.0840513 0.0654881 0.362411
0.0270172 0.0683253 0.315191
-0.00114596 0.0693893 0.265412
-0.0278372 0.0705502 0.23021
-0.1168 0.0708477 -0.167531
-0.0505062 0.0663826 -0.20428
-0.0508854 0.0758287 0.21372
-0.0856643 0.077811 0.196313
-0.117592 0.0777393 0.0398594
-0.117481 0.0764782 -0.0532651
-0.117466 0.0763094 -0.0657303
-0.117442 0.0760298 -0.0863838
-0.117409 0.0756417 -0.115046
-0.0960422 0.073297 -0.188038
-0.0341469 0.068933 -0.219146
0.00814307 0.0654447 -0.278027
0.0551473 0.0619605 -0.314282
0.075738 0.0737208 0.375786
-0.072129 0.0812237 0.204488
-0.0741255 0.0756692 -0.196306
-0.118941 0.0885526 0.194927
-0.118898 0.0880776 0.1633
-0.118775 0.0867482 0.0747788
-0.118698 0.0859053 0.0186589
-0.119769 0.0857297 0.00181919
-0.118645 0.0853313 -0.0195589
-0.0215539 0.0752277 -0.23711
0.0444466 0.0693997 -0.315287
0.0840334 0.0800088 0.333701
0.00622463 0.0855187 0.317486
0.000630021 0.0855732 0.294489
-0.0145521 0.0862055 0.263029
-0.0326254 0.0871972 0.240852
-0.119393 0.0915081 0.105617
0.00709891 0.075867 -0.295129
0.083592 0.0691235 -0.363972
0.0707611 0.0855671 0.383044
0.0617671 0.0851905 0.317475
0.0301275 0.0876483 0.317785
-0.0487241 0.0923272 0.230249
-0.120018 0.0963237 0.136815
-0.119565 0.0915695 -0.151338
-0.119533 0.0912383 -0.171407
-0.119501 0.0909095 -0.191332
-0.0988739 0.089238 -0.195757
0.00160098 0.0794813 -0.315925
0.0783412 0.0733904 -0.324604
0.0836052 0.0726883 -0.34256
0.0840408 0.0876608 0.345966
-0.0685025 0.0978686 0.220699
-0.0879585 0.0992696 0.210509
-0.120443 0.0990655 0.0448138
-0.120308 0.0976703 -0.0361137
-0.120204 0.0965963 -0.0984113
-0.120169 0.0962434 -0.118874
-0.0596855 0.0896959 -0.215366
-0.0139941 0.0852638 -0.258208
-0.112478 0.105487 0.206197
-0.121216 0.105393 0.159568
0.022337 0.0847704 -0.317362
0.0611987 0.0814983 -0.316901
0.0708844 0.0795337 -0.381223
-0.0180179 0.102899 0.281906
-0.0349877 0.103969 0.259244
-0.0575861 0.105565 0.238299
-0.121857 0.110342 0.19142
-0.121707 0.10883 0.110684
-0.121488 0.106639 -0.006357
-0.121379 0.105537 -0.065208
-0.0791156 0.0991091 -0.211461
-0.0442119 0.0956281 -0.233794
0.0816191 0.098784 0.331006
0.00944054 0.105164 0.320124
-0.00844657 0.10664 0.31199
-0.122242 0.112725 0.0888004
-0.121784 0.10821 -0.143122
-0.12176 0.107974 -0.155239
-0.121721 0.107583 -0.175317
-0.0102105 0.0954014 -0.279032
0.0836071 0.0856698 -0.339484
0.0250669 0.107659 0.320468
-0.0485454 0.11344 0.260854
-0.0780112 0.115771 0.237843
-0.102912 0.117878 0.22525
-0.132078 0.120497 0.218038
-0.130531 0.117367 0.0689732
-0.122719 0.116067 0.0410087
-0.122675 0.115632 0.0194771
-0.111591 0.110043 -0.207263
-0.0391717 0.102361 -0.248253
-0.00474727 0.098076 -0.299405
0.0835956 0.0885356 -0.357875
0.0707963 0.108468 0.387229
0.0637632 0.107775 0.320506
-0.0397588 0.117077 0.27893
-0.0689411 0.119475 0.256394
-0.12376 0.12486 0.25651
-0.12789 0.125011 0.244225
-0.123135 0.118825 -0.0314539
-0.0760348 0.110152 -0.226626
-0.0628451 0.108704 -0.23401
-0.000810742 0.100838 -0.319535
0.0398449 0.0968579 -0.318975
0.0840433 0.11013 0.350068
-0.0287021 0.120991 0.322223
-0.0563712 0.123811 0.322582
-0.0755396 0.125765 0.322828
-0.0953318 0.127782 0.323086
-0.115769 0.129865 0.323352
-0.124461 0.130326 0.303698
-0.124418 0.129916 0.284831
-0.12422 0.128006 0.196811
-0.124189 0.12771 0.183149
-0.124086 0.126731 0.138063
-0.124045 0.126344 0.120222
-0.128948 0.126111 0.0861663
-0.123663 0.122689 -0.0481848
-0.129195 0.122282 -0.0933242
-0.032416 0.108738 -0.266003
0.0840109 0.114417 0.374843
-0.124089 0.125604 -0.106232
-0.127956 0.123596 -0.215008
-0.0664415 0.116461 -0.24522
0.0800246 0.117616 0.331918
-0.0131184 0.127523 0.323109
-0.125298 0.135875 0.156392
-0.124557 0.128932 -0.142937
-0.124527 0.12865 -0.155083
-0.124477 0.128183 -0.175209
-0.127236 0.126937 -0.242612
0.0619823 0.104627 -0.320005
0.0115994 0.128808 0.323299
-0.0504938 0.135782 0.324194
-0.126142 0.142674 0.257482
-0.126036 0.141676 0.215787
-0.125633 0.137923 0.0590388
-0.1255 0.136682 0.00719103
-0.125467 0.136375 -0.00562549
-0.125379 0.135563 -0.039523
-0.125325 0.135061 -0.0605049
-0.124798 0.130142 -0.26596
-0.0494428 0.121344 -0.281179
-0.022707 0.117805 -0.304228
-0.0138376 0.116421 -0.320758
0.0175453 0.112898 -0.32114
0.0836071 0.105067 -0.339484
0.0763442 0.104914 -0.380328
0.0840586 0.125665 0.374814
0.0353084 0.130039 0.323477
-0.033204 0.137972 0.324498
-0.120997 0.148136 0.325801
-0.126891 0.148536 0.314274
-0.126814 0.147834 0.285866
-0.126702 0.146794 0.243755
-0.127131 0.138922 -0.0811098
-0.12553 0.135957 -0.195165
-0.125476 0.135466 -0.215021
-0.125289 0.13373 -0.285329
-0.125207 0.132973 -0.316002
-0.0780103 0.127351 -0.323141
-0.0312488 0.121973 -0.322393
0.0835956 0.107852 -0.357875
0.070831 0.131405 0.39142
0.0840458 0.128899 0.354175
-0.0718911 0.146718 0.325642
-0.0915753 0.149065 0.325944
-0.127159 0.149963 0.193292
-0.126947 0.148013 0.116616
-0.12691 0.147674 0.103292
-0.12674 0.146112 0.0419099
0.0571024 0.135155 0.324176
-0.127608 0.153082 0.143632
-0.126879 0.146437 -0.110073
-0.12682 0.1459 -0.130565
0.0406781 0.120464 -0.322142
0.0713734 0.115027 -0.387258
-0.128563 0.160813 0.267825
-0.128411 0.159435 0.216672
-0.127998 0.155676 0.0771204
-0.127934 0.155086 0.0552261
-0.127319 0.149533 -0.150874
-0.127259 0.148989 -0.171077
-0.126942 0.146117 -0.277685
-0.126873 0.145494 -0.30082
-0.0988671 0.141329 -0.325031
-0.0503607 0.135251 -0.324187
0.0754891 0.140564 0.330406
0.0147916 0.148284 0.325914
-0.0108891 0.151613 0.326344
-0.0377502 0.155096 0.326794
-0.126273 0.166573 0.328272
-0.137699 0.167541 0.309629
-0.1283 0.157503 -0.0136335
-0.128196 0.156565 -0.047515
-0.128054 0.155293 -0.0934482
-0.127571 0.150945 -0.250456
0.0679379 0.123717 -0.322563
-0.106765 0.168435 0.328534
-0.129824 0.170334 0.287166
-0.129545 0.167819 0.198712
-0.129444 0.16691 0.166779
-0.129373 0.166268 0.14418
-0.128968 0.162635 0.0164639
-0.128697 0.160221 -0.0684131
-0.128283 0.156504 -0.199096
-0.12822 0.155938 -0.218969
-0.127898 0.153063 -0.32004
-0.0179083 0.138347 -0.324583
0.0840509 0.147816 0.362411
0.0373876 0.153136 0.326578
-0.0878376 0.170241 0.328788
-0.13032 0.173887 0.254514
-0.129874 0.169886 0.117459
-0.12983 0.169496 0.104099
-0.129402 0.165692 -0.0261974
0.0184319 0.137 -0.324374
0.0708655 0.154377 0.395618
-0.0230253 0.16549 0.328195
-0.130828 0.177544 0.226816
-0.140125 0.167609 -0.154203
-0.129445 0.165269 -0.183057
-0.076876 0.1537 -0.326676
0.0522498 0.135756 -0.324188
0.0836014 0.130658 -0.348699
-0.061072 0.175054 0.329451
-0.131596 0.185178 0.330764
-0.131575 0.183311 0.269078
-0.130834 0.176766 0.0559084
-0.130758 0.176097 0.0341232
-0.139051 0.176549 0.00983052
-0.130184 0.171048 -0.130305
-0.129796 0.167599 -0.242659
-0.129674 0.16652 -0.277816
-0.129593 0.165808 -0.301004
-0.129538 0.165336 -0.316353
0.0835879 0.133241 -0.370052
0.0791107 0.158966 0.336538
0.0179694 0.16767 0.328518
0.00105846 0.170156 0.328842
-0.0426689 0.176851 0.338282
-0.139503 0.190169 0.310438
-0.132245 0.188418 0.288212
-0.135231 0.185017 0.164136
-0.139294 0.180173 -0.0116921
-0.13091 0.176683 -0.0848247
-0.130836 0.176031 -0.105569
-0.0428822 0.156302 -0.327008
0.0725484 0.165526 0.394555
-0.0928328 0.188306 0.331209
-0.13256 0.190391 0.208989
-0.132492 0.189798 0.190592
-0.132258 0.187752 0.127095
-0.132126 0.186603 0.0914211
-0.131572 0.181737 -0.0596487
-0.130971 0.176477 -0.222931
-0.0976758 0.16814 -0.328628
-0.00483668 0.154287 -0.326709
0.0699748 0.143114 -0.325498
-0.133388 0.196865 0.269832
-0.133317 0.196246 0.251046
-0.132797 0.191722 0.113833
-0.132222 0.186701 -0.0384627
-0.0557714 0.165593 -0.32826
0.0704927 0.144121 -0.393511
0.0840534 0.170405 0.366539
0.0552807 0.173684 0.329345
-0.1055 0.198997 0.332636
-0.133831 0.199972 0.227958
-0.13244 0.187894 -0.130131
-0.142949 0.18875 -0.154044
-0.132234 0.186112 -0.182967
-0.132187 0.185706 -0.195018
-0.016909 0.163233 -0.32792
-0.020768 0.189756 0.331458
-0.134713 0.206905 0.29877
-0.133817 0.19916 0.0741871
-0.133471 0.196163 -0.0127204
-0.132555 0.188232 -0.242709
0.0193154 0.161028 -0.327599
0.0835974 0.149809 -0.354821
0.0801166 0.177625 0.340058
0.0374736 0.184282 0.330757
0.0127827 0.188341 0.331288
-0.136615 0.212853 0.333115
-0.134958 0.20832 0.209863
-0.134884 0.207671 0.191427
-0.134792 0.206865 0.168542
-0.134717 0.206224 0.150362
-0.133875 0.198982 -0.05512
-0.133012 0.19154 -0.266274
-0.132776 0.189496 -0.32428
-0.050433 0.202936 0.333202
-0.0694546 0.206129 0.333617
-0.0890847 0.209425 0.334045
-0.138309 0.215455 0.271879
-0.135235 0.21002 0.13247
-0.134862 0.206825 0.0437306
-0.134734 0.20573 0.0133062
-0.134361 0.202513 -0.0760633
-0.133483 0.194963 -0.285778
-0.0825762 0.184865 -0.330863
0.0477237 0.163198 -0.327873
0.083586 0.155609 -0.373086
0.0837608 0.18604 0.383305
-0.120207 0.219254 0.339703
-0.140679 0.21915 0.239913
-0.137446 0.213942 0.110675
-0.136883 0.213038 0.0882403
-0.134808 0.205715 -0.105179
0.00201654 0.174303 -0.32939
0.0704338 0.162664 -0.328588
0.0344774 0.196502 0.332396
-0.146095 0.227753 0.327867
-0.145472 0.226749 0.303504
-0.139528 0.217175 0.0711903
-0.136845 0.212861 -0.0334918
-0.135288 0.209197 -0.125796
-0.135143 0.207968 -0.158557
-0.134966 0.206451 -0.19897
-0.134879 0.205702 -0.218957
-0.0964881 0.194859 -0.332214
0.0772035 0.162541 -0.389298
7.15256e-05 0.206547 0.333717
-0.0271446 0.211415 0.334758
-0.0497071 0.215516 0.337362
-0.149452 0.233646 0.348873
-0.146473 0.228239 0.218728
-0.145493 0.226661 0.181274
-0.144888 0.225686 0.158127
-0.138879 0.216019 -0.0713022
-0.138437 0.21531 -0.0881394
-0.135347 0.209114 -0.238807
-0.13526 0.208359 -0.258515
0.0313871 0.176126 -0.329618
-0.0926803 0.227772 0.345159
-0.149186 0.232486 0.201067
-0.147326 0.229493 0.131545
-0.145157 0.226002 0.0504449
-0.144566 0.225051 0.0283532
-0.143514 0.223359 -0.0109468
-0.142477 0.221692 -0.0496605
-0.13902 0.216136 -0.178696
-0.135528 0.210078 -0.320682
-0.0612293 0.196193 -0.332367
0.0835974 0.169139 -0.354821
0.0840458 0.199887 0.354175
0.0631258 0.202929 0.333274
-0.149877 0.233482 0.10964
-0.149381 0.232684 0.0915069
-0.147191 0.229162 0.0114161
-0.139265 0.21642 -0.278278
-0.138733 0.215564 -0.297743
-0.11802 0.210322 -0.334304
-0.0219811 0.192715 -0.331875
-0.146944 0.228655 -0.108174
0.0538536 0.182135 -0.330412
0.0840534 0.207857 0.366539
0.0215863 0.218707 0.339444
-0.031741 0.229173 0.346091
-0.148801 0.231532 -0.149587
-0.143348 0.222773 -0.340607
0.00875187 0.194036 -0.332035
0.0725484 0.214994 0.394555
-0.00554526 0.228177 0.345472
-0.150162 0.233616 -0.206799
-0.149224 0.232109 -0.239014
-0.148643 0.231176 -0.258938
-0.146928 0.228424 -0.31776
-0.0407343 0.207092 -0.333817
0.0704913 0.185527 -0.331716
0.0698476 0.182981 -0.396672
0.0589812 0.219194 0.339779
0.0396075 0.223137 0.342284
0.083586 0.184485 -0.373086
0.0829248 0.218822 0.354845
0.0322366 0.199759 -0.332789
0.0836014 0.188729 -0.348699
0.0708795 0.226615 0.39139
0.0751809 0.228671 0.371954
0.0546517 0.205221 -0.333509
0.0705487 0.208356 -0.33484
0.083586 0.203736 -0.373086
0.0808474 0.203754 -0.385645
0.0835985 0.214242 -0.354821
0.0790187 0.224352 -0.367706
0.0725203 0.224775 -0.39011
