ply
format ascii 1.0
comment Created by Open3D
element vertex 1608
property double x
property double y
property double z
end_header
-0.0699024 -0.172279 -0.347746
0.00489616 -0.186248 0.0758605
0.197889 -0.0532207 0.184976
0.0629364 -0.0349215 0.103705
0.0557843 -0.0349215 -0.185123
-0.168371 -0.00302 -0.328024
0.13933 -0.0349215 -0.0412846
-0.12139 0.105618 0.276976
0.0609867 -0.118733 -0.00226073
-0.0607727 -0.186248 0.0550621
-0.160067 -0.0480532 0.12165
0.0080432 -0.0926129 0.349739
-0.0174714 -0.186248 0.213364
-0.0205683 0.215985 0.33726
-0.112883 0.0175555 0.0720195
0.197081 -0.117925 -0.127689
-0.0867406 -0.0425064 0.125222
0.133128 -0.14768 0.349215
0.192838 -0.113682 -0.153286
-0.171765 0.0153824 -0.0997078
0.171721 -0.195983 -0.335246
0.127892 -0.104765 0.261847
-0.140175 -0.183431 -0.0679181
0.135447 -0.0969237 -0.366369
0.0498424 -0.118733 -0.297464
-0.0477073 -0.0184704 -0.251809
-0.168631 0.0734039 -0.380353
-0.0127637 0.110847 -0.304527
0.00427253 0.0810647 0.31598
0.168709 -0.104765 -0.25863
0.078332 -0.104765 -0.333777
0.00560746 -0.178533 0.342961
0.134527 -0.104765 -0.192152
0.0797761 -0.186248 0.229107
0.00310005 0.217543 0.338255
0.0548211 -0.172279 0.273055
0.0593064 -0.122298 0.349215
-0.0730908 0.0520127 -0.183375
-0.172461 0.0191573 -0.202577
0.061632 -0.172279 -0.240602
0.0810752 -0.104765 -0.0336364
0.0991269 -0.118733 0.0868504
-0.108997 0.160281 0.326623
0.00842816 -0.118733 0.0326472
-0.0446632 0.118035 0.278177
-0.04572 -0.0153288 0.36399
-0.187862 0.102673 0.052974
0.0454068 -0.172279 0.189384
-0.11416 -0.186248 0.0194605
0.107929 -0.0349215 -0.213706
-0.197889 0.177123 -0.0496821
0.0811644 -0.104765 0.254174
-0.132621 0.189202 0.235365
-0.193341 0.132382 0.183887
-0.0343438 0.0314061 -0.299397
0.174417 -0.104765 -0.105613
0.163525 -0.0349215 -0.108893
-0.147531 -0.176074 -0.178492
0.087393 -0.172279 0.134563
-0.0172598 0.0986982 0.318349
0.0633419 -0.104765 0.243676
-0.0457649 0.0775532 -0.30894
0.00496484 -0.104765 0.0470958
0.0962125 -0.118733 0.253753
-0.11431 0.0824415 0.316165
0.100159 -0.0581207 0.372496
-0.115246 0.0598911 0.130168
0.0514297 -0.186248 -0.0449681
0.0809131 -0.186248 -0.174446
-0.00138762 -0.118733 -0.181628
-0.0644937 -0.0334174 0.210512
-0.0553025 -0.118733 -0.262834
-0.0129427 -0.186248 -0.14299
0.0126982 0.0950053 0.384337
0.0810333 -0.0611124 -2.47356e-07
-0.14599 0.226345 -0.275047
0.0212823 -0.036841 -0.261069
0.00455622 0.196572 0.331499
-0.151326 -0.124497 -0.310787
0.0747865 0.136389 0.386941
-0.116458 0.101634 -0.385559
0.0921738 -0.118733 -0.25395
0.0620596 -0.104765 0.0141525
0.148829 -0.110349 -0.340831
0.160881 -0.186248 0.327265
-0.111117 0.23281 -0.364228
-0.187844 0.102572 0.0790769
-0.0510325 0.0954246 -0.31791
0.197889 -0.0835868 0.3362
-0.0926892 -0.0912312 -0.280352
-0.0618864 -0.0313326 0.218628
-0.12247 -0.172279 0.133917
-0.159938 -0.0487496 0.0519777
-0.0546853 0.0271448 -0.308736
0.110404 -0.104765 -0.346902
0.0479833 -0.118733 0.0133737
0.00339763 -0.118733 -0.337017
-0.05921 0.0352735 0.289673
-0.161011 -0.0429335 0.251316
-0.0931244 -0.0595165 -0.072195
-0.0150123 0.109486 -0.296111
-0.197889 0.21994 0.320518
-0.107349 -0.172279 -0.00875056
0.100525 -0.118733 0.0845449
-0.151326 -0.116903 -0.310943
-0.0294451 0.0965163 0.384615
-0.151326 -0.110465 0.339576
0.173079 -0.186248 -0.195311
-0.0995721 -0.172279 -0.25634
-0.197889 0.174651 -0.125737
0.00108167 -0.186248 0.307453
0.0808119 -0.172279 0.0159006
-0.0648508 -0.186248 0.270263
-0.0253627 -0.104765 0.221272
-0.0401974 -0.181765 -0.339729
0.197889 -0.168543 0.299274
-0.0936365 -0.100953 0.242504
0.0779776 -0.104765 0.0268183
-0.151326 -0.118863 0.327557
-0.108205 -0.0660783 -0.354632
-0.0860064 -0.0417722 -0.0349269
0.126391 -0.14194 -0.349215
-0.0561092 -0.0349215 0.0278387
0.0118555 0.212505 0.335037
-0.00384574 0.00387966 0.367532
0.0730358 -0.0939889 -0.299303
-0.1173 0.075173 0.143572
0.0502263 -0.104765 -0.173476
-0.166749 -0.0118188 0.148922
-0.172821 0.021111 0.140251
0.193043 -0.0440443 -0.10758
0.082673 0.219981 -0.37302
-0.0106796 -0.104765 0.240319
-0.175209 0.0340606 -0.134132
-0.127332 0.149838 0.295108
0.164653 -0.0349215 -0.0508329
0.197889 -0.148906 0.0229655
-0.195858 0.146032 0.230981
-0.0478754 -0.104765 -0.075964
0.164686 -0.186248 -0.205926
0.0290596 -0.118733 0.0507357
-0.00937809 -0.118733 0.000574268
0.126644 -0.172279 0.17011
0.068526 0.228111 -0.345007
-0.140041 -0.172279 -0.22206
-0.171374 0.0132623 -0.260678
0.0605545 -0.104765 -0.164155
-0.107258 -0.0118036 -0.234024
-0.0422645 -0.186248 -0.0123138
-0.151326 -0.134265 0.166435
-0.195308 0.143048 -0.174409
-0.158397 -0.0571093 0.0509189
0.104393 -0.0349215 -0.258623
-0.138721 -0.0794398 -0.352168
0.0550734 -0.104765 -0.0676762
0.0507972 -0.172279 0.194382
-0.151326 -0.163658 0.213866
-0.197889 0.202047 -0.202159
-0.0656664 -0.118733 -0.26866
0.025019 0.0179146 0.283222
0.0350953 -0.104765 -0.241356
-0.0507828 -0.118733 0.00306265
-0.0280611 -0.0786522 -0.291013
0.197889 -0.0625862 -0.280219
-0.0688798 -0.0349215 -0.162064
0.13593 -0.0414342 0.36504
0.0206641 -0.104765 0.115245
-0.175498 0.0356261 0.223903
0.0588688 -0.118733 0.26504
-0.00178566 0.0409242 -0.235276
-0.0949694 -0.172279 0.243617
-0.00206319 0.00832775 0.368353
0.116165 -0.104765 -0.103852
-0.190102 0.114821 0.387769
-0.00559049 -0.104765 0.0476884
0.162596 -0.0807946 -0.372496
0.0483592 -0.172279 -0.207541
-0.064636 0.206354 -0.332813
-0.144021 0.0576348 0.377445
0.159097 -0.104765 -0.0371378
0.069843 -0.0781922 0.300535
-0.127818 0.153458 0.258012
0.0814197 -0.0373133 0.296068
-0.113944 0.0766475 -0.380951
-0.116519 0.0239093 -0.371226
0.0460412 -0.104765 -0.0654123
0.0793862 -0.0349215 0.0188886
-0.172706 0.0204856 0.302562
0.0498821 -0.172279 -0.307807
-0.108122 0.23281 0.38281
0.0727294 0.0753161 -0.377771
-0.0783163 -0.0349215 -0.0954033
0.143865 -0.0399269 0.0089632
-0.117895 0.079256 0.00565031
0.00276108 -0.118733 -0.160679
0.197134 -0.117978 -0.274191
-0.0255014 -0.0349215 -0.128233
-0.0412442 0.0534997 -0.202174
-0.00260903 -0.104765 0.261731
-0.0347021 -0.186248 0.267987
0.150873 -0.172279 -0.178866
-0.0506479 0.0453163 -0.296246
-0.0958601 -0.00425516 -0.202433
0.0533298 -0.172279 0.203082
-0.0785041 -0.172279 0.300616
-0.156003 -0.0700921 -0.0833501
0.0230898 -0.104765 -0.111852
0.0420775 -0.104765 -0.0972014
-0.0817862 0.00232917 0.168708
0.194695 -0.11554 -0.243213
0.181107 -0.118733 -0.260336
0.069843 -0.0498294 -0.357283
-0.106305 -0.00666114 0.114102
-0.00165214 -0.104765 -0.235742
0.079123 -0.118733 -0.215242
-0.112414 0.0388125 0.0894796
-0.197889 0.214212 -0.102359
0.129317 -0.104765 -0.272319
-0.18626 0.232798 0.0721781
-0.106065 -0.00844809 0.117954
0.0759088 -0.0349215 -0.139459
-0.168731 0.0814498 0.381837
-0.0751261 -0.0063097 -0.236817
-0.151326 -0.110672 -0.231439
-0.187892 0.102835 0.270382
0.16992 -0.186248 -0.0238409
-0.00576299 -0.104765 -0.0982731
0.13432 -0.125747 -0.349215
-0.0890411 -0.104765 0.230662
-0.0833677 -0.104765 -0.156174
0.0741776 -0.118733 -0.14387
0.11666 -0.104765 -0.0146407
-0.140263 0.217381 -0.080095
-0.0913508 -0.000915612 -0.217209
0.115531 -0.104765 -0.25206
-0.00688263 -0.0898373 -2.47356e-07
-0.109787 0.0799722 0.252321
0.18096 -0.0349215 0.0767122
-0.0640705 -0.172279 0.0330038
-0.183415 0.23281 0.359189
-0.163081 0.220352 -0.395777
-0.0520447 -0.00825975 -0.303979
-0.104656 -0.0189372 -0.132749
0.0799123 0.150278 0.335439
-0.000975516 -0.118733 0.0261206
0.0708255 -0.101467 -0.280342
0.193113 -0.0955718 -0.0863751
-0.17392 0.0270687 0.0823178
0.18392 -0.199046 0.305861
0.0460181 -0.00956923 -0.303803
-0.0904397 -0.0462054 0.241629
0.0681255 -0.104765 0.0514666
0.186699 -0.118733 -0.0444188
0.0018136 0.21417 0.395777
-0.15842 0.23281 0.203897
-0.111282 0.0303853 0.221911
-0.197889 0.166012 0.227493
0.118675 -0.118733 0.154501
-0.0697055 -0.0379786 0.185124
-0.0433827 0.0946324 -0.23292
0.0437975 -0.0464889 -0.288612
0.0389609 -0.104765 -0.086251
0.181667 -0.172279 0.00529557
-0.0907229 -0.172279 0.332374
0.0818572 -0.104765 -0.206616
0.178111 -0.186248 0.310897
-0.0919747 0.104671 -0.209494
-0.0501094 -0.118733 -0.18653
-0.166343 -0.0140176 -0.155006
-0.151326 -0.170179 0.120327
0.0831512 -0.0355818 0.278797
0.144555 -0.185397 -0.336097
-0.142591 -0.109114 0.349215
0.00357362 -0.0254297 0.362128
-0.0345129 -0.172279 0.203838
-0.0464249 -0.104765 -0.0440342
0.0346449 -0.0712736 0.295512
0.140731 -0.104765 -0.169507
0.00740739 0.210499 -0.395777
-0.131511 -0.208298 0.335246
0.0838115 0.00539399 0.327157
-0.00243698 -0.172279 -0.153709
0.0738022 -0.186248 -0.0303425
0.170903 -0.104765 -0.280743
-0.0450119 -0.104765 -0.128837
-0.0867047 -0.146648 0.349215
-0.0758843 -0.0867252 -0.293436
-0.0151041 -0.079657 -2.47356e-07
0.0106095 -0.0562523 -0.356444
-0.0363797 -0.186248 -0.153326
-0.102021 -0.0385496 0.134828
0.0952382 -0.0349215 0.236961
-0.17083 0.0103097 -0.221258
-0.180502 0.23281 -0.303662
0.0343455 -0.118733 -0.0970402
0.0254313 0.23281 -0.363037
-0.0901406 -0.172279 0.329473
0.188246 -0.172279 -0.29844
0.00999662 -0.186248 0.138747
-0.00780927 -0.104765 0.257148
-0.151326 -0.146213 -0.3024
0.0134058 -0.172279 0.10531
-0.180224 0.061254 -0.0119646
-0.0831516 -0.100769 0.0783074
-0.197889 0.16538 -0.0238764
-0.105927 -0.00947347 -0.0414853
-0.18982 0.113292 -0.333478
0.158299 -0.104765 0.29791
-0.169695 0.00415621 -0.129863
-0.165339 -0.0194617 0.154973
0.109292 -0.186248 -0.0697537
-0.154125 -0.0802733 0.136097
-0.197889 0.17143 -0.305382
-0.133487 -0.118733 -0.331524
0.177771 -0.104765 -0.225508
-0.0108823 -0.0349215 0.179749
0.00463297 0.0121165 0.30462
0.18883 -0.181338 -0.158462
-0.151326 -0.117921 0.075389
-0.138857 -0.172279 -0.153349
0.0994546 -0.104765 0.200647
-0.0955701 -0.0820721 0.294062
0.0978212 -0.104765 -0.135511
-0.138524 0.194006 -0.00158439
0.188215 -0.0392164 -0.290998
-0.0931244 -0.0681992 -0.0486929
-0.13005 -0.172279 -0.0542169
-0.0835091 -0.186248 -0.0864889
-0.0790074 0.0547262 -0.376909
0.0345795 -0.118733 0.179813
0.000591651 -0.186248 0.150097
0.192241 -0.0432417 -0.308712
-0.00607465 -0.0390008 -0.240104
-0.0577368 -0.172279 0.00965937
0.175943 -0.118733 0.306927
-0.148578 0.230397 -0.156607
0.0972033 -0.172279 0.0258754
0.155433 -0.0389031 0.362509
0.0501564 -0.186248 0.129402
0.18392 -0.217713 0.300379
-0.0311344 -0.172279 -0.266837
-0.0443736 -0.172279 -0.0585133
0.186023 -0.0777481 -0.372496
-0.151326 -0.1018 -0.252591
0.0378523 -0.104137 -0.0133411
0.0342745 0.0101923 0.306458
0.140602 -0.104765 -0.170663
-0.130832 -0.172279 0.192565
-0.0168068 -0.118733 -0.139792
0.16401 -0.186248 -0.214887
-0.0283599 -0.118733 0.0302047
-0.156349 -0.0682142 0.144483
-0.176851 0.04296 0.0211946
0.0378958 0.0717793 0.380054
0.00440428 -0.172279 0.311651
0.0703415 0.123421 0.38907
0.0693112 -0.104765 0.243879
0.0992817 -0.104765 -0.250833
-0.130881 0.144378 -0.393441
-0.137585 -0.118733 -0.28932
-0.171044 0.0114739 0.128521
0.00217905 -0.118733 -0.172586
-0.0610332 -0.018141 0.242794
0.00383289 -0.0349215 -0.219527
-0.0924241 -0.172279 0.210378
-0.0627515 -0.0349215 0.0337133
-0.176188 0.0393644 0.139219
0.124795 -0.104765 0.221197
0.188957 -0.0996376 -0.00884161
-0.182918 0.23281 0.19544
0.0439121 -0.0955708 -0.292248
-0.0215509 -0.172279 -0.251387
0.0264161 -0.104765 0.0602461
0.0733716 -0.174953 0.346541
0.0561909 -0.186248 0.00719541
-0.010514 0.00812481 0.30618
-0.195738 0.14538 -0.0863238
-0.0618004 -0.000185695 0.305063
0.0759438 0.047982 -0.369462
0.16581 -0.104765 -0.238749
-0.105205 -0.175536 -0.345958
-0.162554 0.23281 -0.362558
-0.151326 -0.156128 0.211635
-0.074559 -0.0349215 0.273588
0.119638 -0.186248 -0.186534
0.0561724 -0.186248 -0.261577
0.0220433 -0.104765 0.0495282
0.0822959 -0.186248 -0.0242893
-0.121553 0.0643631 -0.138401
-0.163537 -0.0292353 0.255434
-0.0931244 -0.0697224 0.224586
-0.152162 -0.0909164 0.132408
-0.184787 0.0859945 0.129383
0.148776 -0.186248 0.325534
-0.197889 0.201337 -0.232832
0.0514791 -0.0349215 0.104793
-0.197889 0.199214 -0.223277
-0.119085 -0.186248 0.0803652
0.0738392 -0.0978459 -0.00704991
-0.0048491 0.198333 -0.331735
0.122943 -0.0349215 0.328547
0.00718552 -0.104765 -0.0366869
-0.0092502 0.0385393 0.310266
0.0169753 -0.0349215 0.115546
0.0538709 -0.0142733 -0.303171
0.181956 -0.0349215 0.0546958
-0.187823 0.102462 -0.0525783
-0.164951 0.23281 -0.211713
-0.0261395 -0.118733 0.0279118
0.196459 -0.118733 0.117627
0.0837679 -0.104765 -0.202409
-0.0345332 -0.118733 -0.342335
0.123696 -0.118733 -0.344075
-0.107353 0.00114254 -0.197589
-0.0954525 -0.228868 0.330663
-0.0844558 0.0968176 0.281599
-0.0494346 -0.104765 -0.164636
0.0501978 -0.104765 0.144023
0.189355 -0.0993296 0.332307
-0.171532 0.0141164 0.162696
-0.1811 0.23281 -0.127198
0.170746 -0.104765 0.194976
-0.0769662 -0.104765 0.242899
0.121542 -0.0349215 -0.120649
-0.110634 -0.172279 -0.34838
0.186011 -0.184157 0.253721
0.145151 -0.186248 -0.0457588
-0.0931244 -0.0813369 -0.268124
0.167477 -0.104765 0.354957
-0.0500401 -0.186248 0.0808829
-0.114325 -0.118733 -0.31496
0.0435564 -0.0349215 0.0751301
-0.087705 -0.0434708 -0.284911
0.13478 -0.104765 -0.0672897
0.105703 -0.186248 -4.30681e-05
-0.103895 0.162721 -0.395777
-0.106745 -0.172279 -0.0779228
-0.15976 -0.0497144 0.0298342
0.069843 -0.0512754 0.352453
-0.0859765 -0.0417424 0.194313
-0.123451 -0.118733 -0.21865
-0.0889314 -0.0154888 -0.199362
-0.169204 0.00149493 0.0348678
-0.165068 -0.020934 0.217553
-0.0406054 0.0156173 0.191424
-0.0661603 -0.172279 0.0777916
-0.151326 -0.111042 -0.155597
-0.180406 0.0622396 -0.294953
0.123836 -0.17865 0.342844
0.0327485 0.198626 -0.331775
0.0838115 0.0653866 0.337017
-0.0129358 -0.0349215 0.108842
-0.042323 0.120366 -0.3007
-0.177392 0.0458937 0.241035
-0.0377468 0.14978 -0.325212
-0.0936846 -0.118733 0.309913
0.0745839 -0.0404205 -0.282543
0.0628664 -0.0349215 0.184689
0.0888428 -0.104765 -0.309425
0.130587 -0.186248 -0.161902
0.0960539 -0.0349215 0.2192
-0.127524 0.151267 0.259737
0.184888 -0.172279 -0.0884333
0.0724726 -0.118733 -0.107181
-0.0969802 -0.0760666 0.0694176
-0.0501059 -0.186248 -0.205165
0.18392 -0.205536 -0.31933
0.154891 -0.104765 0.234429
-0.0824574 -0.0360021 -0.300251
0.0246911 0.110757 -0.387241
0.183243 -0.104765 0.0954464
0.00728487 0.157093 -0.326195
-0.00668822 -0.104765 0.166237
0.0993906 -0.186248 -0.229769
0.0947721 -0.104765 0.127733
-0.112243 -0.118733 0.276583
-0.0502133 -0.0363872 0.218606
-0.115254 0.0599519 -0.0784821
0.00974507 0.173972 0.395777
-0.189674 0.112497 -0.0173704
0.147128 -0.118733 0.237657
0.146539 -0.118733 -0.236469
-0.0622011 -0.141898 0.349215
0.0975142 -0.104765 -0.0177641
-0.0257106 -0.172279 0.0408765
0.095562 -0.118733 -0.191577
-0.129261 0.1642 0.261593
-0.151326 -0.155768 -0.333622
0.17629 -0.186248 0.00395064
-0.18767 0.101632 0.0961888
0.0838115 0.20519 -0.361184
0.0593319 -0.186248 -0.0998666
-0.131238 -0.186248 0.29341
-0.163916 -0.0271783 -0.338038
-0.00633074 -0.172279 0.268902
0.0688224 0.122187 -0.321505
-0.0787068 -0.172279 -0.0849343
-0.197889 0.194596 -0.122491
0.134985 -0.104765 -0.315893
-0.0119457 -0.172279 -0.124481
-0.12027 0.0972767 0.290812
0.0572705 -0.104765 -0.286
0.0528329 -0.0656366 -0.29627
0.191742 -0.172279 0.13989
-0.100989 0.0509439 0.311933
0.0644316 -0.104765 -0.0823047
0.0562947 -0.0349215 -0.189407
0.0679039 -0.0338904 -0.300535
0.187017 -0.0443449 -0.00454539
-0.185354 0.0890696 -0.251765
0.0462544 0.102304 0.318834
-0.113303 0.0454234 -0.236115
0.0632897 -0.120253 0.349215
0.195079 -0.175089 -0.160692
-0.175985 0.0382688 0.223585
-0.0428108 -0.0354487 0.196549
0.0769468 -0.0349215 0.0569248
-0.163138 -0.0313986 -0.151716
-0.112817 0.0418081 -0.220755
-0.000652849 0.0886833 0.317004
0.113252 -0.0349215 0.191533
-0.145049 -0.178556 -0.00430056
-0.0236849 0.0562001 -0.314767
-0.136475 0.211452 -0.0296114
0.179675 -0.172279 0.194107
0.127639 -0.0349215 0.248872
-0.0138029 -0.0349215 -0.118555
0.130758 -0.186248 0.0837139
-0.0727209 -0.0162577 0.231302
0.0707915 -0.186248 0.00180776
-0.046593 -0.172279 -0.204
-0.0248938 -0.186248 -0.196899
0.0562211 -0.0236346 0.362459
0.0580269 0.223998 -0.342379
-0.171353 0.0131495 0.0132535
0.0838115 0.00798566 -0.323198
0.0818808 -0.186248 -0.256994
0.0568861 -0.118733 0.33183
0.152919 -0.104765 -0.150239
-0.119652 -0.159195 0.349215
-0.164747 -0.0226763 0.0823221
0.0385507 -0.118733 -0.218266
-0.000240654 -0.172279 0.346173
-0.0423192 -0.186248 0.285741
-0.178383 0.169542 -0.395777
0.127157 -0.112602 -0.343084
0.0706428 -0.104765 0.218038
-0.197889 0.172834 0.0905901
0.0226005 -0.0349215 -0.126164
-0.0961352 0.137139 -0.323514
0.139976 -0.186248 -0.291941
-0.165791 0.0679989 -0.379356
-0.154033 -0.0807733 -0.086612
-0.189482 0.111458 -0.0435904
-0.107014 0.0111587 -0.368875
-0.0747064 0.0499495 0.311799
-0.102097 -0.186248 0.192729
0.0837152 -0.0349215 0.168637
-0.123872 -0.172279 -0.214896
-0.112051 -0.216734 -0.335246
-0.148436 0.230174 -0.131491
0.018031 -0.118733 -0.00751665
-0.151613 0.23281 0.130145
-0.197889 0.193339 -0.37871
-0.145872 -0.177733 0.227907
-0.121 0.102711 0.1227
0.0922567 -0.0349215 0.334488
0.0438515 0.00800189 -0.368293
0.179485 -0.0908035 -7.74495e-06
-0.112509 0.0395177 -0.102617
0.113708 -0.186248 0.286811
-0.171883 0.0160249 0.291837
-0.0480541 0.020446 -0.183661
0.174208 -0.172279 -0.308521
0.161001 -0.194252 0.335246
-0.151326 -0.162214 -0.277378
-0.190614 0.117596 0.380644
-0.111905 -0.0300968 -0.361267
0.138446 -0.0586013 -2.47356e-07
0.0614494 -0.0425212 -0.00636903
0.189675 -0.11052 0.0780824
-0.13414 0.199715 -0.156848
-0.117238 -0.186248 -0.245433
-0.0237187 -0.0408386 -0.282961
-0.0226557 -0.104765 -0.164609
0.0633035 -0.172279 -0.246823
-0.1958 0.223258 0.0127732
0.0847421 -0.104765 -0.104357
-0.0115264 -0.172279 -0.131678
0.0838115 0.132385 -0.36584
0.173122 -0.118733 0.178454
0.0043278 -0.172279 0.0467278
-0.0771785 -0.172279 -0.0461034
-0.068454 -0.104765 0.0192204
0.0107313 -0.045083 0.00380689
0.171488 -0.186248 -0.253209
-0.0931244 -0.0576651 0.11191
-0.173763 0.23281 -0.141374
0.0905661 -0.104765 0.22031
0.191743 -0.0427445 -0.236972
0.156092 -0.224975 0.293341
0.0757221 -0.186248 0.169559
0.18392 -0.21286 0.325547
-0.11866 -0.186248 0.195696
-0.130165 0.170925 -0.2359
0.115219 -0.104765 -0.151659
-0.197889 0.185039 0.332424
-0.126802 -0.186248 0.285048
0.185956 -0.106801 0.213703
0.0585559 -0.104765 -0.117703
-0.109978 -0.118733 0.17676
-0.165534 0.23281 -0.00907985
-0.0931244 -0.0590293 0.0396883
0.100829 -0.172279 -0.0647985
0.160168 -0.118733 0.145151
-0.124893 0.131692 -0.179438
0.132913 -0.104765 -0.200224
-0.0611335 -0.172279 -0.179259
-0.170093 0.00631439 -0.347997
-0.100502 -0.118733 -0.0825372
0.0471971 0.23281 -0.379534
-0.08808 -0.0274423 0.301402
-0.0997872 0.0215193 -0.173946
0.14574 -0.172279 -0.03488
-0.151326 -0.147163 0.118317
-0.132318 -0.186248 0.304249
0.029007 -0.104765 -0.0573454
0.0145706 -0.104765 0.0128052
0.167335 -0.104765 -0.12972
-0.0931244 -0.0813235 -0.141122
-0.135571 0.0379412 0.373814
0.103916 -0.186248 -0.019656
-0.102322 0.0932929 0.384021
0.12829 -0.118733 0.0561034
-0.177323 0.0455191 0.187048
-0.187081 0.0984364 0.0442937
-0.152215 -0.0906334 0.130376
0.197889 -0.0489567 -0.189339
-0.197889 0.178507 -0.293828
0.191854 -0.178314 -0.197675
-0.190588 0.117453 -0.32723
-0.0965235 -0.0794659 -0.191084
-0.0660555 -0.0415712 -0.00731909
0.194042 -0.114886 0.130405
-0.00287481 0.1491 -0.394312
0.0288942 -0.104765 0.109576
0.197889 -0.0745928 0.0459772
0.0663926 -0.0349215 0.25071
0.134113 -0.118733 -0.317552
-0.126809 -0.172279 0.108991
-0.0885772 -0.104765 0.113807
-0.069545 -0.0349215 0.242384
0.0619184 0.216554 0.337623
-0.151326 -0.103849 0.306009
0.0699846 -0.101058 -0.291654
-0.0549965 -0.186248 0.285842
0.0647897 0.113887 0.387818
0.0148727 -0.104765 -0.218247
0.175049 -0.036035 -0.0128553
0.00917348 -0.186248 -0.308742
0.197889 -0.129203 -0.174571
-0.154477 -0.0783638 0.195054
-0.0975326 -0.186248 -0.208806
-0.0502941 -0.104765 -0.196591
0.146294 -0.186248 -0.186168
-0.0425796 -0.186248 0.268188
-0.014524 -0.0349215 -0.0978495
-0.0766997 -0.0349215 0.132407
0.0702617 -0.104765 0.314117
-0.115907 0.107945 0.386723
-0.162 -0.0375694 -0.0984232
0.0203134 0.0120452 -0.369038
0.013539 -0.0724862 -0.291013
0.00389551 -0.186248 0.0582848
0.18392 -0.212814 -0.306329
0.121024 -0.104765 -0.048771
0.164026 -0.118733 -0.147506
0.0154079 -0.118733 0.0168247
0.114068 -0.186248 -0.197019
0.109206 -0.186248 -0.327473
-0.0246228 -0.186248 0.051282
0.0291385 -0.0319143 -0.280596
-0.151326 -0.157353 0.245679
0.130657 -0.186248 0.244982
0.00773157 -0.0260735 0.239718
-0.195315 0.143087 -0.034661
0.069843 -0.0907419 -0.327404
-0.182379 0.0729414 0.134418
-0.178033 0.0493737 0.025504
0.0882536 -0.172279 0.0663474
-0.00770651 -0.0349215 -0.0620895
-0.158802 -0.0549094 0.226481
-0.110989 0.0282039 -0.0812515
-0.12408 -0.186248 0.0181575
0.0337119 0.175466 -0.328663
0.184164 -0.105009 -0.0786702
-0.0785353 -0.00785407 -0.304033
-0.0614809 0.0028201 0.175617
-0.102713 0.114293 -0.215149
0.00945753 -0.104765 -0.285811
-0.075131 -0.0902934 0.292957
-0.0960067 -0.0833119 0.19852
0.0962799 -0.186248 -0.0044756
-0.0179279 -0.118733 -0.342896
-0.190075 0.114671 0.100873
-0.0396334 -0.186248 -0.0726987
-0.00340551 -0.186248 -0.227554
-0.0368649 -0.104765 0.240025
-0.138669 0.214887 -0.0891771
-0.194692 0.13971 -0.0309875
-0.130377 0.172505 0.0903284
0.165229 -0.172279 -0.240129
-0.0882641 0.0611624 -0.378096
-0.197889 0.160243 0.110592
0.0794777 0.0213654 -0.36096
-0.145467 -0.178138 0.0870225
-0.11141 0.0313346 0.150235
-0.186128 0.0932694 -0.341376
-0.133866 0.176152 -0.0177642
0.0524713 -0.118733 -0.346194
-0.151099 0.0919457 0.383772
0.128002 -0.104765 -0.228504
0.190708 -0.0979767 0.115583
0.108005 -0.172279 0.153015
0.18288 -0.172279 -0.191168
-0.125639 0.137242 0.0451269
-0.0748734 -0.0349215 -0.10468
-0.167814 -0.0060442 0.145642
0.0220764 -0.104765 0.0182396
0.0473023 0.104302 0.319102
0.0837587 0.12471 0.375664
0.0099892 -0.0631582 -0.291013
0.144832 -0.118733 -0.302112
0.0897888 -0.0349215 0.0412466
0.0040238 0.111244 -0.320034
-0.133131 0.0491876 -0.375887
-0.00935955 -0.186248 0.113386
-0.0981015 -0.172279 0.248034
0.150243 -0.104765 0.124453
0.0269139 0.16937 -0.327844
0.197889 -0.0854738 -0.0976108
0.151516 -0.104765 0.17824
0.136312 -0.172279 -0.229333
-0.095247 -0.0889667 -0.193188
-0.178614 0.052524 -0.264524
-0.151326 -0.148228 -0.0707417
-0.0313896 -0.172279 0.0438739
0.184127 -0.104558 -0.136809
-0.113252 0.181851 -0.329521
0.069843 -0.0853273 0.308376
-0.197889 0.217416 -0.289286
-0.155384 0.23281 -0.308819
0.0125212 0.137828 -0.392233
-0.0377456 -0.00809185 -0.365325
0.0803007 -0.094307 0.32857
0.183844 -0.226837 0.293341
0.143766 -0.118733 -0.166267
-0.191054 0.228005 -0.00352799
-0.0171984 -0.0749742 -2.47356e-07
0.177476 -0.118733 0.0882777
-0.101571 -0.0418959 -0.211294
-0.133331 -0.186248 0.12291
0.0961607 -0.104765 -0.196276
-0.0633962 0.106222 0.233934
-0.0596884 -0.172279 0.0376786
-0.112837 0.0294871 0.200111
0.113255 -0.104765 0.110774
0.17841 -0.118733 0.0158174
-0.133444 -0.118733 -0.119796
0.145445 -0.104765 -0.0543439
-0.0895032 -0.0944172 0.10739
-0.0531784 -0.104765 -0.211174
-0.0804201 -0.0361862 -0.204795
0.15957 -0.186248 -0.0296292
-0.151326 -0.169858 0.234607
-0.186314 0.0942751 0.347653
-0.0634567 -0.118733 0.26119
-0.130867 0.0990702 -0.206827
0.159555 -0.104765 -0.121003
-0.140333 0.21749 0.0327986
-0.0294305 -0.186248 0.121278
0.103883 -0.0349215 -0.143284
-0.0324648 -0.104765 0.119622
-0.118784 0.0862222 0.0937896
-0.197889 0.169227 0.220678
0.000401013 -0.100179 -0.00938265
0.00828278 -0.0724934 -0.295348
-0.177657 0.0473354 -0.287807
-0.18121 0.0665996 -0.348704
-0.0953339 -0.00769848 -0.169586
0.179136 -0.118733 0.179161
-0.152502 0.0107352 0.368797
0.0639671 0.0969099 0.318109
-0.154756 -0.0768515 0.149086
-0.0593375 -0.104765 -0.258188
-0.0735594 -0.104765 0.0854555
0.00412559 0.0830386 -0.297046
0.0535729 -0.104765 -0.0123105
0.193446 -0.172279 0.0428997
-0.102787 -0.186248 -0.294811
0.00294015 -0.118733 0.0774002
-0.0835405 -0.0393065 -0.0700656
0.178404 -0.186248 -0.307221
-0.111608 0.104763 -0.202156
-0.0505489 -0.0349215 0.255704
-0.110855 0.0272035 0.130418
-0.151326 -0.135132 0.0817291
-0.0912426 -0.104765 0.270323
-0.0669515 -0.104765 0.0164338
0.165234 -0.172279 -0.0717432
0.0575229 -0.0631173 -0.355178
0.16992 -0.104765 0.311162
0.0241199 -0.118733 -0.301512
-0.0766535 -0.118733 -0.0120685
0.0797094 -0.172279 -0.270771
0.0557223 -0.0415883 0.00730172
0.0314985 -0.0349215 0.197337
-0.0691851 -0.172279 -0.019236
0.197889 -0.0629428 0.0111944
0.00859958 0.0687947 0.303524
0.0323633 -0.104765 0.0706938
0.0262226 -0.0349215 0.110885
0.166499 -0.186248 -0.0600342
-0.130039 0.209225 0.333199
-0.1719 0.0161127 -0.0194225
-0.121491 0.0267331 -0.371747
0.0491174 -0.104765 0.287952
-0.0440253 -0.118733 -0.247639
0.00529005 -0.104765 -0.0663412
0.032107 -0.172279 -0.113864
-0.05094 -0.0349215 -0.113142
-0.0164262 -0.104765 0.0400575
0.0645583 -0.0638669 -0.291013
-0.0252347 -0.0384179 0.216639
-0.117371 -0.172279 -0.236483
-0.119901 -0.172279 0.306162
-0.130728 0.175119 -0.269805
-0.140476 0.180379 -0.314712
-0.126998 -0.118733 -0.319351
-0.0459777 -0.0734697 -2.47356e-07
0.0449036 -0.0349215 0.205869
-0.11052 0.0247125 0.058163
-0.0906224 -0.104765 -0.0721164
-0.0505763 0.0843201 -0.316418
0.197889 -0.154124 0.208573
-0.0196407 -0.0349215 -0.267425
-0.128383 0.157664 0.0806127
-0.165211 -0.0201566 0.178266
-0.0839183 -0.18122 0.340274
-0.0118753 -0.186248 0.00800073
0.197561 -0.172607 -0.1302
0.193653 -0.0950325 0.284338
-0.0303594 -0.0257185 0.261986
-0.126922 0.146788 -0.0266722
0.0260788 -0.118733 -0.324326
-0.0693973 -0.0925844 0.349744
0.164831 -0.0349215 -0.293347
0.0243935 0.167821 0.395777
0.171722 -0.0675731 -2.47356e-07
-0.10854 0.00997415 -0.198243
0.176104 -0.104765 -0.219727
0.0475396 -0.104765 0.0804227
0.134283 -0.0349215 0.258424
-0.112048 0.0360852 0.126743
0.153639 -0.0676693 -0.372496
0.00441152 0.0799122 0.308142
-0.0593197 0.000902867 0.265997
-0.0438172 -0.172279 -0.193293
-0.0163217 -0.172279 0.0339092
0.142659 -0.104765 -0.142536
0.156944 -0.188603 -0.335246
0.0809008 -0.104765 0.240613
-0.0731505 0.182024 0.395777
-0.0407345 0.232392 -0.347742
-0.109441 -0.0096058 -0.233719
-0.167301 -0.00882395 0.0540933
-0.134298 0.20169 -0.0637128
-0.0931244 -0.0904556 -0.184224
0.163666 -0.0349215 0.0578619
0.186365 -0.118733 -0.0133457
0.125297 -0.0349215 -0.200544
-0.104491 -0.0201628 -0.19119
-0.197889 0.169043 0.099087
-0.0996913 -0.118733 0.153174
0.0517902 -0.186248 0.226714
-0.0886198 -0.0953006 0.261481
-0.133584 -0.05127 -0.357362
0.108994 -0.104765 0.0957256
-0.0404366 -0.0668921 -0.296101
-0.123154 0.118744 -0.042218
0.197889 -0.158774 -0.0263361
-0.0539582 -0.104765 0.227447
0.00657943 -0.062356 -2.47356e-07
0.197889 -0.169175 -0.168245
-0.122502 -0.0849632 -0.351149
0.125191 -0.172279 0.0436267
0.0402917 -0.172279 0.225009
-0.00327591 -0.186248 -0.234878
-0.18779 0.102279 -0.0125747
0.181381 -0.118733 -0.232281
0.135096 -0.104765 0.07246
-0.128111 -0.18774 -0.293341
0.00880828 -0.104765 -0.247779
-0.133524 0.195924 0.0487429
-0.0228556 -0.118733 -0.208275
-0.0955824 -0.186248 0.200022
-0.0989338 -0.0615253 -0.259941
0.157056 -0.205262 0.335246
0.00527388 0.12737 -0.390305
-0.0441933 -0.118733 0.191196
0.0803241 0.222329 0.361003
-0.0201475 0.0219667 0.210534
-0.100559 -0.0494263 0.117998
0.0416595 -0.118733 -0.198737
-0.121676 0.05714 0.210891
-0.168715 -0.001155 -0.326638
0.0156262 -0.104765 -0.26994
-0.0456063 -0.0232934 0.251724
-0.091045 -0.0468106 -0.219912
-0.160008 -0.0483696 -0.194291
-0.195613 0.144702 -0.0283546
0.196607 -0.117451 0.0142676
0.0848619 -0.118733 0.291272
0.0142957 -0.172279 0.31712
0.0568307 -0.104765 -0.113664
-0.0123561 -0.172279 0.325334
-0.16747 -0.00791027 0.356278
0.00619947 -0.0588657 -2.47356e-07
0.0816764 0.0883113 -0.37107
-0.0652038 -0.104765 -0.085873
-0.0931244 -0.0726904 -0.222396
-0.112428 0.0389163 -0.266627
0.183582 -0.172279 -0.334124
-0.151326 -0.115221 0.194801
-0.197889 0.213796 0.293878
0.191293 -0.172279 -0.204685
-0.168101 -0.00448835 0.0867789
0.177765 -0.186248 -0.303025
0.0435267 0.105973 0.386359
0.0185727 -0.172279 -0.151546
0.17857 -0.186248 -0.022871
0.11206 -0.104765 -0.26571
-0.154244 -0.0796315 -0.00368515
-0.0545158 -0.104765 -0.248735
0.157718 -0.104765 -0.161744
0.0510814 -0.104765 -0.27272
0.0141408 -0.118733 -0.090141
0.10288 -0.0349215 0.279677
-0.128612 0.159369 0.134857
0.197889 -0.151847 0.299449
-0.115469 -0.118733 0.148823
-0.0158285 -0.180605 -0.340889
-0.0231104 -0.118733 0.324296
-0.101624 -0.0414985 -0.185717
-0.134629 -0.186248 0.0152388
-0.151326 -0.135638 0.133835
0.192105 -0.0753431 -0.372496
-0.165964 -0.0160732 -0.341352
-0.0805779 0.0831061 -0.282028
-0.00704814 -0.104765 0.0159951
0.197889 -0.120967 0.0498228
0.0701937 0.174055 0.395426
0.0639544 -0.104765 -0.275257
-0.00715895 -0.0917332 -0.292764
-0.0210549 -0.104765 -0.0264399
-0.149975 -0.0315888 0.360992
0.0838115 0.12416 -0.374094
0.081804 0.0553623 -0.364864
-0.106392 -0.186248 0.00436755
0.190541 -0.0415421 -0.163763
-0.176693 0.0421071 0.0221039
-0.145842 -0.177763 0.139896
0.11843 -0.104765 -0.248516
-0.101463 0.146405 -0.393815
0.0590749 -0.104765 0.150369
0.0324663 -0.104765 0.0668905
0.193034 -0.0440356 0.0619076
-0.0879786 0.075525 0.380744
-0.18738 0.100056 0.382041
0.106478 -0.104765 0.300189
0.0454645 -0.172279 0.288668
-0.0516804 -0.104765 0.210013
-0.115525 0.0619682 0.0598501
0.163509 -0.104765 0.27722
-0.102477 -0.186248 0.266124
-0.0704285 -0.104765 0.0935117
-0.0671822 -0.104765 -0.200787
-0.00403536 -0.104765 -0.209053
0.0822504 -0.104765 0.204091
-0.168063 0.111907 0.387453
-0.0262193 -0.172279 0.085534
-0.0256751 0.0900561 -0.383424
-0.0141841 -0.118733 0.0867409
-0.00325846 0.200822 0.33207
-0.0907718 -0.0672596 -2.47356e-07
-0.109317 0.0157585 0.00821419
-0.156419 0.160445 0.395777
-0.0574704 -0.118733 -0.0682942
-0.0931244 -0.0608791 0.29009
0.0731477 -0.056555 0.353027
-0.143486 0.222426 0.0907637
0.0287912 -0.104765 -0.179365
-0.00442318 -0.118733 0.078023
0.0899317 -0.104765 0.212132
0.129283 -0.172279 -0.192872
0.197889 -0.0833755 0.316807
-0.0434973 -0.172279 0.141434
-0.196415 0.149051 0.268381
-0.0691395 0.088495 0.316978
-0.097645 -0.0711184 -0.191655
0.184587 -0.185581 -0.167388
-0.0931244 -0.0845981 -0.167238
0.171305 -0.104765 0.123537
-0.114979 0.00467556 0.0613465
-0.197106 0.152801 0.0805183
-0.155505 0.23281 -0.14708
-0.151326 -0.151696 -0.259974
-0.0761875 -0.172279 0.292439
0.0633709 -0.104765 -0.251773
-0.00301046 -0.172279 0.0586327
-0.0403771 -0.104765 -0.0252821
-0.110994 0.0282411 -0.0311853
0.0718295 0.076894 0.378977
0.108534 -0.118733 -0.226893
0.00209458 -0.118733 0.0679386
-0.00694062 -0.0349215 0.128608
-0.0386326 0.034435 0.373167
0.135706 -0.172279 0.241193
0.191476 -0.0972094 -0.122284
-0.121054 0.103108 0.00907173
0.0183141 -0.104765 -0.279675
-0.058867 -0.104765 0.248686
0.100979 -0.0349215 0.335293
0.00954512 -0.186248 0.213781
0.0900627 -0.104765 -0.0372469
0.0820596 -0.172279 -0.273396
-0.110215 0.0344863 0.309722
-0.0188598 -0.0594072 -2.47356e-07
0.138879 -0.104765 0.184436
-0.137826 0.213567 -0.0489256
0.148023 -0.104765 -0.282162
-0.0158696 -0.108608 -0.349215
0.0784517 -0.0421285 0.308114
-0.108254 0.102462 -0.201237
0.114141 -0.104765 -0.1671
0.038705 -0.104765 0.17524
0.0955911 -0.104765 -0.110984
0.151952 -0.104765 -0.090948
-0.0220664 -0.18175 -0.339744
-0.0672751 0.205903 0.332753
0.0773522 -0.186248 0.31325
-0.17075 0.00987737 0.234122
0.00705908 0.0234322 -0.308236
0.0171462 -0.0349215 -0.193032
-0.0395303 -0.0151607 -0.263156
0.0956506 -0.186248 0.0738019
0.121038 -0.186248 -0.198097
-0.19702 0.152334 0.150813
-0.0690313 -0.118733 0.112141
0.0671561 0.181262 -0.329442
-0.0777524 -0.0117604 -0.226069
0.0873785 -0.172279 0.302848
0.0036848 -0.0101392 -0.226538
-0.101323 -0.172279 0.329168
0.0760941 -0.172279 0.10234
-0.141422 0.219195 0.324283
0.0470942 0.0404709 -0.37428
-0.0887022 -0.0444679 0.266972
-0.0472231 -0.104765 0.0546127
-0.140348 -0.172279 -0.264089
-0.0639488 -0.172279 -0.271013
-0.1922 0.226858 -0.0415573
-0.151326 -0.106234 -0.300976
0.178906 -0.118733 0.291678
-0.0854761 -0.041242 0.0392102
0.0320951 -0.104765 -0.0770108
-0.11831 -0.0886726 -0.350465
0.128908 -0.0349215 0.285201
0.158128 -0.0349215 -0.254738
-0.154349 -0.0790611 -0.183802
0.19729 -0.0482909 0.138289
-0.0647252 -0.118733 0.206411
0.0212389 -0.104765 -0.132639
0.0161494 -0.178032 0.343462
0.121093 -0.0349215 0.0742437
-0.131628 0.181814 0.0770574
-0.043429 -0.104765 0.159304
-0.0931244 -0.07998 -0.19474
-0.0957078 -0.085537 0.0039618
0.0393476 0.193289 -0.331058
0.0270788 -0.0349215 -0.10052
0.135108 -0.0349215 -0.117505
-0.0371529 -0.118733 0.190078
-0.125236 0.108504 0.230183
0.115752 -0.0349215 0.176704
-0.0292432 -0.186248 -0.0214552
-0.107846 0.00481312 0.108727
0.158631 -0.104765 0.0285463
0.069196 -0.186248 0.249983
0.114229 -0.104765 -0.267941
0.0538394 -0.104765 -0.0618767
0.0583318 -0.104765 0.271751
-0.074027 -0.148819 0.349215
0.159957 -0.172279 0.123233
0.15527 -0.186248 0.30695
0.0727821 -0.186248 -0.127413
-0.0304864 -0.0380474 -0.228351
-0.179338 0.23281 -0.200882
-0.0847608 -0.186248 0.275697
0.0109214 0.202786 0.332334
-0.134656 -0.172279 -0.0474344
-0.0450018 -0.0420612 -0.284184
-0.0739692 -0.104765 -0.0739937
-0.0803216 -0.172279 -0.292583
0.197096 -0.0915889 -0.0129116
-0.0372895 0.140442 -0.323958
-0.0428781 0.0905183 0.383509
0.047365 -0.0349215 -0.258013
0.0401253 -0.172279 -0.314032
0.00900325 -0.0349215 -0.266302
0.0925765 -0.118733 0.262514
0.0529824 -0.166645 0.349215
-0.116418 0.0598762 -0.227463
-0.072587 0.178739 0.395777
-0.130643 0.174486 0.10162
0.0757082 0.077949 -0.321479
-0.173722 0.0259919 -0.180956
0.0838115 0.0488737 -0.327655
-0.179238 0.23281 -0.0872439
0.110815 -0.0349215 -0.179942
0.0815877 0.108647 -0.331536
-0.0224135 -0.104765 -0.221537
-0.0700254 -0.104765 0.169017
-0.0302339 -0.172279 0.0546675
-0.186879 0.0973394 0.0525878
0.0155419 0.1247 0.389812
-0.0739541 0.214815 0.395777
0.0333416 -0.186248 -0.158416
-0.0858448 -0.172279 0.31401
0.189812 -0.0408133 -0.285431
-0.153562 -0.083329 0.228108
-0.125634 0.137199 0.293981
0.184605 -0.10408 0.167684
0.122197 -0.104765 -0.110046
-0.109883 0.0199728 0.0880042
-0.0268743 0.0181394 0.370162
-0.0242164 -0.104765 0.252309
-0.0170336 -0.172279 -0.0453235
0.106239 -0.104765 0.122773
-0.0781933 -0.172279 -0.266191
-0.166923 0.137416 0.392157
-0.134385 -0.172279 -0.128473
0.170305 -0.0349215 -0.331014
-0.120178 -0.210926 0.335246
-0.146455 0.227074 0.0819902
0.189674 -0.0406748 0.029176
-0.192255 0.126495 0.382929
-0.043344 -0.118733 0.215537
0.0191043 0.206337 0.395777
-0.0730465 0.0796013 0.315783
-0.101748 0.23281 0.381709
-0.0547681 -0.104765 -0.102471
-0.00972683 -0.118733 -0.0769674
-0.197573 0.155329 0.155979
-0.0363605 -0.181674 0.33982
0.0388117 -0.0349215 -0.0159341
0.170293 -0.118733 -0.259138
0.191526 -0.11237 -0.321708
0.0838115 0.164663 -0.358044
-0.0954525 -0.217246 -0.322377
-0.13293 0.191502 -0.0249778
-0.126951 0.154892 0.39538
-0.148008 -0.172279 0.332567
-0.0370429 -0.0349215 0.140486
-0.197889 0.208389 0.340837
0.197889 -0.0752416 0.0119276
0.187065 -0.0380663 0.0533625
-0.0241578 -0.0420541 -0.299438
0.0781242 -0.0964835 0.304808
0.0578509 -0.118733 5.8718e-05
-0.101193 -0.0447085 -0.0657725
0.0363954 -0.169433 0.349215
0.190916 -0.118733 -0.305887
0.030116 -0.0349215 -0.243885
-0.030777 -0.186248 -0.258744
0.0506911 -0.118733 -0.0950314
-0.170238 0.00710201 -0.360969
-0.126295 0.142123 0.125036
-0.127139 0.148405 0.0692211
0.0780001 -0.0719606 -0.345253
0.188689 -0.0396902 -0.246834
0.0818591 -0.104765 -0.200687
-0.0959509 -0.180332 0.341162
-0.173779 0.0263053 0.327939
0.0488749 -0.118733 0.32308
0.0938196 -0.172279 -0.17852
-0.0190169 -0.0349215 -0.227792
-0.0609563 -0.0938856 -0.00308974
-0.116303 0.0677531 -0.184534
0.127171 -0.118733 -0.124935
0.0773956 -0.104765 -0.210038
-0.102679 -0.0644013 0.149479
0.121054 -0.172279 -0.0999767
0.188801 -0.118733 -0.348813
0.12348 -0.0349215 0.352204
0.0575279 -0.104765 -0.242619
-0.0537649 -0.118733 0.164295
0.197889 -0.0695373 0.210674
-0.07341 -0.104765 -0.157598
-0.117788 0.23281 -0.371838
0.142014 -0.201196 0.326544
-0.00222279 0.0959936 0.316602
0.0349935 0.182358 0.395777
-0.167668 -0.00683415 -0.157977
-0.179604 0.0578918 -0.21548
-0.110462 -0.172279 -0.0143987
-0.0932853 -0.103567 -0.178704
-0.106381 -0.186248 0.301061
0.0347664 -0.186248 0.304975
-0.108943 -0.172279 -0.277027
0.0558528 0.0831321 0.382147
0.162788 -0.0349215 0.0625983
-0.0880741 -0.104765 0.190311
0.156133 -0.0349215 0.169311
-0.0526508 -0.118733 0.094597
-0.0401703 -0.104765 -0.223713
0.0785009 -0.104765 -0.124037
0.0925463 -0.118733 0.0813317
-0.0159742 0.0473326 0.226557
-0.147833 -0.118733 -0.161907
-0.0803593 0.006982 -0.368104
-0.160501 -0.0456987 -0.0848371
-0.0397787 -0.104765 -0.272589
-0.10898 -0.0783928 -0.352361
-0.0967659 -0.0776615 0.0567169
-0.108981 -0.186248 0.0417804
-0.0827647 -0.101156 -0.162472
0.0927548 -0.104765 -0.222628
0.0550232 -0.172279 0.06868
0.180117 -0.104765 0.169322
0.052661 -0.118733 0.155678
0.0533984 0.177105 0.395777
0.161725 -0.104765 0.266462
0.125972 -0.0349215 -0.0648697
0.0266205 -0.00246802 0.266986
0.125845 -0.0504212 -2.47356e-07
0.158381 -0.104765 -0.34933
0.19136 -0.112205 0.0648381
-0.193479 0.133133 0.294263
-0.0117287 -0.104765 -0.156238
0.0207163 0.0223725 0.26853
-0.0462131 -0.186248 -0.145923
0.0317862 0.0239673 -0.371237
0.114332 -0.03651 -0.0123803
-0.196714 0.222344 0.326197
-0.0639975 -0.104765 0.249851
0.0523973 -0.104765 0.204224
-0.186548 0.0955455 -0.073425
-0.0462713 -0.186248 -0.0163649
-0.0689281 0.0169512 0.369943
-0.0636188 0.108249 0.297265
0.114813 -0.104765 0.290063
-0.0599324 -0.0909143 -0.350052
-0.197889 0.183556 0.281986
-0.106416 -0.0124851 -0.226729
0.00121398 -0.0658113 0.354681
-0.00205116 0.0653689 -0.254377
-0.185197 0.0882178 0.0356238
0.0180428 -0.186248 0.0122325
0.0985071 -0.0848315 -2.47356e-07
0.0677102 -0.172279 0.125091
-0.0199523 -0.0349215 -0.247643
0.0721246 -0.118733 -0.33261
0.197889 -0.142244 0.0547041
-0.0360917 -0.104765 -0.0346439
-0.128421 0.157943 -0.225356
-0.0187571 -0.104765 0.198361
-0.197889 0.210897 0.379242
0.197889 -0.078924 0.0123035
0.00680088 -0.172279 -0.230896
0.19535 -0.116194 0.322617
-0.197889 0.198151 0.320652
0.197889 -0.156433 -0.0981707
0.049495 -0.0349215 0.207658
-0.15454 0.0084424 -0.368374
-0.128268 0.156803 -0.282155
0.0711899 -0.118733 0.057868
-0.161517 -0.0401887 0.3495
0.139079 -0.0349215 0.282737
0.191678 -0.0426792 -0.0609634
0.149482 -0.104765 -0.0212534
-0.183033 0.0764855 -0.0293834
-0.0270629 0.0595196 -0.218033
0.197889 -0.0531224 0.00634642
-0.169347 0.00227268 0.143405
-0.0508729 0.0807445 0.310565
-0.0674142 -0.118733 0.260091
0.00530772 0.0790948 -0.306483
-0.0181201 0.0617328 0.320328
-0.0102071 -0.104765 -0.055107
-0.100353 -0.172279 0.228452
-0.00455129 0.0928856 -0.317568
-0.1673 -0.00882905 0.261491
0.167056 -0.104765 -0.239341
-0.023203 -0.186248 0.240394
0.091585 -0.172279 0.0792179
-0.0639415 -0.118733 -0.280395
0.00244334 -0.0845951 -2.47356e-07
-0.0114541 0.0646263 -0.378734
-0.174383 0.0295771 0.151788
-0.0954525 -0.212745 -0.327954
-0.144082 -0.179523 -0.301598
-0.0309177 -0.118733 0.0804109
-0.113198 0.171506 -0.328131
0.0561139 -0.181842 0.339652
-0.17865 0.0527181 0.162859
-0.0386736 0.0335747 -0.298293
-0.151326 -0.148074 0.283299
-0.0211109 -0.0403792 0.299663
-0.112142 0.036786 -0.290715
0.0838115 0.193458 0.352254
0.142014 -0.195315 0.314379
0.0367342 -0.118733 -0.315092
0.0838115 0.0536194 0.34702
0.0468017 -0.104738 -0.0139417
-0.137473 -0.0997937 -0.349215
0.187112 -0.0897332 -2.47356e-07
0.137322 -0.104765 -0.140868
0.0328081 -0.172279 -0.335711
-0.161556 -0.0399759 0.202707
-0.131745 -0.199809 -0.293341
0.19674 -0.047741 0.0229637
-0.0856947 -0.104765 -0.063551
0.0432944 -0.118733 -0.308691
-0.188486 0.183802 -0.395777
0.0717515 0.191466 -0.332739
-0.103918 -0.172279 -0.247057
-0.062635 -0.172279 -0.281235
-0.0847569 0.194009 -0.331155
-0.0465901 0.110053 0.256376
0.0147905 -0.104765 0.0641025
0.0292882 -0.172279 -0.0441006
-0.00973145 -0.118733 -0.313445
0.197889 -0.133079 -0.111445
0.0959169 -0.0349215 -0.0734951
0.0596718 -0.104765 0.135811
-0.0326916 -0.0349215 -0.239973
-0.00180248 -0.0386807 0.253609
0.177821 -0.0616355 0.372496
-0.119162 0.0890374 -0.169523
0.189717 -0.0407184 0.02337
-0.125451 0.13336 0.0839303
0.00680574 0.0432158 -0.249532
-0.0157695 -0.118733 0.102384
0.0671435 -0.0687204 0.295856
0.175227 -0.186248 0.313804
0.185929 -0.184239 -0.24233
-0.128236 0.106006 -0.202498
0.0608519 -0.0429869 0.28511
-0.00701703 -0.118733 0.216058
-0.153115 0.23281 0.367867
-0.0736559 -0.186248 -0.144523
-0.152661 0.23281 0.229562
-0.0962623 -0.0301489 -0.301038
0.197889 -0.0664968 -0.240776
-0.0095398 0.0755322 -0.252696
-0.0585887 -0.172279 0.246023
-0.0583851 -0.118733 -0.289773
-0.152151 0.108387 0.386804
0.116853 -0.172279 0.27399
-0.179425 0.0569214 -0.0552621
0.102245 -0.104765 -0.122508
0.0435172 -0.104222 0.291086
-0.0143151 0.0249932 0.217314
0.00948665 -0.149319 0.349215
-0.18176 0.0695801 -0.0185804
0.0856535 -0.104765 0.328506
-0.00407127 0.119845 0.388917
-0.0687473 -0.127315 -0.349215
0.0743253 0.118365 0.384086
-0.172447 0.0190787 -0.308646
-0.134328 0.201008 0.156225
-0.035219 -0.0349215 -0.138189
0.145709 -0.104765 0.329161
-0.0281958 -0.104765 -0.110192
0.197889 -0.0625361 0.332827
0.0762421 -0.0983657 -0.326619
0.119681 -0.104765 0.039307
0.129422 -0.172279 -0.111827
-0.118309 0.0618921 -0.223946
0.0394317 0.147547 0.324912
-0.0553162 -0.118733 0.0427357
-0.138885 -0.118733 -0.134048
0.0597571 -0.0349215 0.151253
0.069843 -0.0745569 0.3433
-0.19034 0.116107 0.372818
-0.0464639 -0.00781932 -0.365375
-0.0361359 -0.104765 -0.0641265
-0.0954525 -0.189071 0.328532
-0.15082 -0.118733 -0.125214
0.0271904 -0.118733 -0.00872828
-0.0146613 0.135208 -0.39175
-0.0365464 0.054365 -0.307549
-0.11406 0.0510612 -0.13663
0.0273443 -0.172279 0.340971
0.11114 -0.104765 -0.0719402
0.164338 -0.104765 0.298213
-0.0189928 -0.104765 -0.133145
0.190579 -0.0415806 0.306144
0.109328 -0.104765 -0.314108
0.17727 -0.118733 0.110748
-0.151326 -0.0967044 -0.0604774
-0.0728548 0.105233 -0.319227
0.18686 -0.107704 0.150999
0.0115281 -0.176619 0.344875
0.149243 -0.0351243 0.358731
0.0139681 -0.118733 0.171865
-0.197889 0.17006 0.0591402
-0.0876301 -0.0433959 -0.0480376
-0.0653201 -0.159911 -0.349215
-0.171242 0.0125489 -0.247829
-0.19769 0.155967 0.0805412
0.093559 -0.186248 0.165021
0.0018741 -0.118733 -0.0815529
0.0903535 -0.104765 -0.0173787
-0.191884 0.124483 -0.0687982
0.169136 -0.172279 -0.125476
-0.141107 -0.182499 0.101646
-0.151326 -0.15269 0.288302
0.0799819 0.177876 -0.339217
-0.105366 -0.0136487 -0.116089
0.113271 -0.186248 7.18981e-05
-0.0627905 -0.186248 0.19675
-0.191328 0.121467 -0.268212
-0.0745386 -0.104765 0.0163225
0.0804887 -0.0349215 0.0350485
-0.131851 -0.186248 -0.164034
-0.113333 0.0456457 -0.237502
0.0628422 -0.118733 0.0903717
-0.118105 0.0811647 0.0645984
-0.186446 0.143725 0.393321
-0.0600509 0.137533 0.392179
-0.178453 0.0516491 -0.0353991
-0.0588219 -0.180928 -0.340566
-0.0204335 -0.0115748 -0.364683
-0.0916199 -0.0541849 -0.356825
-0.13806 0.181428 0.317403
-0.176961 0.23281 0.237535
0.163964 -0.172279 -0.340422
-0.110715 0.0261608 0.0105358
-0.0730608 -0.118733 -0.146101
-0.132473 -0.118733 -0.225643
0.0370512 -0.172279 -0.193569
-0.0228129 -0.0890847 -2.47356e-07
-0.151326 -0.153007 -0.062444
0.197889 -0.134186 -0.185676
-0.0931244 -0.0739423 -0.249322
-0.0797389 -0.104765 -0.257236
-0.00271935 0.0436653 0.310955
0.0818261 -0.104765 -0.153781
-0.0996375 -0.0562881 0.066229
-0.0746252 0.105689 0.288118
0.033474 -0.118733 -0.144597
-0.0413491 -0.0349215 0.218147
-0.0216416 -0.0387076 0.238138
0.0798511 -0.186248 0.0967764
-0.103346 -0.0286815 0.257895
0.196472 -0.173696 0.0333433
-0.191341 0.121535 0.205849
0.152292 -0.23281 -0.321651
0.118161 -0.104765 -0.0869969
-0.117728 0.0783605 -0.196759
-0.0382917 -0.186248 -0.0331445
0.0749426 -0.0176236 0.307866
0.0115318 -0.118733 0.0956411
-0.0352168 0.0288148 0.372131
-0.0337194 -0.0349215 -0.161898
-0.172304 0.018307 0.0907987
0.185347 -0.0363482 -0.181146
-0.174071 0.0278869 0.0561897
-0.0752726 0.0427063 0.279502
-0.0501754 -0.104765 0.0549157
0.0796552 0.0248871 0.318332
-0.12464 -0.0741909 0.353136
-0.165034 -0.0211168 -0.113491
-0.197889 0.197371 -0.31799
-0.119056 0.088248 -0.0842286
-0.145318 -0.172279 0.100129
-0.0741295 -0.0349215 0.153453
0.0675777 -0.104765 0.0629403
-0.125349 0.135081 -0.150122
0.125631 -0.0349215 0.186736
0.185663 -0.103022 0.255535
-0.0569903 -0.118733 0.197517
-0.0492597 -0.0976185 -0.00682255
0.195271 -0.0462716 -0.216901
-0.110487 0.195346 0.331334
0.197889 -0.0841908 0.281791
-0.0926212 -0.0483868 -0.0374294
-0.0197025 -0.0349215 -0.1681
0.197889 -0.158278 0.208338
0.197889 -0.146117 -0.339895
0.0132841 -0.186248 -0.10288
-0.124772 0.130791 -0.0188199
-0.196169 0.147718 0.388969
0.165421 -0.104765 -0.057904
0.137664 -0.0349215 0.0237337
0.0800521 0.143074 0.334612
-0.0186221 -0.172279 0.19238
-0.106713 -0.118733 0.0898774
0.17184 -0.104765 -0.0159371
0.0514797 -0.172279 0.282307
-0.184389 0.0838371 -0.242957
-0.197889 0.173403 0.232168
-0.165106 -0.020729 0.143568
0.197889 -0.0800996 -0.185292
-0.0213774 -0.0304434 0.361203
-0.107819 0.00460533 0.0472617
-0.0856077 -0.0983127 -0.0626125
-0.151326 -0.144228 -0.266735
0.0555945 -0.0349215 0.0799004
-0.0931244 -0.0620772 -0.195831
-0.180603 0.0633078 0.180184
0.0710943 -0.0688608 -0.297099
-0.140305 -0.118733 -0.0322071
-0.128951 0.123439 -0.217182
-0.190305 0.115921 -0.107935
0.178009 -0.118733 0.0284135
0.0241466 -0.172279 -0.339455
-0.125892 0.139123 -0.0211148
-0.0149322 -0.186248 0.200093
-0.137317 0.212769 0.330572
-0.108957 0.0130746 0.091772
0.18621 -0.102475 0.179968
-0.183971 0.0815724 -0.13491
-0.118055 0.0807907 0.218755
0.14563 -0.104765 -0.156476
-0.145793 -0.177812 -0.0981457
0.08721 -0.104765 0.294741
-0.0274933 -0.0126602 0.303387
0.19572 -0.174448 -0.249408
0.186363 -0.0373648 0.127604
-0.041637 -0.0349215 0.221684
0.183996 -0.118733 -0.252464
0.038435 -0.093526 -0.292523
-0.0317202 0.0679719 -0.219993
-0.197889 0.201909 -0.187589
0.173507 -0.0884318 -0.372496
-0.0931244 -0.0710347 -0.0473647
0.069843 -0.0727548 -0.325913
-0.0296396 -0.104765 -0.18298
0.0541337 0.142066 -0.324176
0.0304693 -0.172279 0.0964041
-0.0741213 -0.057704 0.291013
-0.0360378 0.21004 0.395777
0.113919 -0.104765 -0.223952
-0.0562681 0.194451 0.395777
0.18165 -0.0349215 -0.258943
-0.0328708 -0.00575638 -0.276817
0.0963055 -0.145754 -0.349215
0.104983 -0.172279 -0.0135332
0.00846162 -0.118733 -0.0381231
-0.150812 0.232533 -0.384414
0.14116 -0.104765 -0.109588
0.0140088 -0.0495112 0.291013
0.0476012 0.0887613 0.317014
-0.0284946 -0.118733 0.15817
-0.099897 0.0995021 0.264882
-0.124458 0.0674202 -0.158876
-0.0931244 -0.0805736 0.0848551
-0.0945215 -0.0943667 -0.174506
-0.117633 -0.118733 0.215069
-0.160337 -0.0465905 0.309055
0.161881 -0.0581405 -2.47356e-07
-0.0596842 -0.186248 -0.174303
0.0393557 -0.172279 0.0643708
-0.0276027 0.0568859 -0.312588
-0.126541 0.129838 -0.0842878
-0.183671 0.23281 -0.223154
-0.00910771 -0.0390748 -0.237554
-0.0354337 -0.0349215 -0.175743
-0.175867 0.0376241 -0.152595
-0.0180934 -0.0762503 -2.47356e-07
-0.0549191 -0.0349215 -0.222256
-0.0661234 -0.104765 0.123512
-0.121812 -0.118733 0.104247
-0.111114 -0.0408768 0.359279
-0.0472294 0.120519 -0.281343
0.078811 -0.039922 -0.363447
-0.0417228 0.0132051 0.190007
-0.104774 0.0384239 -0.373903
0.0078736 -0.0349215 0.224112
-0.117236 -0.172279 0.333381
-0.14163 -0.133993 0.349215
-0.0160428 -0.172279 0.229348
-0.101575 -0.0556019 0.170807
-0.151326 -0.16109 0.163933
-0.197889 0.183003 0.0647175
0.162176 -0.104765 0.0358739
0.034492 -0.104765 0.0357375
0.178302 -0.104765 -0.268363
0.12102 -0.186248 -0.216021
0.15226 -0.104765 -0.0719054
-0.0954525 -0.224807 -0.333921
-0.0180724 -0.0925676 -0.00177181
0.166968 -0.186248 -0.175002
-0.0551668 0.0558635 0.377119
0.0838115 0.177137 -0.37512
