ply
format ascii 1.0
comment Created by Open3D
element vertex 1608
property double x
property double y
property double z
end_header
-0.147689 -0.381247 0.00897294
-0.160342 0.049861 0.0858235
-0.065681 -0.0878692 0.146194
-0.151253 -0.374934 -0.146901
0.150548 -0.381859 0.0602783
-0.0850462 -0.0613072 0.0691401
0.146075 -0.202275 -0.133808
0.135358 -0.0424429 0.0114907
0.157752 -0.289436 -0.134898
-0.132046 -0.0569244 0.145704
0.140428 -0.315773 -0.135227
-0.168295 0.346085 0.169774
0.146534 -0.332009 -0.16639
0.0666192 -0.0613072 -0.107984
0.133761 -0.198509 0.147143
0.132248 -0.0774493 0.161169
-0.139433 -0.438582 0.155934
-0.153268 0.189512 0.0444145
0.156333 -0.376495 0.131463
0.147306 -0.0613072 -0.0298532
-0.160342 0.312751 0.0975027
-0.0703955 -0.0613072 0.0097997
-0.149904 0.283958 -0.0565916
-0.133468 -0.17508 -0.133762
-0.143836 0.318866 0.0305936
0.104179 -0.0613072 0.0193664
-0.152277 -0.370198 0.146901
-0.153268 0.291352 -0.0490518
0.169636 -0.0723437 -0.132201
0.151376 -0.353736 -0.11511
-0.136762 0.314017 0.00770098
0.13594 -0.372817 0.13735
0.156333 -0.36441 -0.0776361
-0.136762 0.0693089 0.0857256
-0.160342 0.0170793 -0.0574548
0.145477 -0.268872 -0.167179
-0.143365 -0.248362 0.134384
-0.0122877 -0.0613072 0.0776447
-0.154799 -0.050377 0.132046
0.047096 -0.0424429 0.129798
0.0421923 -0.0613072 -0.0458374
-0.143836 0.242034 -0.0116725
-0.149746 0.0409777 -0.169774
-0.136762 0.358364 0.031713
-0.132046 0.366253 -0.138705
0.0447718 -0.0424429 -0.00180522
-0.161107 -0.232245 -0.134183
-0.143836 0.125356 0.0412165
0.146194 -0.0911626 -0.0653955
-0.160342 0.0263881 -0.0697189
-0.153608 0.36168 -0.15091
-0.132046 -0.0607603 -0.140145
0.155936 -0.132506 0.168884
-0.143836 0.239747 0.0429545
-0.12317 -0.375251 0.146194
-0.0617702 -0.0424429 -0.0905639
-0.100745 -0.381176 0.153602
-0.165058 -0.098171 -0.0148691
0.134388 -0.0825917 0.169508
-0.160342 0.406149 -0.0639502
0.134613 -0.0424429 -0.145564
-0.138529 0.311208 -0.130901
-0.160342 0.0132787 0.0869098
-0.0925855 -0.0940574 0.165057
0.128016 -0.0424429 0.150285
-0.160342 0.0136004 0.115013
0.0630322 -0.378967 0.155301
0.0307729 -0.0613072 -0.103186
-0.142994 -0.438582 -0.144372
-0.132046 0.277016 -0.147404
-0.152837 -0.0613072 -0.0333493
-0.128835 -0.0613072 0.0962547
-0.153268 0.141342 0.0211165
-0.165426 -0.0424429 0.0821332
0.165057 -0.0677456 0.0499593
0.108655 -0.378412 -0.146342
0.146901 -0.372718 0.12062
0.15874 -0.300687 0.135039
0.0495908 -0.0990345 0.147949
0.0423713 -0.0424429 0.147048
-0.160342 0.333025 0.101619
0.135068 -0.0613072 -0.135119
0.0725851 -0.0613072 -0.10915
-0.13097 -0.0613072 0.0930148
-0.132046 0.0598231 0.164633
-0.141468 -0.199916 -0.168041
-0.169774 0.38684 0.151243
-0.169774 -0.0458855 0.0276544
0.120701 -0.0908264 0.146194
0.137991 -0.12065 0.169032
0.139114 -0.279948 0.134779
-0.0505663 -0.0613072 -0.098077
-0.169774 -0.0451698 -0.12606
-0.110984 -0.353889 0.150001
0.0783218 -0.38196 0.151703
-0.00339769 -0.0613072 -0.0659949
-0.136762 0.419517 -0.0363356
-0.169774 0.334827 -0.160143
0.12238 -0.0424429 -0.105552
-0.108028 -0.0613072 -0.0764229
0.0516545 -0.0424429 0.0475704
-0.160342 0.0479948 0.00972702
-0.143836 0.137325 -0.0102815
0.0232121 -0.0613072 0.00373413
0.0348136 -0.0838695 0.165057
-0.169774 -0.0495288 -0.145857
-0.143836 0.135905 -0.0318444
0.0983612 -0.353855 -0.152065
-0.082367 -0.0613072 0.111557
-0.132046 -0.0308697 0.16271
-0.153268 0.0686069 -0.0311704
-0.154589 0.311208 0.0862647
0.107652 -0.0613072 0.137453
-0.154919 -0.369378 0.0531214
0.134935 -0.292455 -0.159613
-0.141164 0.087068 0.169774
-0.143796 0.318143 -0.15091
-0.154141 0.153179 0.169774
0.0795926 -0.0613072 0.1614
-0.136762 0.347354 -0.0243734
0.168319 -0.177686 0.141331
0.060175 -0.0613072 -0.000944007
-0.134828 0.176057 0.169774
0.149327 -0.414761 0.136464
-0.139128 -0.29699 0.134992
-0.103727 -0.380603 -0.154257
-0.143836 0.234328 0.0227775
-0.069626 -0.0424429 -0.119667
-0.145487 -0.366585 0.100496
0.156333 -0.376833 -0.022572
0.102216 -0.0613072 0.139159
-0.00966926 -0.354312 0.15305
-0.165046 -0.0260742 -0.132046
0.163933 -0.196512 -0.168084
-0.160342 0.333456 -0.0561981
-0.083195 -0.0424429 0.117049
-0.0849823 -0.0613072 0.0525943
0.125532 -0.0613072 0.130666
0.147825 -0.380021 0.00713857
-0.138352 0.311208 -0.123082
0.167182 -0.268651 0.154869
-0.169774 0.0180159 -0.166996
-0.132046 -0.0235364 0.147638
0.111437 -0.368883 0.155625
0.0826494 -0.0424429 0.114995
-0.146482 0.291818 -0.169774
-0.144293 0.243448 0.169774
0.162316 -0.221465 0.167772
-0.168417 -0.169898 -0.153642
0.158276 -0.0613072 0.0172303
-0.132046 0.118296 0.15389
0.107326 -0.0424429 0.0553612
-0.0395498 -0.0613072 -0.10288
-0.168879 -0.13292 0.151839
-0.0509112 -0.0613072 -0.0899514
0.0689449 -0.0424429 0.0342766
-0.146233 -0.223491 -0.167747
-0.167317 0.138229 -0.169774
0.105954 -0.0424429 0.00273025
-0.150003 0.0885479 0.169774
0.127841 -0.353938 -0.14951
0.140381 -0.15306 0.168627
-0.149803 -0.0025475 0.169774
-0.0910767 -0.0507203 0.169774
-0.135404 -0.329914 0.166153
-0.0714191 -0.0424429 -0.130169
0.0559779 -0.0800028 -0.146194
-0.148974 -0.00678608 0.132046
-0.146031 -0.310735 0.166655
0.169774 -0.0451113 -0.166735
0.136195 -0.393247 -0.151696
-0.105221 -0.0613072 0.0160051
0.165057 -0.0616727 0.03221
-0.136762 0.320815 -0.149743
-0.155184 -0.0568389 -0.169774
-0.152249 -0.426088 -0.165214
-0.141243 0.206537 0.132046
0.124275 -0.093944 -0.165058
0.0886829 -0.0613072 -0.0270067
-0.165708 -0.294632 -0.134963
-0.146447 -0.380069 0.073422
0.15422 -0.0680606 -0.13213
-0.14762 -0.0613072 0.0807384
-0.136762 0.365417 -0.0248778
0.161933 -0.0666811 0.132113
-0.160342 0.382875 -0.0983135
-0.136762 0.339602 -0.042691
-0.0371107 -0.0613072 0.0267887
-0.166505 -0.32284 0.161778
-0.113291 -0.0613072 -0.108209
-0.0174526 -0.0424429 -0.0634479
-0.159627 -0.438582 -0.142079
-0.127483 -0.0424429 0.109969
-0.166162 -0.35028 0.144059
-0.0540528 -0.379398 0.155122
0.165057 -0.0834738 -0.127302
-0.132046 0.331573 -0.159397
-0.0770527 -0.0424429 -0.022143
-0.132046 0.30449 0.138655
-0.0022493 -0.0613072 0.0229927
0.139119 -0.143967 0.133079
-0.132046 0.375602 0.148392
0.103247 -0.356155 0.146815
0.100865 -0.0424429 -0.000517055
-0.168176 0.0472546 0.132046
-0.160342 0.025029 -0.101523
-0.137142 0.181295 -0.132046
0.16124 -0.417428 -0.165322
0.0230069 -0.0424429 0.102869
-0.160342 0.360087 0.00543478
0.165057 -0.0672982 -0.0581076
-0.143836 0.218144 -0.00547423
-0.167139 -0.272133 0.145101
0.143833 -0.41192 0.136429
-0.00968112 -0.0613072 0.00478921
0.0302047 -0.0786024 -0.165058
-0.165058 -0.0903121 -0.019502
-0.145487 -0.363459 0.105256
0.166456 -0.326702 -0.140851
-0.160342 0.432395 0.0272143
-0.165058 -0.086536 -0.099948
-0.112909 -0.0613072 0.144797
-0.0242996 -0.381544 -0.148978
0.15588 -0.292023 0.166889
-0.169774 0.166765 -0.132894
-0.139592 -0.0613072 0.118012
0.157869 -0.233404 -0.167623
0.167258 -0.262521 0.139202
-0.167198 0.274355 0.169774
0.133707 -0.0966212 -0.132487
-0.154919 -0.37208 0.0948006
-0.153268 0.310697 0.0219831
-0.0659495 -0.0613072 0.155656
-0.13312 -0.0424429 0.0857116
-0.100546 -0.0791138 0.146194
-0.141069 0.37385 -0.15091
-0.169038 -0.120163 -0.156407
0.0914364 -0.0613072 -0.143
-0.132445 -0.0931864 -0.154627
-0.0695179 -0.0424429 -0.0850857
0.0793084 -0.0424429 -0.0131099
0.00644778 -0.360006 -0.155626
0.165057 -0.0634016 -0.0212885
-0.155871 0.0727795 -0.00224607
-0.136762 0.334941 0.0685407
-0.16819 -0.188007 -0.145628
-0.133586 0.383669 0.132267
-0.150961 0.396996 -0.139743
0.133425 -0.171635 0.1416
-0.113307 -0.0990345 -0.149537
-0.143836 0.228775 -0.0452672
0.0901055 -0.0966641 -0.146194
-0.0526789 -0.0435006 0.169774
-0.132046 0.30599 -0.134982
-0.132046 0.0701463 0.139464
0.163656 -0.435541 -0.165096
0.0672689 -0.0613072 -0.124087
-0.132084 -0.0643762 0.146864
-0.14975 0.00199649 -0.150558
-0.100301 -0.0424429 0.00279057
-0.0551608 -0.0613072 -0.163067
-0.1496 -0.0613072 -0.0335931
-0.139403 0.311208 0.146016
0.148568 -0.116005 -0.13273
0.0414055 -0.0613072 -0.0591408
-0.0970496 -0.0424429 -0.144887
0.165057 -0.0949898 -0.128654
0.157689 -0.0613072 -0.167571
-0.135008 -0.298228 -0.149774
0.165156 -0.248872 -0.134391
0.165057 -0.0908631 -0.0690484
-0.146194 -0.0800802 0.110228
0.132759 -0.118353 -0.164259
-0.168977 -0.125051 0.134147
-0.13263 -0.108001 -0.135428
-0.132046 0.0232744 0.132161
0.117138 -0.0424429 -0.116375
0.145756 -0.0424429 0.0579038
-0.160514 -0.0613072 0.127332
-0.145487 -0.372709 -0.00210045
-0.143836 0.176239 -0.000202576
0.167858 -0.21455 0.143903
-0.166054 -0.358933 -0.136374
-0.146523 -0.373325 0.155625
-0.135106 -0.306102 -0.156726
-0.133239 -0.156714 -0.153334
-0.154226 -0.0427377 -0.169774
-0.118879 -0.0834812 -0.165058
-0.136762 0.381149 -0.142524
-0.16712 -0.273655 -0.138077
-0.153268 0.083393 0.0401813
-0.145115 -0.0613072 0.0208778
-0.150226 0.0871587 -0.169774
-0.160342 0.0131314 0.111717
-0.160342 0.011354 -0.14726
-0.0503398 -0.077914 -0.165058
0.156721 -0.295877 0.134978
-0.136762 0.38537 0.118571
0.168179 -0.188917 0.139826
0.167531 -0.0857633 0.169468
-0.132046 0.231162 0.141536
0.0746919 -0.0693034 -0.146194
0.168348 -0.175358 0.144844
-0.00275313 -0.0613072 0.0869297
0.0841162 -0.0613072 0.0254225
-0.143836 0.244166 -0.0275452
0.146861 -0.0990345 -0.129472
-0.143836 0.153505 0.0208547
-0.153268 0.240548 -0.0491587
0.155594 -0.0750026 -0.132217
-0.165587 -0.396282 0.162534
0.148652 -0.354802 0.0511782
0.142409 -0.272114 -0.167139
-0.0215813 -0.0613072 0.131832
-0.166061 -0.358337 -0.158278
-0.161255 -0.0990345 0.0902888
-0.142044 -0.126652 -0.132863
-0.132046 0.171196 -0.164653
-0.0115803 -0.0613072 -0.138119
0.146194 -0.0826916 -0.0556881
-0.163843 0.293065 -0.132046
-0.160342 0.063474 -0.132634
-0.138089 -0.0424429 0.106146
-0.148049 0.437854 -0.0107702
-0.163535 -0.118542 -0.169059
0.168244 -0.183653 0.138831
0.16949 -0.0840161 -0.169405
-0.0335569 -0.0424429 0.0925295
-0.154919 -0.375665 0.0895025
0.140633 -0.0801491 -0.132282
-0.143607 -0.291288 0.166899
0.132271 -0.0792894 0.162091
0.018717 -0.0613072 -0.0612247
0.134607 -0.266156 -0.154224
0.0200724 -0.0749228 0.146194
0.150995 -0.304869 -0.135091
0.167036 -0.0613072 0.135104
-0.138123 0.00199649 -0.0350098
-0.143836 0.162494 -0.0564918
-0.169774 0.310183 -0.144454
-0.0898959 -0.0613072 -0.148996
-0.136486 -0.416517 0.151982
-0.0371863 -0.0424429 0.118043
-0.152876 0.329283 -0.15091
-0.16972 -0.0655869 0.134942
0.0368611 -0.0424429 0.1643
0.101228 -0.0424429 -0.0788733
-0.124507 -0.0990345 -0.15667
0.134321 -0.24331 0.13822
-0.0520848 -0.0613072 0.0441675
-0.148672 0.19253 -0.169774
0.101094 -0.0880556 -0.146194
-0.132046 0.221836 0.156226
0.124683 -0.0613072 -0.0235594
-0.132046 0.23351 -0.153423
0.146901 -0.373547 0.0814371
-0.0298676 -0.0613072 -0.131694
-0.160342 0.362006 0.00508072
0.0995486 -0.0424429 -0.0987988
-0.13391 -0.210415 0.160347
-0.138479 -0.335263 -0.135471
0.0494354 -0.068704 0.165057
-0.159255 -0.256941 0.167328
-0.159793 -0.350238 0.166162
-0.153531 -0.0613072 -0.066185
-0.148653 0.00199649 -0.13533
-0.143836 0.306776 0.000735791
0.119037 -0.0613072 -0.0879935
-0.0513441 -0.0424429 -0.00535827
-0.146194 -0.0816715 0.0158635
-0.153268 0.0704323 -0.0208734
-0.0119984 -0.0424429 -0.0729021
-0.145487 -0.365979 -0.0944693
-0.165058 -0.0818214 -0.0804123
-0.123832 -0.0424429 -0.132459
-0.136762 0.334923 -0.00348073
-0.166996 -0.283567 -0.151269
0.151927 -0.381958 -0.0462482
-0.135987 -0.376622 -0.164517
-0.0227207 -0.0424429 0.149845
-0.0396381 -0.0424429 -0.0601899
-0.135339 -0.179355 0.133521
0.13581 -0.0613072 0.0130354
-0.136762 0.05801 -0.0509563
-0.085813 -0.0424429 -0.103478
0.152215 -0.0613072 -0.145866
0.165062 -0.438199 -0.15493
0.0159301 -0.0613072 -0.166582
-0.0575351 -0.08742 -0.165058
0.153513 -0.0613348 -0.132046
0.169044 -0.119718 -0.152391
0.152039 -0.0613072 -0.0199801
-0.169774 0.336832 0.147485
-0.083804 -0.360767 0.155625
-0.0637563 -0.0613072 -0.138902
-0.132317 -0.0830178 0.166458
-0.14123 0.269305 0.169774
-0.155985 -0.0211043 0.169774
-0.136762 0.0583643 -0.130116
0.148989 -0.0424429 0.0971211
-0.0725758 -0.0424429 -0.134173
0.0253268 -0.0642349 0.165057
-0.0340539 -0.354451 0.153332
-0.169774 0.201617 -0.159686
-0.00451251 -0.0424429 0.107937
0.148089 -0.0424429 0.0973704
0.0191424 -0.0544661 0.169774
0.148972 -0.0424429 0.155912
-0.134491 -0.256909 -0.165412
-0.149385 -0.0424429 -0.100328
0.135969 -0.375166 -0.145314
-0.133574 0.24733 0.132046
-0.068487 -0.0424429 -0.107466
0.0220985 -0.357425 -0.146324
-0.169774 0.398221 -0.148447
-0.134342 0.172467 0.169774
-0.143836 0.120978 -0.0215059
-0.107321 -0.0424429 0.128835
0.0122269 -0.0424429 -0.0966764
0.169774 -0.0438661 0.00797155
-0.146194 -0.0757322 -0.0144954
-0.144367 0.311208 -0.0568759
0.152943 -0.381795 -0.115528
-0.167841 -0.141651 -0.13305
-0.0783411 -0.0424429 -0.0934592
0.151313 -0.0424429 -0.142962
0.0978768 -0.0613072 -0.0857888
-0.0558037 -0.381421 0.148535
-0.160342 0.0370174 0.0528633
0.0799157 -0.0532175 0.169774
-0.143836 0.285142 -0.0551324
0.0679589 -0.0613072 0.139179
-0.141258 -0.0613072 0.100894
0.143259 -0.0424429 -0.137658
0.154928 -0.361921 0.166015
-0.1032 -0.356341 -0.14671
-0.159902 -0.0424429 0.0721596
0.165057 -0.091592 0.0401055
0.146487 -0.0858451 0.132353
-0.169774 -0.0115848 -0.133186
-0.0560234 -0.0613072 -0.168235
-0.158339 0.189505 0.132046
-0.136762 0.370648 -0.0324037
-0.160342 0.0660529 -0.0156834
-0.157076 0.191548 -0.169774
-0.160342 0.352558 0.0809451
-0.165713 -0.386224 0.141407
-0.156054 -0.412751 -0.13644
-0.160342 0.351806 -0.00258283
0.0625561 -0.356462 0.155133
-0.146908 -0.361069 -0.154378
0.165057 -0.0764197 0.00912686
0.134057 -0.222181 0.149193
-0.14101 0.0727795 -0.11176
0.14968 -0.381542 -0.141165
-0.143836 0.0828828 0.0479398
0.0638897 -0.0424429 -0.0768197
0.117349 -0.0613072 -0.0419201
-0.169774 -0.0519056 -0.1458
-0.153268 0.310932 -0.0024946
0.161573 -0.0990345 -0.0113926
-0.14888 -0.0613072 -0.0114041
0.0645967 -0.375182 0.146194
-0.161195 0.0431837 0.169774
-0.132948 -0.133495 -0.159395
-0.154305 0.311208 -0.0870799
0.156255 -0.311716 0.166643
0.119776 -0.0424429 0.00315939
-0.147713 -0.242943 -0.167504
0.161109 -0.11963 -0.169045
0.103208 -0.361889 -0.155626
-0.153268 0.192198 0.0307007
-0.153268 0.263683 -0.0367577
-0.169774 0.153291 0.132319
-0.146194 -0.0738856 0.0102602
0.0884264 -0.372814 0.146194
-0.136762 0.0376312 -0.0130546
0.113133 -0.381599 -0.152708
-0.140526 0.344982 0.150909
0.104907 -0.0424429 -0.0313791
-0.153268 0.152596 0.0372885
-0.094398 -0.0613072 0.00136119
0.150642 -0.353832 -0.0836748
-0.151742 0.0727795 -0.136765
-0.157483 0.243341 -0.132046
-0.169774 0.270188 0.145323
0.151316 -0.0613072 -0.0317615
-0.0215824 -0.0424429 -0.0155821
0.0388967 -0.0990345 0.153971
-0.160342 0.374886 0.0728438
-0.0634435 -0.0424429 0.101329
0.14161 -0.424086 -0.165239
-0.0577723 -0.0424429 -0.168554
-0.160342 0.423184 -0.00799843
0.133246 -0.157323 -0.146143
-0.153268 0.0644363 -0.0104166
0.145219 -0.214907 0.167854
-0.14779 0.30497 -0.0565916
0.165532 -0.336846 0.166329
-0.136762 0.409015 -0.0946444
0.161918 -0.21747 -0.133998
-0.140123 -0.109033 0.132643
0.136222 -0.395408 0.137198
0.156199 -0.357404 0.14154
0.1482 -0.139692 -0.168794
-0.149203 0.0727795 0.148246
-0.0234275 -0.364319 -0.155626
0.0524281 -0.0613072 0.161307
-0.134984 -0.296325 -0.164376
-0.160342 0.0671851 -0.148917
-0.165292 -0.419894 0.154658
0.0858704 -0.376521 0.146194
-0.166339 -0.320147 0.166538
0.146194 -0.0729982 -0.0330265
0.0863505 -0.0613072 -0.141929
-0.138969 -0.356088 0.154963
-0.137713 -0.403576 0.136324
-0.0897 -0.0613072 -0.154866
-0.136762 0.0677473 -0.139195
-0.132046 -0.042327 -0.158616
-0.154667 -0.358459 -0.146901
-0.0648015 -0.0660135 -0.146194
0.165057 -0.0817226 -0.104676
0.0393188 -0.0424429 -0.0316702
-0.160342 0.405396 0.0922807
-0.136349 -0.405562 0.14857
-0.169441 -0.0879539 0.164948
-0.0302788 -0.0424429 -0.00354302
-0.136762 0.059224 0.0228281
-0.144391 0.256909 -0.132046
0.167275 -0.261173 -0.160057
0.166234 -0.344406 -0.160351
-0.169774 -0.0519771 0.0918264
0.0713759 -0.0930507 0.165057
-0.0139221 -0.0424429 -0.147617
-0.169774 -0.0574583 0.0860392
0.0223559 -0.0613072 -0.166312
0.0275757 -0.0990345 0.149033
-0.155258 0.117699 -0.132046
0.141962 -0.0613072 -0.0590817
-0.139245 -0.437536 0.16507
-0.147479 -0.0613072 -0.0914204
-0.0652242 -0.0424429 -0.12035
0.145479 -0.376793 0.150962
-0.145487 -0.364618 0.101022
-0.105509 -0.0424429 -0.131184
0.0465991 -0.0424429 0.00625087
-0.0944808 -0.0613072 -0.1239
0.152136 -0.0613072 0.165594
-0.162478 -0.16468 -0.168482
-0.160342 0.333359 -0.00790239
-0.136762 0.0618342 -0.0760692
-0.142102 -0.0424429 -0.101713
-0.160342 0.0303198 -0.13766
0.139154 -0.424434 0.165234
-0.132046 0.347458 0.144547
-0.136762 0.408815 -0.0157341
-0.169774 0.216507 0.161025
-0.169774 -0.0587737 0.0439205
-0.100404 -0.0778584 0.165057
-0.160342 0.040927 0.115023
-0.0154782 -0.0424429 -0.0458253
-0.153268 0.103371 0.0133561
-0.132046 0.239543 0.151808
0.167671 -0.229515 -0.165234
-0.139302 0.311208 -0.0217964
-0.150551 0.0038822 0.150909
-0.148008 -0.25509 0.134468
0.0669458 -0.0613072 -0.00524584
-0.160342 0.415057 -8.69595e-05
-0.152256 0.289696 -0.169774
-0.143836 0.232079 -0.0153863
-0.0856876 -0.0613072 -0.0757983
-0.136762 0.0574465 0.108879
0.169774 -0.0606742 0.154543
0.134768 -0.279058 0.142491
0.169774 -0.0513771 0.118843
-0.132046 0.381819 -0.157225
-0.136762 0.0556931 0.0359955
-0.132046 0.221502 0.144742
0.156333 -0.376356 0.103418
-0.160342 0.376315 -0.0907221
0.00582992 -0.0424429 0.159544
-0.136762 0.354728 0.0822063
-0.132046 0.210855 0.159425
-0.152772 0.363714 0.169774
0.135755 -0.0424429 0.0554341
-0.136762 0.0654183 0.0804271
-0.134602 0.296741 -0.132046
-0.132095 -0.0652099 0.148923
0.134957 -0.294196 -0.153805
-0.145487 -0.363869 -0.0760803
-0.160342 0.315299 -0.0397637
0.165826 -0.0424429 -0.0268761
-0.14548 -0.379832 -0.150605
-0.155518 0.0727795 0.0886762
-0.167442 -0.0552736 0.132046
0.152117 -0.381933 -0.117689
-0.0324928 -0.0943735 0.165057
0.148626 -0.361441 0.166021
-0.021877 -0.0902984 0.146194
0.10956 -0.0613072 -0.153696
0.141097 -0.364253 0.165986
-0.14577 0.12295 -0.132046
0.0238489 -0.0510422 0.169774
0.110467 -0.0424429 0.0576266
-0.142434 -0.0424429 0.00788593
-0.0680402 -0.0613072 0.0906223
-0.0227917 -0.0613072 0.1596
0.125833 -0.0424429 -0.15217
-0.132046 0.263001 -0.14693
-0.143836 0.238745 0.0101964
-0.0552763 -0.0613072 -0.152057
-0.132046 0.156266 -0.153301
-0.0716101 -0.0613072 0.0343674
0.123303 -0.0613072 0.00100541
0.122835 -0.0424429 -0.151888
-0.148344 -0.146534 -0.133111
-0.00306842 -0.0424429 -0.160846
-0.136762 0.319921 -0.0411636
-0.160342 0.360789 -0.108037
-0.0243552 -0.0424429 -0.0774219
0.164097 -0.118199 -0.132757
-0.169109 -0.114539 0.146758
0.146194 -0.0626309 0.0229544
0.100751 -0.0613072 -0.136625
-0.137792 -0.174252 -0.168362
0.144996 -0.0650955 -0.169727
-0.153268 0.18483 -0.0548483
-0.0482923 -0.0990345 0.150591
-0.154046 0.0727795 0.0491325
0.149426 -0.281802 0.134802
-0.165058 -0.0701111 0.0752022
-0.160342 0.343759 -0.0391297
-0.145487 -0.370878 -0.0875465
-0.136762 0.314817 0.0482114
-0.169774 0.06426 0.149782
0.139577 -0.377619 0.136
-0.0513039 -0.0613072 -0.158762
-0.169774 0.384831 -0.143159
-0.124711 -0.0424429 -0.152146
0.149308 -0.0613072 -0.12976
-0.160342 0.00833436 -0.137525
-0.132046 0.00427549 -0.164164
-0.1447 -0.226312 0.167711
-0.0410425 -0.0677811 0.165057
-0.16541 0.0232798 0.132046
-0.132046 0.0214613 -0.136412
-0.0415559 -0.0424429 0.0409977
-0.136762 0.324714 0.10754
-0.16763 -0.232785 0.138922
-0.132829 -0.12398 0.14784
-0.136762 0.0705294 -0.133321
-0.137722 -0.188007 -0.13363
-0.0778884 -0.0613072 -0.146416
-0.119595 -0.0424429 -0.0151676
-0.136762 0.379668 0.0559129
-0.143836 0.311938 0.000207093
-0.153268 0.122208 0.0131001
-0.160342 0.359182 -0.148502
-0.0310675 -0.359785 0.155625
-0.160342 0.386905 -0.0773531
0.0646167 -0.0613072 -0.162336
-0.153268 0.255994 0.0130371
-0.049993 -0.0613072 -0.116429
0.146194 -0.0915566 -0.113079
0.0867389 -0.0424429 -0.0740823
0.162642 -0.247462 -0.134373
-0.152555 -0.381369 0.143305
-0.139951 -0.267582 0.167195
0.111208 -0.0755144 0.146194
-0.162437 -0.438582 0.1464
-0.0782936 -0.37752 -0.155595
-0.160342 0.0367439 0.142622
-0.145487 -0.372937 -0.0543086
-0.136762 0.0195453 -0.0439312
-0.158724 -0.0424429 -0.118586
-0.169774 0.174482 0.148526
-0.139738 0.311208 0.0677284
-0.136762 0.385049 -0.0998121
0.156333 -0.362032 -0.0182856
0.148758 -0.0613072 0.0485212
-0.1383 0.226996 0.132046
-0.136762 0.0417621 -0.0987539
-0.136762 0.338332 0.109276
0.0526161 -0.0613072 -0.16528
-0.10997 -0.0845811 -0.146194
-0.138496 -0.0588242 -0.132046
0.00976937 -0.0424429 -0.0779405
0.165057 -0.0675934 -0.0173505
-0.136762 0.0659117 -0.123061
-0.147756 -0.381299 -0.143664
-0.0158834 -0.0866774 0.165057
0.142037 -0.0613072 0.124282
-0.156136 0.398714 -0.159407
-0.169774 -0.0601789 0.0574876
-0.145641 -0.0683866 0.132134
-0.159228 0.0620308 -0.15091
0.136288 -0.400658 0.162165
0.168442 -0.0613072 0.0360025
0.144635 -0.288622 -0.166933
0.00484213 -0.0874912 -0.165058
0.0230019 -0.0613072 -0.148482
-0.167285 -0.0859808 -0.169466
0.109847 -0.0829837 -0.146194
-0.124038 -0.0816408 0.165057
-0.136762 0.429238 0.0107965
0.168159 -0.190447 0.166826
-0.145487 -0.364378 0.0698505
0.165057 -0.076192 -0.0177046
-0.167088 0.091578 0.132046
0.113959 -0.0710617 -0.165058
-0.142368 0.143551 -0.132046
0.149937 -0.0613072 0.101269
-0.132459 -0.09436 0.149492
0.142051 -0.265421 0.167222
-0.160342 0.0319818 0.150826
0.147042 -0.438582 0.157177
-0.136762 0.407936 0.0685066
-0.155429 0.259791 0.169774
-0.160389 0.0300427 0.132046
0.079802 -0.0828521 -0.165058
0.0774534 -0.0424429 0.0382353
0.146194 -0.0727371 -0.113402
0.146901 -0.359153 -0.114677
-0.15007 0.0987654 0.169774
0.168068 -0.197757 -0.137909
-0.169774 -0.00957335 0.161106
0.166764 -0.30208 -0.158295
-0.132046 -0.00905494 -0.15931
-0.153268 0.0991058 -0.0429356
-0.153268 0.0943005 0.0456258
-0.132046 0.129557 -0.153019
0.132586 -0.104545 0.132646
-0.169774 0.360397 -0.16746
0.153531 -0.0990345 0.0460153
-0.132046 0.23799 -0.165267
-0.154016 -0.256636 0.167332
0.154404 -0.0854195 -0.132347
-0.136762 0.0586722 0.0971493
0.145479 -0.364967 -0.147432
-0.0849923 -0.0424429 0.0722571
-0.00820071 -0.0424429 0.0812072
-0.160342 0.33962 -0.0982442
-0.160342 0.394073 -0.0801624
-0.160342 0.380282 0.0720151
0.169774 -0.0524849 -0.0475191
0.146194 -0.0977518 -0.0209227
-0.169774 -0.0302814 -0.145096
0.133478 -0.175884 -0.154577
0.158734 -0.0825183 -0.132311
0.072451 -0.0424429 0.0451143
-0.169774 0.0782181 0.157665
0.143729 -0.0424429 0.03739
0.156728 -0.242463 -0.16751
-0.145238 0.159839 -0.169774
-0.131454 -0.0613072 0.0706273
-0.11562 -0.0424429 -0.143157
-0.159207 0.00199649 0.121708
0.149007 -0.381174 -0.137344
-0.165084 -0.0104661 0.132046
-0.140614 -0.245355 0.167473
-0.132046 -0.0365718 0.166581
-0.0592055 -0.373493 0.155625
0.151055 -0.336373 0.135484
0.169774 -0.0444458 0.0169303
-0.160342 0.356145 0.044741
-0.160342 0.313123 -0.12922
0.136421 -0.272323 0.167136
-0.160342 0.433148 0.0092351
-0.104041 -0.0424429 -0.144472
0.132324 -0.0835551 -0.151362
-0.169774 0.0903167 0.143534
-0.14738 0.183946 0.169774
-0.160342 0.0203303 0.0867041
-0.136762 0.0386026 0.0604258
0.156333 -0.363224 -0.0786066
-0.136762 0.407222 0.0628504
-0.160342 0.349023 0.0437167
-0.160342 0.00904667 0.00661673
-0.132046 -0.0215143 -0.156205
-0.136762 0.407755 -0.0770982
0.0257387 -0.0424429 0.0437064
0.137181 -0.269328 -0.134647
-0.132046 0.220147 -0.161426
-0.160342 0.00751797 0.0572082
-0.132046 0.334359 0.150782
0.12188 -0.0613072 -0.0867583
-0.0100147 -0.0424429 -0.155086
-0.136762 0.0289525 -0.0618325
0.165246 -0.0613072 -0.147316
0.0185141 -0.0424429 -0.0996266
-0.169774 0.0359467 -0.146912
-0.153268 0.300867 0.00943625
-0.136762 0.0506912 -0.0853398
-0.136762 0.331995 0.132583
0.164422 -0.315955 0.16659
0.0294665 -0.358146 -0.15559
0.165626 -0.393107 -0.148026
0.0998969 -0.365972 -0.155626
-0.157443 0.0685309 -0.15091
-0.154241 -0.407918 0.16544
-0.145487 -0.373585 -0.0371158
-0.163138 0.352116 0.169774
0.157002 -0.271109 0.134669
0.146194 -0.0638395 0.023632
-0.143836 0.308381 0.000172483
-0.146194 -0.0775557 0.022237
-0.132046 0.0621501 -0.153557
-0.0757341 -0.368133 -0.155626
-0.136762 0.0516675 0.11301
0.159729 -0.20971 0.133901
-0.153268 0.190061 0.0133669
-0.162612 -0.420795 -0.16528
0.156988 -0.0990345 -0.0270411
-0.160342 0.370623 -0.0649077
-0.0312735 -0.0613072 0.102683
-0.143836 0.260742 -0.0418454
-0.0791745 -0.0424429 -0.124217
-0.132046 -0.0344798 0.143845
-0.04477 -0.0424429 0.0412613
-0.145487 -0.361039 -0.126671
0.14617 -0.144121 -0.168739
-0.160342 0.0198822 0.121396
-0.136762 0.0427329 -0.1241
-0.165058 -0.0794098 -0.121589
-0.0472669 -0.0613072 0.0776122
-0.139092 0.250329 -0.169774
0.133263 -0.0424429 -0.116286
-0.165329 -0.269412 -0.167173
0.158938 -0.0613072 0.00462075
-0.146747 -0.195399 0.133722
0.160986 -0.295173 0.134969
-0.165058 -0.0643751 -0.0524591
0.00882284 -0.0613072 0.0908583
-0.136762 0.0576713 -0.13241
-0.169774 -0.00546332 -0.163627
-0.160342 0.04835 0.141011
-0.15136 -0.381847 0.0164612
-0.111058 -0.0424429 0.0708905
-0.0361679 -0.0613072 0.0666823
-0.151679 0.23007 -0.169774
-0.136762 0.38242 -0.110447
-0.160342 0.015632 -0.112802
0.165019 -0.0613072 0.0717521
-0.157077 0.438384 -0.00292289
-0.132046 0.031209 -0.158777
0.156333 -0.365294 0.0322663
0.0134675 -0.0613072 -0.0590475
0.154763 -0.172976 -0.133442
0.0747234 -0.0424429 -0.0802104
0.165057 -0.0927408 0.0240863
0.166434 -0.205903 0.133853
-0.136762 0.0441165 0.0622919
0.140338 -0.328639 -0.166432
0.1492 -0.381321 -0.138391
0.164705 -0.0990345 -0.00897544
-0.169774 0.0721503 0.156533
-0.146616 -0.355413 0.0205458
-0.133874 -0.20753 0.164241
0.0219792 -0.0990345 -0.153793
-0.153917 -0.0835178 0.132324
0.133576 -0.0424429 0.078
-0.150054 0.0727795 0.0913491
-0.15821 0.428433 0.0587314
-0.16573 -0.297215 -0.134995
0.0662146 -0.0424429 -0.0502627
-0.125593 -0.0424429 -0.131424
-0.136762 0.434359 -0.0188719
-0.143836 0.182418 0.0369916
-0.135894 -0.369162 0.137858
0.0580673 -0.0613072 -0.016538
0.0470152 -0.0613072 0.150316
0.146194 -0.092903 -0.0808164
-0.0498246 -0.0818128 0.165057
-0.14395 -0.0613072 0.0833533
-0.0151516 -0.0739107 -0.165058
-0.157523 0.427911 0.0602204
0.152548 -0.318966 0.166553
-0.160342 0.330357 -0.0740026
0.146781 -0.0553664 -0.169774
0.0854876 -0.0980237 0.146194
0.000943972 -0.0613072 -0.029083
-0.143836 0.247852 0.0459127
-0.153268 0.170759 -0.0243955
-0.113623 -0.0759097 -0.146194
-0.000926569 -0.0613072 -0.0923041
0.158335 -0.0424429 -0.0756873
0.141419 -0.27176 -0.167143
-0.136762 0.39025 0.0806078
-0.151392 0.0591948 0.150909
-0.132046 0.181569 -0.149508
0.152181 -0.351449 0.135673
-0.0765229 -0.0424429 -0.0526901
0.140551 -0.37988 -0.14701
-0.160365 0.290221 0.169774
-0.160342 0.361479 -0.0653869
0.0458978 -0.0613072 -0.149523
-0.136762 0.398633 0.010846
-0.10522 -0.0990261 -0.146194
0.155845 -0.112349 -0.132684
0.152351 -0.298972 0.135017
-0.169774 0.100123 0.166057
-0.139477 -0.165715 0.133351
-0.136762 0.0580002 -0.00747974
0.109136 -0.0990345 0.15183
-0.136762 0.0598101 -0.00660008
-0.136762 0.414521 -0.0895414
-0.145831 0.420047 -0.0792515
0.0973646 -0.0613072 0.0487749
0.131956 -0.0424429 0.114714
-0.143836 0.0829604 -0.00795521
0.127787 -0.0613072 -0.158111
0.0490467 -0.0424429 0.00065469
0.155264 -0.0990345 0.0945883
-0.160673 0.218731 0.132046
0.135848 -0.0613072 0.0319024
-0.136762 0.326249 -0.000599124
-0.158247 -0.391228 0.165649
0.0673799 -0.0907463 -0.146194
-0.132046 0.120259 0.160174
-0.134444 0.301775 0.132046
-0.160342 0.399472 0.0665521
-0.136762 0.399807 -0.10039
-0.148181 -0.0613072 -0.0749101
0.0919888 -0.357135 -0.15544
-0.14335 0.00199649 0.0898394
0.168949 -0.0586439 -0.169774
-0.136762 0.353422 -0.130383
-0.132046 0.158384 0.161001
-0.132046 0.383458 -0.152044
-0.143836 0.130038 -0.0442709
-0.143884 0.0727795 -0.104666
0.0622555 -0.0613072 -0.103181
-0.153787 0.201412 0.169774
-0.0456331 -0.376698 -0.146194
-0.165226 -0.0424429 0.0093862
-0.143836 0.214241 -0.0355083
0.132214 -0.0747607 0.158119
-0.160342 0.393843 -0.01934
-0.069197 -0.0613072 0.0668996
-0.143836 0.152868 0.0380891
0.157671 -0.0467522 0.169774
-0.00412142 -0.36945 0.146194
-0.160342 0.0680113 0.0335417
-0.169774 0.238672 0.154678
-0.166957 -0.286647 0.154003
-0.13209 -0.0648616 -0.157875
-0.165502 -0.0929291 0.169379
-0.161881 0.172919 0.169774
0.169247 -0.103495 -0.141727
0.134062 -0.0424429 0.043824
-0.152164 0.0245364 0.169774
-0.136762 0.0219998 -0.107508
-0.0994374 -0.0424429 0.103216
-0.125239 -0.0613072 0.0757204
-0.152029 -0.354115 -0.0639072
-0.14185 -0.335294 -0.166349
0.133054 -0.0424429 0.0128057
0.0398073 -0.0613072 0.10539
-0.160342 0.369035 0.0900898
-0.0457847 -0.0868529 -0.165058
-0.160342 0.0687536 -0.130283
-0.165058 -0.0759215 -0.116183
0.0289437 -0.0613072 0.161614
-0.136762 0.00986802 -0.0637077
-0.160342 0.00724882 0.0161199
-0.153268 0.170346 0.015511
-0.169774 0.16185 -0.143936
-0.0321445 -0.0786606 0.146194
-0.160342 0.0207129 -0.0947385
-0.0664654 -0.381245 -0.148393
-0.169774 0.326843 0.169231
-0.0103764 -0.0613072 -0.0348447
-0.0568759 -0.0613072 0.162333
-0.141971 0.106977 0.132046
-0.147742 -0.0450471 -0.169774
0.13674 -0.367892 -0.155626
0.150204 -0.438582 -0.138757
0.165057 -0.0970603 0.1028
0.148003 -0.100402 -0.132535
-0.153288 -0.0613072 -0.0466378
-0.168118 -0.0424429 -0.00690716
0.155485 -0.379923 -0.112591
-0.146194 -0.0768855 0.0777099
-0.160342 0.365057 -0.0219012
-0.160342 0.0640668 -0.0155846
0.165875 -0.373147 0.145756
-0.0265816 -0.0424429 0.16713
-0.153268 0.0987329 -0.0176634
0.104901 -0.0613072 -0.0893766
-0.133504 -0.177922 0.151238
0.0753054 -0.0424429 0.00309205
0.169546 -0.0795214 0.142025
-0.145616 0.159739 0.169774
-0.136762 0.0283672 -0.135947
-0.143836 0.299548 0.0397548
-0.160342 0.405947 0.0228963
-0.154919 -0.367614 0.0207793
-0.159861 -0.0424429 -0.10243
0.0971573 -0.0613072 -0.113804
0.0617762 -0.0613072 0.0971314
0.134278 -0.239847 -0.1442
0.138467 -0.161409 0.133297
-0.136762 0.00219682 0.0221016
-0.146194 -0.0885963 -0.0731534
0.127508 -0.052098 -0.169774
-0.160342 0.0520101 -0.0977787
-0.00702329 -0.0655847 -0.146194
-0.151984 -0.240158 -0.167538
0.00240001 -0.0613072 -0.0661635
0.0571797 -0.0424429 -0.132554
-0.14624 0.329233 0.150909
-0.126055 -0.0613072 0.122998
-0.136762 0.0303825 0.142986
-0.140944 0.410313 0.0970911
-0.136776 -0.0859241 -0.169466
-0.097582 -0.0424429 0.0463931
0.0688343 -0.080734 -0.146194
-0.148392 -0.318907 0.166553
-0.118821 -0.080535 -0.146194
-0.146493 0.311208 0.138589
-0.169774 0.00231369 -0.166426
-0.136762 0.340487 -0.0526994
-0.153541 0.378161 -0.15091
0.074141 -0.0613072 -0.129362
-0.169774 0.357812 0.144725
-0.0950247 -0.0990345 0.158968
-0.143836 0.316245 -0.00861047
0.0366887 -0.0424429 -0.158875
-0.169774 0.34269 -0.162158
0.162426 -0.189956 -0.133654
-0.153734 0.376331 -0.15091
-0.151268 0.0633477 0.041092
0.147546 -0.356045 0.0633081
-0.169774 0.118975 -0.167005
-0.160342 0.352185 -0.14575
-0.160342 0.392795 -0.0676841
-0.146194 -0.0699589 0.116437
0.146901 -0.366496 0.0954501
0.121867 -0.365297 -0.146194
-0.169341 -0.0959552 -0.166622
-0.159327 -0.0613072 -0.0542841
-0.166072 -0.0613072 0.0608148
-0.0530063 -0.0980899 0.165057
-0.160342 0.352287 0.141559
-0.148748 -0.380975 -0.143649
-0.132046 0.365408 0.161033
-0.143836 0.184643 -0.0420668
-0.146194 -0.0635795 0.120357
-0.169774 -0.046159 0.125239
-0.136762 0.387016 -0.0228005
0.0547353 -0.0424429 0.0776095
-0.136762 0.362108 0.0866801
0.0301788 -0.0990345 0.154478
-0.111239 -0.0424429 -0.15414
-0.145908 -0.356568 0.0155752
-0.153268 0.264454 -0.0441676
-0.166576 0.25656 0.169774
-0.0118509 -0.0424429 -0.137993
-0.115149 -0.0424429 0.0972325
-0.146457 0.0633477 0.049413
-0.161825 -0.187114 0.168201
0.160038 -0.0613072 -0.0146008
0.105423 -0.0424429 -0.120546
-0.0778913 -0.361006 -0.155626
0.132134 -0.0683286 0.138787
0.165647 -0.391408 0.151731
-0.136314 -0.402723 0.163099
0.16741 -0.250385 0.149425
0.167127 -0.273052 -0.136807
-0.0442358 -0.0472674 -0.169774
-0.089647 -0.0613072 0.0947709
-0.149064 0.364172 0.169774
0.154594 -0.0424429 0.137503
-0.0223351 -0.0613072 0.0457606
-0.141518 0.214607 0.132046
-0.146194 -0.0657872 0.0827224
-0.149932 0.381991 0.134169
-0.0688436 -0.0613072 0.0287023
-0.132046 0.102691 -0.148015
0.09209 -0.0613072 -0.0866284
0.0999473 -0.0613072 -0.028719
-0.151499 0.00199649 0.0559056
-0.0302824 -0.0613072 -0.138817
0.159619 -0.0613072 -0.147953
-0.160342 0.354438 0.000546973
-0.0192551 -0.0613072 -0.124987
-0.150127 -0.413223 0.136445
-0.136762 0.0345555 -0.0534898
-0.148821 -0.381772 0.0807011
-0.153268 0.299116 0.0266568
-0.019284 -0.0424429 0.157416
0.147009 -0.357599 0.00939355
-0.169774 0.0193367 -0.158776
-0.156057 0.0324624 -0.15091
0.154684 -0.359041 0.166052
-0.00746662 -0.0613072 -0.059968
-0.0259581 -0.0424429 -0.0639766
-0.160342 0.376669 0.0285914
-0.146194 -0.0696071 -0.0101747
-0.153268 0.0857273 -0.00907285
-0.150057 0.396414 0.162836
-0.154919 -0.377032 -0.0282103
-0.153268 0.213599 0.0346701
-0.136762 0.425663 -0.0537255
0.133817 -0.202955 -0.158149
0.132315 -0.0828646 0.155842
-0.0199029 -0.0613072 0.0763934
0.0985677 -0.0424429 -0.104726
-0.155654 -0.256794 0.16733
0.166645 -0.0613072 0.0670388
0.116266 -0.0908415 0.165057
0.0525643 -0.0424429 0.0920403
-0.11805 -0.0424429 -0.0314469
0.132453 -0.0938383 0.133103
-0.161977 -0.0967685 -0.169331
-0.0277696 -0.0613072 -0.0534301
-0.0703023 -0.0424429 0.0440628
0.166985 -0.284349 -0.148243
0.0154373 -0.0424429 0.0426746
-0.169774 0.238798 -0.149591
0.0407334 -0.0424429 0.0153964
-0.096979 -0.0424429 0.0332682
0.160062 -0.263231 -0.13457
-0.150514 -0.381958 -0.0382983
-0.0976338 -0.0990345 -0.152494
-0.136762 0.0578964 -0.0699065
-0.0263927 -0.0551357 0.169774
-0.136762 0.0340607 0.135937
-0.153268 0.150802 0.027848
-0.160342 0.0178198 -0.137829
-0.138553 0.113499 0.132046
0.0158099 -0.0933207 0.146194
-0.160342 0.36549 -0.0224687
0.100699 -0.0613072 0.162951
-0.0569637 -0.0613072 0.154003
0.0422869 -0.0990345 -0.154299
0.001931 -0.0613072 -0.165604
0.0236416 -0.0613072 -0.0481998
-0.154919 -0.35859 0.0731333
-0.136548 -0.421476 -0.162374
0.0532032 -0.0424429 -0.0964291
0.0799846 -0.374613 -0.146194
0.1392 -0.0613072 0.15142
-0.0452974 -0.0424429 0.112819
0.166314 -0.0424429 0.0498661
-0.121294 -0.0613072 -0.0999087
0.156333 -0.373661 0.123566
-0.111879 -0.0424429 -0.0495996
-0.136762 0.0330773 0.0999132
-0.155086 0.0727795 0.0167585
0.166842 -0.295801 -0.136571
0.162531 -0.0613072 0.0535007
-0.148303 0.00805284 -0.15091
-0.145166 0.370942 0.150909
-0.153268 0.151815 0.00240767
0.126223 -0.38206 0.150873
0.0687043 -0.049433 0.169774
-0.0539748 -0.0424429 -0.14169
-0.00785128 -0.0489687 0.169774
-0.145451 0.0643724 0.150909
-0.165656 -0.373055 0.135943
0.166136 -0.352266 -0.16172
0.165704 -0.0613072 -0.00377379
0.0673658 -0.0424429 -0.112471
-0.132046 0.395289 -0.147908
-0.132389 0.148984 0.169774
-0.0152995 -0.0613072 0.0541975
-0.0306508 -0.0424429 -0.0770273
-0.155321 0.391445 0.13459
0.158401 -0.0613072 0.0210556
-0.169774 0.239798 -0.156853
-0.160342 0.328105 0.140626
-0.132046 0.316335 0.167683
-0.124647 -0.366529 -0.155626
-0.0277513 -0.0613072 0.136712
-0.130688 -0.0613072 0.0822885
0.0547393 -0.0613072 -0.127875
0.0152312 -0.0483074 -0.169774
0.0732603 -0.354181 -0.152895
-0.0956577 -0.0864991 0.165057
-0.0572039 -0.371258 0.146194
-0.14836 0.320639 0.0106736
-0.156042 0.234257 0.169774
-0.155553 -0.0990345 -0.0574031
0.147672 -0.157115 -0.133244
-0.0396066 -0.0424429 0.135202
-0.0233131 -0.0424429 -0.00756403
-0.0789533 -0.0658367 -0.165058
-0.135531 0.0197756 -0.132046
-0.151244 0.0553575 0.169774
0.156333 -0.372901 0.0179035
-0.163866 -0.0548817 0.132046
0.168702 -0.147028 -0.139362
-0.154608 0.345993 0.150909
-0.101639 -0.0424429 -0.122993
-0.136762 0.00353486 0.0273187
-0.160342 0.316577 0.0236972
-0.0120014 -0.355284 -0.154398
0.167865 -0.213997 -0.159112
-0.136762 0.0471704 0.0399436
0.0838339 -0.0797145 0.146194
0.155959 -0.307171 0.1667
-0.0624056 -0.0424429 -0.115191
0.11753 -0.0424429 -0.0467795
-0.136762 0.437577 -0.00596129
-0.160342 0.0274355 0.148954
-0.169774 0.0576938 -0.157081
0.149993 -0.354031 -0.1228
-0.0810072 -0.0613072 -0.15355
-0.135499 0.00423466 -0.169774
-0.169289 -0.100121 -0.140856
0.144733 -0.0548749 -0.169774
-0.132046 -0.0401963 0.141498
-0.111742 -0.0449493 -0.169774
-0.160342 0.342909 -0.0492917
-0.160342 0.368725 0.122839
-0.0324277 -0.0613072 0.119233
0.167605 -0.234796 0.166269
-0.169355 0.358955 -0.132046
-0.105617 -0.0613072 -0.0305771
0.166521 -0.321493 0.146153
-0.169774 0.0289729 -0.154881
0.0628344 -0.0621593 -0.165058
0.145151 -0.0613072 0.0916509
-0.150682 0.0403495 0.150909
-0.155879 0.378069 0.150909
-0.167982 -0.204653 0.140921
-0.154558 -0.356716 0.143432
0.146541 -0.151349 -0.133172
-0.0505196 -0.0424429 -0.138236
0.0482773 -0.0613072 -0.129379
-0.160342 0.0422924 0.113444
0.139737 -0.0424429 -0.0057623
-0.143836 0.175309 -0.0356719
-0.159318 0.377367 -0.15091
-0.143836 0.20556 -0.0213952
-0.126762 -0.0613072 -0.08425
-0.0131953 -0.0424429 -0.154973
-0.136762 0.038575 -0.0253966
-0.0096029 -0.0613072 -0.11245
-0.160342 0.403617 0.0812704
-0.132046 0.076611 0.155197
-0.0239297 -0.381817 0.152339
-0.16973 -0.0648203 0.1431
-0.141618 -0.0613072 0.128138
-0.13877 0.311208 0.0204955
-0.0648857 -0.0613072 0.131643
-0.153268 0.318238 -0.0535707
-0.146165 0.0743565 0.132046
-0.0449302 -0.0613072 -0.113162
0.00454755 -0.0907305 -0.165058
0.0371373 -0.0613072 -0.165031
-0.159227 -0.205305 -0.133846
-0.166163 -0.350171 0.163074
-0.160237 -0.121407 0.169023
-0.146464 0.412676 0.0936775
0.167743 -0.0424429 0.152731
-0.160342 0.368391 0.139561
-0.154919 -0.364785 0.0230733
-0.103561 -0.381528 0.14878
0.157165 -0.0889433 0.169428
-0.143836 0.166862 -0.0519974
-0.160342 0.372013 -0.145672
-0.150368 0.0121398 0.150909
0.0261152 -0.0797628 0.146194
0.133634 -0.188373 0.147827
0.133541 -0.180874 0.147997
-0.160342 0.388073 -0.0588582
-0.136762 0.40196 0.0106244
-0.044925 -0.0424429 0.0532055
-0.136762 0.348512 -0.131351
-0.165058 -0.0877962 0.0616219
0.121896 -0.0613072 -0.16134
-0.150062 0.0633477 -0.0213983
-0.165857 -0.161505 -0.168522
0.148941 -0.153898 0.133203
0.072641 -0.0613072 -0.085109
0.16832 -0.177635 -0.152786
-0.13845 -0.392011 -0.136181
-0.0555093 -0.0668864 0.146194
-0.134027 -0.219798 -0.166808
0.025876 -0.0424429 0.0456297
-0.132313 -0.0826736 0.146696
-0.160342 0.0131227 -0.0803672
-0.165594 -0.0613072 -0.11042
-0.151164 -0.0990345 0.0118652
-0.138329 -0.427423 -0.165198
-0.136762 0.32096 -0.0255273
0.0675255 -0.0424429 -0.0583878
-0.153268 0.12985 0.0185985
-0.033239 -0.0424429 0.0794186
0.0171152 -0.0613072 0.0498063
-0.169774 0.327524 -0.155437
-0.146194 -0.0738026 -0.111328
-0.160342 0.378903 -0.0395705
-0.141209 0.0171319 0.150909
-0.0684919 -0.0613072 0.0443051
-0.138399 -0.353844 0.151475
-0.0318095 -0.0613072 -0.0896172
-0.132046 -0.0200265 -0.16629
-0.14141 0.438303 0.00412934
0.117742 -0.0424429 0.146579
-0.133168 -0.151094 -0.167072
0.135894 -0.369124 0.164646
0.13487 -0.287244 -0.165875
-0.143836 0.146368 0.0240423
-0.144529 0.325037 -0.15091
-0.165942 -0.367888 -0.147841
0.146269 -0.0630043 -0.132067
-0.164363 -0.168304 0.133384
0.134444 -0.376599 -0.155626
-0.110265 -0.0424429 0.161228
-0.0462019 -0.0424429 -0.153761
0.0761742 -0.0613072 0.0658538
-0.0641451 -0.0613072 0.010198
-0.143836 0.180208 0.00972474
-0.144567 -0.193115 -0.133694
-0.141454 0.304276 0.132046
-0.160342 0.0387936 -0.00352655
-0.162767 0.229515 -0.132046
-0.160342 0.0304747 0.132176
-0.169774 0.305718 -0.157438
-0.0262277 -0.0665089 -0.165058
0.120156 -0.0565709 0.169774
-0.160342 0.357841 -0.146369
0.164109 -0.358231 -0.166062
-0.136762 0.056152 -0.0141783
0.060184 -0.060589 0.169774
-0.153268 0.0810268 0.000647081
-0.0536628 -0.0613072 -0.160588
-0.151536 -0.255245 -0.16735
-0.16852 -0.161634 0.145696
-0.00744282 -0.0613072 -0.139402
-0.0973864 -0.360357 0.155625
0.169774 -0.0428498 -0.0712652
-0.169774 0.39038 -0.163108
0.102955 -0.0928927 -0.165058
-0.169774 0.37111 0.136607
-0.14771 0.111171 -0.169774
0.0342551 -0.355136 0.154224
-0.109109 -0.0613072 0.051278
-0.143836 0.0690895 -0.00954695
-0.146194 -0.0620848 -0.0604146
-0.143836 0.281914 0.0312338
-0.137704 0.00199649 0.102268
-0.148126 0.0633477 0.0300788
-0.160342 0.0192515 0.00031282
-0.146194 -0.0640146 -0.0120968
-0.169774 -0.0557819 0.0498705
-0.136762 0.0562578 0.0183138
0.13241 -0.0903979 0.135348
-0.15293 0.194915 -0.132046
-0.136762 0.055687 0.139124
-0.165913 0.24119 0.132046
0.167444 -0.0424429 0.105656
-0.0310417 -0.0613072 -0.0883207
-0.132046 0.26333 -0.135367
-0.0527745 -0.0613072 -0.0726084
0.144215 -0.108494 -0.132636
-0.169053 -0.118954 -0.147397
-0.143836 0.258688 -0.0524488
0.008795 -0.0613072 -0.146035
0.122388 -0.070005 -0.165058
-0.156182 -0.116087 -0.132731
-0.15061 -0.373017 0.146901
-0.152943 0.0633477 -0.0429775
0.0800452 -0.373241 0.155625
-0.143836 0.265515 -0.0547998
-0.168921 0.217842 -0.169774
0.058563 -0.0613072 0.0562786
-0.169774 0.0928938 0.136118
-0.136762 0.0269237 0.136032
0.142865 -0.438582 0.143623
-0.147337 0.00199649 -0.0738828
-0.0262137 -0.0424429 0.0144253
-0.152493 0.42037 0.0786188
0.159728 -0.25136 0.167398
0.124119 -0.0523605 -0.169774
-0.103105 -0.0866118 0.146194
-0.161404 -0.0360455 0.132046
-0.0518728 -0.36576 0.146194
-0.136762 0.405757 0.0524018
-0.153808 -0.380266 0.0874435
-0.160342 0.0440823 -0.147364
0.122844 -0.0613072 -0.135134
-0.150156 0.0727795 -0.122145
0.169774 -0.0449017 0.13385
-0.132046 0.213792 0.163362
-0.132046 0.312109 -0.135386
0.134127 -0.356103 0.146845
-0.160342 0.00447396 0.077103
-0.0427813 -0.0712193 0.146194
-0.0674927 -0.0424429 -0.0174481
0.156333 -0.371886 0.0620687
-0.156744 -0.110157 0.169163
-0.15219 -0.0613072 -0.0447425
0.132453 -0.0613072 -0.138089
-0.151995 0.0299222 -0.15091
-0.160342 0.391018 0.085087
0.164611 -0.0764631 -0.169585
0.146901 -0.376546 0.011043
0.159397 -0.0424429 0.00530041
0.11202 -0.373839 0.146194
0.167843 -0.0613072 -0.128854
-0.136548 -0.421477 0.144664
0.166622 -0.292312 -0.166886
0.152867 -0.0678071 -0.132127
0.146194 -0.0720884 -0.0417866
-0.145567 0.372159 0.169774
-0.160342 0.402608 0.00323835
-0.167445 0.186676 -0.132046
-0.160392 0.291341 -0.169774
-0.0352019 -0.0788669 0.165057
-0.0355274 -0.0613072 0.0937327
-0.086796 -0.0424429 -0.0325745
-0.121808 -0.0613072 0.153905
0.0827762 -0.0613072 -0.0864676
-0.153268 0.117818 -0.0565871
-0.132046 0.311317 -0.153795
-0.169774 0.397969 0.142151
0.0214415 -0.0509336 0.169774
0.133009 -0.138378 0.14905
0.0107188 -0.0613072 0.100125
0.135814 -0.362775 -0.163493
-0.160342 0.360044 0.0616053
-0.132046 0.0252926 -0.138942
-0.158775 -0.0430217 -0.169774
-0.160342 0.0356172 0.14043
-0.142447 0.240569 -0.132046
0.0873976 -0.0827149 -0.165058
0.162875 -0.0565579 -0.169774
0.0723201 -0.0424429 -0.0408552
-0.168897 -0.131501 -0.155086
0.0734602 -0.0613072 0.101198
-0.136762 0.351131 -0.0735184
-0.0594843 -0.0613072 -0.0889092
-0.145224 -0.0613072 -0.0375147
0.0656428 -0.0424429 0.0746353
0.0130105 -0.0424429 -0.153108
-0.132046 0.150754 0.15177
-0.160342 0.0264423 -0.149775
-0.145487 -0.374601 -0.0397356
-0.13489 -0.288837 0.135457
-0.158698 -0.123194 -0.169
0.0419182 -0.0424429 0.0893649
-0.132046 0.0913984 0.157495
-0.0173055 -0.0613072 -0.147125
0.0027684 -0.0990345 -0.163634
-0.136762 0.0425177 0.0111422
-0.132046 0.13233 -0.139434
-0.140419 0.0727795 0.0442015
-0.136762 0.318759 -0.0621373
-0.154919 -0.373048 0.0866204
0.151529 -0.0990345 -0.10936
0.132917 -0.130974 0.135827
-0.0339247 -0.0776827 0.165057
0.16337 -0.265343 -0.134597
0.0194589 -0.379637 0.146797
0.10153 -0.0424429 0.0976961
0.165057 -0.0922666 0.128402
-0.136762 0.00615891 0.0358342
-0.169612 -0.0435924 0.132046
-0.155707 -0.0636326 0.169745
-0.133527 0.349864 0.169774
-0.0206546 -0.0613072 -0.15067
-0.148897 -0.0990345 0.0537669
-0.15157 -0.0424429 0.114364
-0.156787 -0.0990345 0.0265192
-0.149913 0.180734 0.169774
0.00586297 -0.0824121 0.146194
-0.132046 0.139107 0.163108
-0.136762 0.368623 0.0571691
-0.136762 0.400599 0.0751951
-0.149951 -0.381966 0.0110175
-0.163935 -0.244661 0.134338
-0.120489 -0.0613072 -0.0897969
-0.169774 0.391166 -0.160584
0.132855 -0.126036 -0.15146
0.164294 -0.224407 0.134084
-0.160342 0.375371 0.136209
-0.136159 -0.390338 0.144657
0.16815 -0.0424429 0.0713045
-0.150069 0.329187 -0.15091
-0.132092 0.392335 0.166546
-0.0120519 -0.0424429 -0.0875153
0.122519 -0.0990345 0.15475
-0.136762 0.328626 -0.0167055
-0.143289 -0.238745 0.134264
0.165057 -0.0654265 -0.0107813
-0.153268 0.153653 -0.00057026
-0.0794747 -0.0613072 0.106322
-0.132637 -0.108584 0.16234
-0.047615 -0.0613072 0.10027
0.16167 -0.096865 -0.13249
0.148287 -0.297515 -0.134999
-0.153851 -0.0717668 0.132177
0.165057 -0.0960764 0.0747633
-0.136762 0.381828 -0.106222
-0.141653 0.202648 0.132046
0.149766 -0.0990345 -0.0163252
-0.160342 0.0270479 0.150329
0.156333 -0.365179 -0.120446
0.0110899 -0.0424429 0.119404
0.158423 -0.0810144 -0.132292
0.0377238 -0.0670019 -0.165058
-0.12265 -0.0784661 -0.146194
-0.148914 -0.0424429 -0.100298
0.142806 -0.105534 -0.169221
0.0358617 -0.0613072 0.150438
0.0639851 -0.0424429 -0.134117
-0.164386 0.321187 0.169774
0.0472071 -0.0424429 0.064901
0.15103 -0.0990345 0.10292
-0.133195 -0.153217 -0.140543
0.146901 -0.377199 0.108141
-0.143836 0.115316 -0.0255004
-0.162883 -0.0613072 0.0611621
0.158043 -0.150521 0.133161
-0.153512 0.255935 0.132046
-0.132046 0.279137 -0.163594
-0.154919 -0.376312 -0.0418628
0.0381652 -0.0424429 -0.12971
-0.166599 0.145944 -0.132046
0.152418 -0.0990345 0.064405
-0.132046 0.238612 -0.14033
-0.140149 0.11562 -0.169774
-0.136762 0.313364 -0.11839
-0.0462001 -0.359132 -0.155626
0.16175 -0.0728993 0.132191
0.168962 -0.126224 -0.152748
-0.150513 0.0261372 0.150909
-0.132046 0.238898 -0.148729
-0.0818899 -0.0678157 -0.146194
-0.156916 -0.0613072 0.0893973
-0.159895 0.00199649 -0.150856
-0.0474422 -0.0613072 -0.0983995
0.148299 -0.211263 0.13392
0.140732 -0.391337 -0.165649
-0.038308 -0.376303 0.146194
0.0124126 -0.0424429 0.119424
-0.169774 0.324062 0.141352
-0.153117 0.320639 -0.0539647
0.135998 -0.377454 -0.163939
0.016751 -0.0424429 0.0656046
-0.14637 -0.233807 -0.134202
-0.168145 -0.191636 -0.15131
-0.137333 -0.00797453 0.132046
0.165057 -0.0775946 -0.020864
0.0246749 -0.0613072 0.0303203
-0.145599 0.210606 0.056591
-0.0283106 -0.0444936 -0.169774
-0.151139 -0.333613 0.166369
-0.145856 -0.127343 0.168948
-0.135444 -0.333141 -0.164086
-0.14051 -0.0484023 0.132046
-0.031393 -0.0424429 -0.102647
-0.14974 0.00214953 0.169774
-0.0381255 -0.0613072 0.0589097
0.0954056 -0.0613072 0.146401
-0.00885575 -0.0806482 -0.165058
-0.169774 -0.0413132 0.15667
-0.138829 -0.0613072 0.00357473
-0.0277568 -0.355122 0.154206
-0.15573 0.0269738 -0.15091
-0.132046 -0.0259308 -0.165942
-0.123718 -0.0952317 -0.146194
-0.139884 0.311208 -0.0315111
0.0206953 -0.0424429 0.12782
-0.165211 0.127805 0.169774
-0.136831 0.311208 0.0103376
-0.140124 0.340203 0.169774
-0.160342 0.407077 0.0318992
0.134627 -0.0613072 -0.128785
-0.0681788 -0.0424429 -0.074046
-0.158291 -0.074456 -0.132211
-0.152814 0.00199649 -0.138929
-0.133348 -0.0613072 -0.11841
-0.132046 0.195597 -0.156878
0.15134 -0.14445 0.133085
0.152497 -0.353819 -0.0835429
-0.154633 -0.356897 -0.0437185
-0.166602 -0.315039 -0.156847
-0.0787007 -0.0932261 -0.146194
0.0399362 -0.0685688 -0.146194
-0.136762 0.395234 -0.0270859
0.0619676 -0.0424429 0.0600744
0.167817 -0.217838 0.134079
0.137616 -0.158124 0.133256
-0.089966 -0.0613072 -0.124498
-0.150592 0.00199649 0.0419742
-0.146298 -0.379875 -0.00944678
-0.143836 0.172482 0.0260546
0.0989048 -0.0424429 0.0549962
-0.0799534 -0.0990345 -0.161837
-0.166594 -0.315735 -0.135955
-0.0576994 -0.0613072 0.132422
-0.111249 -0.0424429 -0.027162
0.00574879 -0.0424429 0.0212288
-0.020228 -0.0613072 -0.0262761
-0.0907625 -0.0613072 -0.164236
0.13498 -0.296019 -0.152687
-0.143836 0.211357 -0.0480181
0.151758 -0.38198 -0.0877916
-0.132046 0.299466 -0.150333
0.121843 -0.0749898 -0.146194
0.156333 -0.376402 0.129793
