ply
format ascii 1.0
comment Created by Open3D
element vertex 1614
property double x
property double y
property double z
end_header
0.204426 -0.129241 -0.190457
0.200919 -0.129753 -0.180382
0.205311 -0.131019 -0.170089
-0.189256 -0.121128 0.153175
-0.198594 -0.120577 0.15702
-0.160694 -0.0932387 -0.181414
-0.167738 -0.0924091 -0.183777
-0.192705 -0.0903903 -0.180759
-0.197011 -0.0908263 -0.170545
-0.196052 -0.0918525 -0.158934
-0.17234 -0.119329 0.154161
0.217126 -0.122341 -0.199844
0.205123 -0.121741 -0.19403
0.201151 -0.122161 -0.184229
-0.178651 -0.115066 0.150989
-0.201217 -0.114177 0.164959
-0.198813 -0.115627 0.180722
0.20086 -0.119084 -0.176426
0.205251 -0.120248 -0.166074
-0.177898 -0.0860635 -0.185366
-0.192847 -0.0873044 -0.152333
-0.1898 -0.110785 0.152379
-0.160302 -0.0851874 -0.18109
-0.169029 -0.109142 0.153012
-0.197714 -0.107161 0.158336
0.222772 -0.111753 -0.201015
0.21717 -0.11139 -0.199823
0.204193 -0.110731 -0.194494
0.200219 -0.111113 -0.184705
0.199369 -0.111581 -0.1772
-0.188678 -0.0802356 -0.180722
-0.194361 -0.0804254 -0.171701
-0.180305 -0.104459 0.148617
-0.199381 -0.104729 0.173772
0.202995 -0.108891 -0.167265
-0.170513 -0.101952 0.150914
-0.190303 -0.100469 0.151642
-0.15991 -0.0771253 -0.180765
-0.173634 -0.075799 -0.185237
-0.195605 -0.075698 -0.16213
-0.191002 -0.0768117 -0.150621
-0.197036 -0.0970739 0.159351
0.22768 -0.101268 -0.198647
0.217212 -0.100438 -0.199803
0.203283 -0.0997444 -0.194947
0.199308 -0.100088 -0.185171
0.19934 -0.100861 -0.173215
-0.18768 -0.0724717 -0.179854
-0.17751 -0.0942693 0.146801
-0.194113 -0.0953281 0.181826
0.203019 -0.0980718 -0.163195
-0.192781 -0.0700757 -0.170286
-0.161518 -0.0922709 0.151891
-0.187545 -0.0903301 0.149819
-0.198211 -0.0908117 0.169521
0.203264 -0.0924884 -0.194957
-0.167897 -0.0881757 0.148783
-0.177868 -0.0873587 0.146291
-0.196355 -0.086962 0.160369
0.232361 -0.0906519 -0.196389
0.217244 -0.0894837 -0.199787
0.198448 -0.0890884 -0.18561
0.197276 -0.0896629 -0.174295
0.201626 -0.0905379 -0.163936
-0.159387 -0.0663593 -0.180331
-0.172291 -0.0653117 -0.184109
-0.178106 -0.0650547 -0.182068
-0.193646 -0.0653028 -0.160337
-0.189081 -0.0662572 -0.148838
-0.188307 -0.0620542 -0.176903
-0.16378 -0.0815117 0.148738
-0.188051 -0.0800324 0.149084
-0.192941 -0.0812974 0.177521
0.217265 -0.0821807 -0.199777
0.203294 -0.08161 -0.194942
0.197876 -0.0817666 -0.185902
0.195905 -0.0822246 -0.175013
-0.175084 -0.0771489 0.144453
-0.194152 -0.0767222 0.157731
0.199544 -0.0792783 -0.165044
-0.171482 -0.0573944 -0.183429
-0.180197 -0.0570564 -0.180368
-0.191806 -0.0571326 -0.165849
-0.195303 -0.0737609 0.167916
-0.152574 -0.0559931 -0.17823
-0.18871 -0.0552996 -0.15217
-0.160396 -0.0712357 0.147644
-0.185291 -0.0698764 0.14726
0.217297 -0.0712257 -0.199761
0.203324 -0.0707309 -0.194927
0.197021 -0.0708006 -0.186339
0.193856 -0.0711073 -0.176086
0.198161 -0.0717991 -0.16578
-0.187644 -0.0517134 -0.172798
-0.172294 -0.0669211 0.142611
-0.19193 -0.0664872 0.155122
-0.191774 -0.0673233 0.173235
-0.194632 -0.0632857 0.162948
-0.1614 -0.0472385 -0.181999
-0.167682 -0.0468787 -0.18373
-0.179328 -0.0465118 -0.179623
-0.188835 -0.0466028 -0.166752
-0.188809 -0.0470488 -0.155912
-0.156645 -0.0609582 0.147032
-0.178954 -0.0598387 0.144745
0.218073 -0.0603161 -0.199384
0.207991 -0.0599901 -0.196516
0.198823 -0.059718 -0.193274
0.196168 -0.0598544 -0.186775
0.192164 -0.0600601 -0.176971
0.196094 -0.0606209 -0.166879
-0.185662 -0.0448931 -0.145667
-0.162791 -0.0571039 0.144329
-0.187918 -0.0562062 0.149277
-0.192432 -0.0564364 0.160287
-0.152407 -0.0422201 -0.181612
-0.190179 -0.0534466 0.16961
0.198758 -0.0524759 -0.193306
-0.152532 -0.05066 0.146886
-0.17567 -0.0496677 0.143624
0.222353 -0.0495672 -0.197302
0.208013 -0.0490839 -0.196505
0.195419 -0.0489331 -0.187158
0.191416 -0.0491012 -0.177363
0.196385 -0.0497423 -0.162674
-0.132803 -0.0375209 -0.179929
-0.158976 -0.0364798 -0.183494
-0.170336 -0.0361094 -0.182466
-0.178721 -0.0359186 -0.179101
-0.185255 -0.0359531 -0.170688
-0.18902 -0.0361664 -0.159732
-0.189398 -0.0364885 -0.149132
-0.189666 -0.0367057 -0.141972
-0.187572 -0.0370807 -0.132469
-0.185703 -0.0375682 -0.119163
-0.185061 -0.0378582 -0.110721
-0.18446 -0.0381493 -0.102198
-0.164486 -0.046587 0.141983
-0.182657 -0.0460458 0.145245
-0.188665 -0.0461112 0.154041
-0.185536 -0.0469349 0.176559
-0.101899 -0.0357285 -0.180882
-0.112297 -0.0353641 -0.181668
-0.122484 -0.0350069 -0.182438
-0.190548 -0.0354136 -0.0922991
-0.189712 -0.035827 -0.0791327
-0.189109 -0.0361102 -0.0701454
-0.188509 -0.0363971 -0.0610286
-0.187909 -0.036688 -0.0517763
-0.187299 -0.0369836 -0.0423749
-0.186306 -0.0374399 -0.0279179
-0.185616 -0.0377514 -0.0180638
-0.184893 -0.0380695 -0.00801897
-0.184163 -0.0383927 0.00219083
-0.190328 -0.0429156 0.163413
0.224377 -0.0423116 -0.196318
0.212645 -0.0419084 -0.198129
0.203369 -0.041715 -0.194905
0.196407 -0.0416213 -0.19058
0.192425 -0.0417646 -0.180806
0.193464 -0.0421338 -0.168278
-0.0500578 -0.0343849 -0.182796
-0.0610356 -0.0340401 -0.183282
-0.0717954 -0.0337022 -0.183758
-0.0825762 -0.0333593 -0.184395
-0.131359 -0.0318467 -0.185834
-0.140083 -0.0315866 -0.185705
-0.148593 -0.0313345 -0.185519
-0.191868 -0.031758 -0.121324
-0.191848 -0.0320746 -0.109605
-0.191837 -0.0322891 -0.101664
-0.191287 -0.0352588 0.00785339
-0.190643 -0.0355579 0.0182233
-0.189957 -0.035864 0.0288087
-0.189257 -0.0361756 0.0395801
-0.188509 -0.036495 0.0505869
-0.18774 -0.0368206 0.0618001
-0.187017 -0.0371481 0.0731354
-0.186274 -0.037482 0.0846844
-0.185509 -0.0378224 0.0964539
-0.18473 -0.0381691 0.108439
-0.184253 -0.0385008 0.120204
-0.183739 -0.0388402 0.132218
-0.00489759 -0.0325836 -0.185115
-0.0170075 -0.0322336 -0.185761
-0.0229655 -0.0320614 -0.186079
-0.0346925 -0.0317225 -0.186705
-0.0966391 -0.0299917 -0.1876
-0.192252 -0.0314513 -0.0211847
-0.192167 -0.0316815 -0.0119275
-0.192048 -0.0320326 0.00220072
-0.191262 -0.0354134 0.138637
-0.190377 -0.0357553 0.151533
-0.189534 -0.0359539 0.158655
0.195504 -0.035062 -0.15908
0.0443091 -0.0306594 -0.187318
0.0311404 -0.0303159 -0.187984
0.0183004 -0.0299815 -0.188612
0.011986 -0.029817 -0.18892
-0.0833628 -0.0274463 -0.188517
-0.106123 -0.0268987 -0.187598
-0.114957 -0.0266864 -0.187227
-0.160436 -0.0256078 -0.184695
-0.169748 -0.025436 -0.181972
-0.178154 -0.025301 -0.178615
-0.18481 -0.0253202 -0.170295
-0.189266 -0.0254393 -0.159956
-0.19084 -0.0256113 -0.150471
-0.191953 -0.0258079 -0.140399
-0.192328 -0.0260426 -0.129441
-0.192618 -0.0269054 -0.0903803
-0.192657 -0.027086 -0.082233
-0.1927 -0.0273621 -0.0697876
-0.192792 -0.0280295 -0.0397231
-0.192778 -0.0282283 -0.0308144
-0.192571 -0.0305019 0.0710257
-0.192508 -0.03074 0.0816433
-0.192394 -0.0311052 0.0979077
-0.192331 -0.0313526 0.108947
-0.192277 -0.0316035 0.120148
-0.192167 -0.0318615 0.13161
-0.18614 -0.0328589 0.169634
0.226487 -0.0313414 -0.195291
0.211305 -0.0309327 -0.198786
0.200695 -0.0307466 -0.196238
0.190624 -0.030576 -0.193511
0.187338 -0.0306249 -0.187377
0.178644 -0.0306543 -0.176161
0.186149 -0.0310615 -0.164136
0.0915607 -0.0284462 -0.18938
0.0773926 -0.0281168 -0.190029
0.063445 -0.0277915 -0.190723
0.0564788 -0.0276278 -0.191132
0.00107104 -0.0263693 -0.192196
-0.0454519 -0.0253661 -0.190407
-0.0552948 -0.0251541 -0.190015
-0.0649746 -0.0249456 -0.189629
-0.0744952 -0.0247406 -0.18925
-0.192735 -0.0246492 -0.061354
-0.192793 -0.0249042 -0.0484927
-0.192765 -0.026087 0.010823
-0.19285 -0.0262748 0.0203413
-0.192891 -0.0264675 0.0300545
-0.19293 -0.0266632 0.0399154
-0.192927 -0.0268638 0.0499772
-0.19292 -0.0270676 0.0601968
-0.192892 -0.0276984 0.0918163
0.180659 -0.0267616 -0.194699
0.160641 -0.0263887 -0.193473
0.146528 -0.0261146 -0.193245
0.132705 -0.0258462 -0.193023
0.1259 -0.025714 -0.192913
0.112147 -0.0254435 -0.192891
0.0975457 -0.0251449 -0.193507
0.0450327 -0.0240969 -0.194265
-0.0931302 -0.021475 -0.18855
-0.123775 -0.0208993 -0.186956
-0.136462 -0.0206602 -0.186338
-0.144617 -0.0205086 -0.185821
-0.192393 -0.0206923 -0.121839
-0.1925 -0.0208939 -0.110259
-0.192551 -0.0210313 -0.10239
-0.192848 -0.0221263 -0.039786
-0.192841 -0.0222829 -0.0308872
-0.192834 -0.0224418 -0.0218605
-0.192287 -0.0253504 0.142923
-0.190234 -0.0256494 0.157624
-0.185379 -0.0259762 0.170766
0.169106 -0.0229646 -0.196768
0.0924819 -0.0216624 -0.196354
0.080137 -0.0214584 -0.195905
0.0680225 -0.0212583 -0.195465
0.0620497 -0.0211596 -0.195248
0.0330451 -0.0206808 -0.194163
0.0274193 -0.0205881 -0.19394
0.0163094 -0.020405 -0.193507
-0.0106629 -0.01996 -0.192484
-0.0210497 -0.0197894 -0.192038
-0.0312082 -0.0196232 -0.191564
-0.163504 -0.0174832 -0.183742
-0.174962 -0.0173539 -0.179389
-0.183049 -0.017324 -0.172292
-0.189184 -0.0174084 -0.159881
-0.192796 -0.0196608 -0.00804567
-0.192736 -0.0198054 0.00137353
-0.192945 -0.0208558 0.0705297
-0.192931 -0.0210167 0.0810739
-0.192906 -0.0211806 0.0917973
-0.192872 -0.0213474 0.1027
-0.192837 -0.0215167 0.113776
-0.192746 -0.021691 0.12511
-0.192646 -0.0218685 0.13664
0.227688 -0.0203046 -0.194707
0.209902 -0.0199861 -0.199474
0.196015 -0.0197971 -0.198571
0.00512278 -0.0171074 -0.193253
-0.0411703 -0.0164665 -0.19108
-0.0509637 -0.0163312 -0.190601
-0.0605975 -0.0161981 -0.190129
-0.0700809 -0.016067 -0.189669
-0.0794143 -0.0159379 -0.189218
-0.106482 -0.0155643 -0.187867
-0.115193 -0.0154443 -0.187406
-0.155979 -0.0148921 -0.184529
-0.190882 -0.0148265 -0.150509
-0.191727 -0.0149474 -0.140185
-0.191988 -0.0150865 -0.129112
-0.192381 -0.0155834 -0.0901338
-0.192505 -0.0156856 -0.082073
-0.192663 -0.0158423 -0.0697474
-0.19274 -0.0159493 -0.0613604
-0.192803 -0.0161142 -0.0485028
-0.192912 -0.0168754 0.0106443
-0.192932 -0.0169989 0.0202407
-0.19292 -0.0171251 0.0300189
-0.192957 -0.0172518 0.0398802
-0.192962 -0.0173814 0.0499324
0.185562 -0.0160596 -0.199939
0.170743 -0.0158863 -0.199766
0.156946 -0.0157288 -0.199229
0.143404 -0.0155742 -0.198711
0.136632 -0.0154963 -0.19851
0.123289 -0.0153427 -0.198112
0.116717 -0.0152671 -0.197917
0.10389 -0.0151202 -0.197461
0.0494884 -0.0145001 -0.195283
-0.127986 -0.0124924 -0.186709
-0.140265 -0.0123563 -0.185849
-0.191892 -0.0124265 -0.121347
-0.192915 -0.01433 0.0602031
-0.191957 -0.0152192 0.143403
-0.190282 -0.0153883 0.157552
0.0973532 -0.0117009 -0.197357
0.0850664 -0.0115924 -0.196817
0.0730057 -0.0114858 -0.196286
0.067058 -0.0114333 -0.196024
0.0381044 -0.0111775 -0.194759
0.0324907 -0.011128 -0.1945
0.0214109 -0.0110303 -0.193987
-0.00545585 -0.0107934 -0.192744
-0.0158822 -0.0107015 -0.192262
-0.0261301 -0.0106112 -0.191786
-0.0885693 -0.010062 -0.188753
-0.191866 -0.00976153 -0.109623
-0.191985 -0.00982451 -0.101815
-0.192801 -0.0103265 -0.0397332
-0.192866 -0.0103983 -0.0309153
-0.192931 -0.010471 -0.0219737
-0.192959 -0.0105835 -0.00823909
-0.192955 -0.0106603 0.00111085
-0.192697 -0.011235 0.0708584
-0.192602 -0.0113234 0.081516
-0.192481 -0.0114136 0.0923762
-0.192419 -0.0114593 0.0978735
-0.192292 -0.0115518 0.109001
-0.192231 -0.0116443 0.120213
-0.192058 -0.0117407 0.131766
0.229097 -0.00924265 -0.194022
0.208593 -0.00907226 -0.200116
0.200626 -0.00901968 -0.200158
-0.0411097 -0.00748543 -0.191039
-0.0509242 -0.0074237 -0.190573
-0.0605574 -0.0073632 -0.190101
-0.0700347 -0.00730368 -0.189636
-0.0793599 -0.00724511 -0.189179
-0.0975656 -0.00713079 -0.188284
-0.110777 -0.00704815 -0.187578
-0.119427 -0.006994 -0.187124
-0.147982 -0.00681874 -0.185027
-0.159059 -0.00675457 -0.183563
-0.168619 -0.00670667 -0.181023
-0.179567 -0.00666234 -0.17632
-0.187323 -0.00667542 -0.165398
-0.18955 -0.00671242 -0.15659
-0.190448 -0.00676614 -0.14642
-0.190845 -0.006827 -0.135593
-0.191999 -0.00708822 -0.0897377
-0.192119 -0.00713474 -0.0816668
-0.192272 -0.00720607 -0.0693268
-0.192375 -0.00725442 -0.0609623
-0.192487 -0.00730333 -0.0524927
0.185037 -0.00535022 -0.200204
0.177354 -0.00531983 -0.200236
0.16308 -0.00526486 -0.199872
0.1562 -0.00523865 -0.199616
0.142649 -0.00518703 -0.19911
0.135974 -0.0051616 -0.19886
0.122819 -0.0051115 -0.198367
0.116337 -0.00508681 -0.198124
0.103685 -0.00503888 -0.197575
0.05537 -0.00485584 -0.195481
0.0106628 -0.004687 -0.193397
-0.193262 -0.00459951 0.0102173
-0.193277 -0.0046332 0.0198135
-0.193232 -0.0046679 0.0296273
-0.193024 -0.00470448 0.0397952
-0.192746 -0.0047422 0.0502098
-0.192439 -0.00478075 0.0608257
-0.190856 -0.00506272 0.139224
-0.19023 -0.00510924 0.151748
-0.189455 -0.005137 0.158773
-0.186971 -0.00518065 0.1684
0.230861 -0.00185186 -0.193164
0.208701 -0.00181466 -0.200063
0.200752 -0.00180419 -0.200095
0.0974939 -0.00167185 -0.197278
0.0851872 -0.0016563 -0.196748
0.0731288 -0.00164109 -0.196215
0.0671962 -0.00163361 -0.195944
0.0439966 -0.00160438 -0.194885
0.0327508 -0.00159025 -0.194342
0.0272053 -0.00158328 -0.194071
0.000190675 -0.00154933 -0.192756
-0.0103487 -0.00153605 -0.192281
-0.0207214 -0.00152296 -0.191822
-0.0309189 -0.00151009 -0.191371
-0.0884446 -0.0014377 -0.188662
-0.127855 -0.00138834 -0.186608
-0.139995 -0.00137354 -0.185635
-0.190237 -0.00137579 -0.127417
-0.190741 -0.00138812 -0.116336
-0.191151 -0.00140093 -0.10495
-0.192897 -0.00147497 -0.0398415
-0.193119 -0.0014848 -0.0312056
-0.193336 -0.00149479 -0.0224434
-0.193451 -0.00151061 -0.00882256
-0.193609 -0.00152112 0.000324666
-0.19214 -0.00160661 0.071597
-0.192037 -0.00161927 0.0822763
-0.191976 -0.0016257 0.087692
-0.19173 -0.00163907 0.0988204
-0.191356 -0.00165302 0.110306
-0.190961 -0.00166726 0.122009
-0.19067 -0.00167474 0.128066
0.185306 0.00535173 -0.200068
0.170334 0.00529306 -0.199974
0.156602 0.00524094 -0.199408
0.143137 0.00518983 -0.198852
0.136503 0.00516465 -0.198578
0.123378 0.00511473 -0.198065
0.116879 0.00508995 -0.197828
0.104194 0.00504185 -0.197293
0.0559187 0.00485912 -0.195158
0.0165969 0.0047106 -0.193328
-0.0405477 0.00449479 -0.190659
-0.0503077 0.00445812 -0.190151
-0.0599096 0.00442204 -0.189651
-0.0693575 0.00438654 -0.189158
-0.0787722 0.00435085 -0.188758
-0.101661 0.00426404 -0.187792
-0.110493 0.00423075 -0.187363
-0.119188 0.00419797 -0.186942
-0.151043 0.00408276 -0.184005
-0.158251 0.00405825 -0.182898
-0.168172 0.00402707 -0.180648
-0.178815 0.00400264 -0.17567
-0.185068 0.00400862 -0.166962
-0.187289 0.00404363 -0.154521
-0.188764 0.00407184 -0.144846
-0.18934 0.00410717 -0.134156
-0.19095 0.00423238 -0.0967519
-0.191428 0.00427163 -0.0850555
-0.191928 0.00429685 -0.0773245
-0.192354 0.00433785 -0.0651913
-0.192623 0.00436576 -0.0569522
-0.194083 0.00459273 0.00921535
-0.193859 0.00462836 0.0190942
-0.193569 0.00466506 0.0292042
-0.193339 0.00470181 0.0393952
-0.19306 0.00473952 0.0498056
-0.19275 0.00477807 0.060419
-0.189391 0.00507591 0.141339
-0.188669 0.00510283 0.148185
-0.18645 0.00516441 0.163205
0.209417 0.00908003 -0.199712
0.201452 0.00902751 -0.199749
0.092108 0.00832801 -0.196564
0.0799015 0.00825091 -0.19604
0.0679188 0.00817523 -0.195525
0.0446224 0.00802817 -0.19451
0.033325 0.007957 -0.193993
0.0060299 0.00778542 -0.19268
-0.00455153 0.00771894 -0.192165
-0.0149539 0.00765359 -0.191658
-0.0251815 0.00758934 -0.19116
-0.19426 0.00751502 -0.0143929
-0.194463 0.00756653 -0.00537902
-0.192672 0.00802538 0.0708914
-0.192023 0.00809648 0.0822947
-0.191632 0.00813342 0.0881575
-0.191049 0.00820524 0.0997555
-0.190655 0.00827539 0.111282
-0.190216 0.00834733 0.123062
0.186455 0.0125027 -0.19949
0.0227767 0.0110497 -0.193144
-0.0875592 0.0100773 -0.188018
-0.13134 0.00969274 -0.185819
-0.139294 0.00962568 -0.185079
-0.189564 0.009642 -0.126766
-0.190081 0.00972819 -0.115683
-0.190501 0.00981779 -0.104294
-0.193484 0.0102778 -0.0448982
-0.193728 0.0103456 -0.036357
-0.194177 0.0104477 -0.0234205
0.171847 0.0159053 -0.199202
0.158024 0.0157475 -0.198669
0.151182 0.0156692 -0.198424
0.137702 0.0155149 -0.19794
0.131061 0.0154389 -0.197702
0.118144 0.0152921 -0.197139
0.111846 0.015221 -0.196823
0.0995103 0.0150823 -0.196154
0.0577393 0.0146102 -0.194085
0.0125687 0.0140961 -0.192203
-0.0343326 0.0135642 -0.190062
-0.0443291 0.0134504 -0.189643
-0.0540813 0.0133401 -0.189177
-0.0636598 0.0132318 -0.188707
-0.073084 0.0131252 -0.188246
-0.100428 0.0128164 -0.186875
-0.109329 0.0127153 -0.186485
-0.118196 0.0126137 -0.186182
-0.190852 0.0126994 -0.096651
-0.191651 0.0128098 -0.0852889
-0.192394 0.0129238 -0.0736532
-0.192867 0.0130016 -0.0657473
-0.193431 0.0131238 -0.0535356
-0.195244 0.0136996 0.00306237
-0.195032 0.0138052 0.0128331
-0.194666 0.0139162 0.022944
-0.194224 0.0140308 0.0333081
-0.193994 0.0141417 0.0435626
-0.193693 0.0142561 0.0540676
-0.189053 0.0151762 0.136074
-0.188348 0.015256 0.142846
-0.183118 0.0155217 0.162166
0.221747 0.0202322 -0.193665
0.203798 0.0199094 -0.198589
0.195969 0.0197962 -0.198594
0.0886817 0.0182953 -0.194768
0.0765053 0.0181257 -0.194271
0.0468557 0.0177115 -0.193174
0.0354426 0.0175526 -0.192706
-0.148717 0.0150281 -0.18212
-0.159362 0.0148976 -0.180311
-0.168268 0.0148089 -0.177217
-0.178935 0.0147189 -0.17224
-0.182767 0.0148044 -0.161317
-0.186534 0.0148938 -0.150165
-0.188118 0.0149953 -0.140516
-0.19329 0.0175693 0.0648722
-0.192657 0.017724 0.0761564
-0.191937 0.0178838 0.0877443
-0.191147 0.0180484 0.0996212
-0.190343 0.018216 0.111717
-0.190142 0.0182942 0.117559
0.183084 0.0231946 -0.197333
0.175234 0.0230585 -0.197471
0.160963 0.0228198 -0.197143
0.147267 0.0225931 -0.196673
0.0267191 0.0206254 -0.190712
0.00542665 0.0202814 -0.189426
-0.00534528 0.0201032 -0.18905
-0.0159295 0.019928 -0.188681
-0.0263309 0.0197559 -0.188318
-0.0799671 0.0189287 -0.182497
-0.0796494 0.0191585 -0.167777
-0.0774695 0.0192768 -0.162457
-0.0733073 0.0195098 -0.151833
-0.0696139 0.019732 -0.141391
-0.0662684 0.0199468 -0.13105
-0.135162 0.0179968 -0.181801
-0.188942 0.0178682 -0.129982
-0.1897 0.0180196 -0.119196
-0.189976 0.0181297 -0.111667
-0.194159 0.0190643 -0.0456547
-0.194438 0.019189 -0.0371636
-0.195068 0.0193719 -0.024455
-0.195478 0.0194964 -0.0158262
-0.195779 0.0196265 -0.0069502
0.13601 0.0258757 -0.195049
0.123492 0.0256436 -0.194225
0.116962 0.0255186 -0.194014
0.104377 0.0252807 -0.193439
0.0627177 0.0245001 -0.191152
0.0570112 0.0243936 -0.190816
0.0130303 0.0235719 -0.188261
-0.0300009 0.0228712 -0.179893
-0.0302708 0.0230569 -0.169029
-0.0263124 0.0233155 -0.158763
-0.0233297 0.0235454 -0.149028
-0.0197883 0.0237962 -0.138737
-0.016117 0.0240541 -0.128184
-0.0124989 0.0243133 -0.117499
-0.00898737 0.024572 -0.106723
-0.00542843 0.0248353 -0.0957372
-0.00234342 0.0250859 -0.0849441
0.000758171 0.02534 -0.0739674
-0.196184 0.0228773 0.00665408
-0.195917 0.0230565 0.0165486
-0.195501 0.0232447 0.0267823
-0.195059 0.0234367 0.037207
-0.194496 0.0236368 0.047953
-0.188819 0.0252038 0.130701
-0.187414 0.0254688 0.144195
-0.18209 0.0259162 0.163671
0.202152 0.0308715 -0.1916
0.0966814 0.0285435 -0.190234
0.084533 0.0282838 -0.18965
0.0737653 0.0280684 -0.188398
0.0430281 0.027462 -0.184383
0.0330496 0.0272647 -0.183099
0.0265437 0.0271866 -0.179731
0.0225126 0.0272694 -0.171061
0.0257692 0.0275357 -0.161346
0.0282823 0.0277785 -0.151978
0.0317099 0.0280568 -0.141855
0.0353511 0.028346 -0.131428
0.0391238 0.0286431 -0.120745
0.0428219 0.0289409 -0.109946
0.0462095 0.0292308 -0.0991971
0.0496656 0.0295265 -0.0882312
0.0531726 0.0298276 -0.0770556
0.0566986 0.0301328 -0.0656897
0.0602974 0.0304444 -0.0540888
0.0636884 0.0307518 -0.0424635
0.0671473 0.0310655 -0.0306023
0.0707794 0.0313895 -0.0184155
0.072723 0.0315578 -0.0121472
-0.14393 0.0234095 -0.178239
-0.157016 0.0231147 -0.178368
-0.164357 0.0229692 -0.177443
-0.174346 0.0228585 -0.171807
-0.182314 0.0228977 -0.160911
-0.18602 0.0230385 -0.149691
-0.187365 0.0232055 -0.139807
-0.190951 0.0239036 -0.100764
-0.191766 0.0241099 -0.0894958
-0.192317 0.0242495 -0.0818754
-0.193056 0.0244663 -0.0701699
-0.193543 0.0246135 -0.0622358
-0.192591 0.0276063 0.0868578
-0.192205 0.0277324 0.0927534
-0.191421 0.0279882 0.104708
-0.19052 0.0282539 0.117029
0.183468 0.034174 -0.185457
0.170359 0.0337816 -0.188386
0.157302 0.0334751 -0.187514
0.144691 0.033182 -0.186545
0.132298 0.0328939 -0.185592
0.120119 0.0326108 -0.184656
0.108837 0.0323584 -0.183345
0.0980457 0.0321219 -0.181871
0.090785 0.032017 -0.178447
0.0833365 0.0319893 -0.171344
0.0804449 0.032137 -0.161471
0.082316 0.0323843 -0.152467
0.0858291 0.0326983 -0.142306
0.0894095 0.0330184 -0.131946
0.0926577 0.033329 -0.121643
0.0962889 0.0336582 -0.110933
0.100111 0.0339987 -0.0999296
0.104012 0.0343462 -0.0887012
0.108151 0.0347072 -0.0771313
0.112062 0.0350631 -0.0655377
0.116853 0.0354589 -0.0531357
0.120091 0.035693 -0.0462545
0.126723 0.0361716 -0.0321968
0.133354 0.0366558 -0.0178908
0.136532 0.0368943 -0.0107452
0.143496 0.0374008 0.00419253
0.151648 0.0379632 0.0203063
0.155781 0.0382493 0.0285196
0.164135 0.0388303 0.045242
0.16846 0.0391297 0.053837
-0.194539 0.0277473 -0.0504358
-0.195179 0.0279099 -0.0424182
-0.195888 0.0281709 -0.0299073
-0.196322 0.0283499 -0.0213823
-0.196855 0.0286295 -0.0082351
-0.194526 0.0301651 0.0580956
-0.193919 0.0304285 0.0692377
-0.181882 0.0328392 0.163976
0.169697 0.0377953 -0.169051
0.16001 0.0375934 -0.166398
0.156317 0.0377368 -0.156436
0.153976 0.037939 -0.145598
0.159436 0.0383712 -0.134163
0.165132 0.038818 -0.122398
-0.188488 0.0288873 -0.129546
-0.189873 0.0290997 -0.119365
-0.190631 0.0292523 -0.112319
-0.196581 0.0326002 0.0303313
-0.196058 0.0328753 0.0409194
-0.195166 0.0331765 0.0521547
-0.189959 0.0350748 0.123426
-0.188171 0.0354667 0.13734
-0.187465 0.0356531 0.14412
-0.1857 0.0359081 0.152502
-0.192497 0.0325768 -0.0902551
-0.193319 0.0328608 -0.0787997
-0.193805 0.0330571 -0.0709752
-0.194544 0.0333561 -0.0590616
-0.197952 0.0348398 -0.000216424
-0.19772 0.0351097 0.00953287
-0.197435 0.035387 0.0194959
-0.192811 0.0376255 0.0973339
-0.192423 0.0377987 0.103321
-0.191129 0.0381844 0.116174
-0.150174 0.0342788 -0.176256
-0.159312 0.0339643 -0.176748
-0.168454 0.0337492 -0.173843
-0.178435 0.0335855 -0.168246
-0.182284 0.0336749 -0.160884
-0.185054 0.0338303 -0.152477
-0.187408 0.0341231 -0.139848
-0.191919 0.0350917 -0.101747
-0.197997 0.0375929 -0.00959933
-0.195175 0.0397955 0.0623896
-0.194875 0.0399689 0.0679699
-0.194266 0.0403203 0.0792776
-0.185652 0.0427514 0.152572
-0.191049 0.0375821 -0.112735
-0.195728 0.0393462 -0.0517602
-0.196783 0.0396864 -0.0398303
-0.197353 0.0399268 -0.0315968
-0.198028 0.040307 -0.0188296
-0.196444 0.0425576 0.0504943
-0.189365 0.0453229 0.129924
-0.187517 0.0458355 0.144046
-0.188623 0.0398824 -0.129676
-0.199105 0.0438371 -0.00161308
-0.19897 0.044169 0.00799757
-0.198716 0.0445154 0.0179012
-0.198305 0.0448796 0.028154
-0.197688 0.0452661 0.0388311
-0.193102 0.0476015 0.102382
-0.192423 0.0478462 0.108818
-0.190854 0.0483595 0.12216
-0.148809 0.0426021 -0.175134
-0.192105 0.0433548 -0.105912
-0.193192 0.0437062 -0.0950251
-0.193748 0.0439577 -0.0874816
-0.194554 0.0443436 -0.0759593
-0.195297 0.0447427 -0.0641477
-0.196359 0.0492415 0.0608299
-0.195529 0.0496929 0.0723201
-0.195228 0.049911 0.0779834
-0.194512 0.0503625 0.0896049
-0.187551 0.0526228 0.143997
-0.18558 0.0530185 0.152677
-0.157505 0.0449695 -0.17524
-0.167659 0.0446097 -0.173165
-0.177487 0.044406 -0.167416
-0.183022 0.0445333 -0.157926
-0.185024 0.0446584 -0.152449
-0.187451 0.0450391 -0.139888
-0.196316 0.0478722 -0.0567262
-0.19742 0.04828 -0.0449485
-0.198055 0.0485656 -0.0368564
-0.198912 0.04901 -0.0244101
-0.199349 0.0493235 -0.0158154
-0.190041 0.0553282 0.128962
-0.188983 0.0481032 -0.130022
-0.190715 0.0484268 -0.120192
-0.200073 0.0526228 -0.00744843
-0.200225 0.0531864 0.00645608
-0.19997 0.0536037 0.0163394
-0.199517 0.0540465 0.0266234
-0.198905 0.0545116 0.0372729
-0.198595 0.0547472 0.0426667
-0.193025 0.0576832 0.107979
-0.191524 0.0582953 0.121214
-0.194759 0.0525482 -0.0844461
-0.195297 0.0528558 -0.0767521
-0.196221 0.0533139 -0.0651551
-0.198104 0.0583657 0.0534158
-0.197175 0.0589098 0.0649184
-0.196228 0.0594642 0.0766375
-0.195227 0.060033 0.0886294
-0.1939 0.0606462 0.101278
-0.18794 0.0627645 0.143435
-0.182842 0.063586 0.15666
-0.151594 0.053511 -0.173877
-0.160688 0.053023 -0.17436
-0.169556 0.0527115 -0.171235
-0.178913 0.0525132 -0.165088
-0.182545 0.0526743 -0.157496
-0.186759 0.0529528 -0.146684
-0.192227 0.0543506 -0.109985
-0.193433 0.0547777 -0.0992931
-0.199622 0.0576406 -0.0297427
-0.200213 0.0579917 -0.0214021
-0.190893 0.0652886 0.127748
-0.197949 0.0595095 -0.0542331
-0.198693 0.0598467 -0.0463851
-0.201249 0.0626474 0.0147469
-0.20077 0.063168 0.025041
-0.200195 0.0637076 0.0356211
-0.199513 0.0642677 0.0465088
-0.193242 0.0678115 0.113209
-0.188318 0.0587862 -0.136954
-0.190037 0.0591797 -0.127224
-0.201685 0.0644621 -0.00938696
-0.202072 0.064887 -0.000526011
-0.199204 0.0679531 0.0570819
-0.19876 0.0682672 0.0628159
-0.197859 0.0689044 0.0744444
-0.196212 0.0696448 0.0872863
-0.195572 0.0699962 0.0935401
-0.194273 0.0707097 0.106239
-0.189244 0.0727739 0.141552
-0.183439 0.0738196 0.155791
-0.19223 0.062505 -0.11391
-0.193043 0.0628289 -0.10686
-0.194279 0.0633211 -0.0961456
-0.195534 0.0638211 -0.0852621
-0.19684 0.0643254 -0.0742384
-0.19758 0.0646828 -0.0666366
-0.192174 0.0751612 0.125925
-0.154369 0.0643853 -0.172624
-0.163409 0.0638006 -0.173106
-0.173416 0.0634953 -0.167435
-0.181942 0.0635465 -0.156951
-0.186875 0.0638018 -0.146792
-0.199131 0.0680728 -0.0555485
-0.200278 0.0686491 -0.0438035
-0.200917 0.0690558 -0.0357062
-0.201528 0.069472 -0.0274685
-0.202104 0.0725066 0.0282482
-0.201539 0.0731267 0.0388697
-0.194358 0.0775798 0.111642
-0.191179 0.0675202 -0.124501
-0.202964 0.0730217 -0.0155293
-0.203348 0.0735013 -0.0067504
-0.203515 0.0742893 0.00715387
-0.203313 0.074867 0.0169847
-0.200485 0.0775504 0.0605271
-0.19942 0.0782977 0.0723429
-0.198705 0.0787017 0.0785742
-0.196828 0.079583 0.0918137
-0.196027 0.0800091 0.0983333
-0.190162 0.0827933 0.140226
-0.184036 0.0840318 0.154923
-0.189655 0.069783 -0.134457
-0.197486 0.0725689 -0.0790892
-0.19846 0.0729393 -0.071803
-0.201918 0.0798962 0.0484267
-0.193448 0.0849888 0.12411
-0.153552 0.0727039 -0.171942
-0.193189 0.0734909 -0.114865
-0.194417 0.0740626 -0.104287
-0.195247 0.0744488 -0.0971435
-0.202236 0.0776852 -0.0372263
-0.203176 0.0783862 -0.0248904
-0.202886 0.0825705 0.0421268
-0.194816 0.0877573 0.116559
-0.165782 0.0745882 -0.171565
-0.173062 0.0743484 -0.167127
-0.182072 0.074346 -0.157069
-0.187238 0.0746138 -0.147128
-0.200446 0.0791943 -0.061292
-0.201597 0.0798608 -0.0496645
-0.205012 0.0825514 -0.00411081
-0.205115 0.0831427 0.00517422
-0.204932 0.0837866 0.0149553
-0.204335 0.084504 0.025411
-0.200944 0.0876429 0.0702931
-0.199451 0.0885616 0.0828664
-0.19749 0.08957 0.0963093
-0.196493 0.0900829 0.103146
-0.191058 0.0927831 0.138933
-0.186355 0.0939364 0.15155
-0.190335 0.0778985 -0.135106
-0.192089 0.0784166 -0.125388
-0.205109 0.0849183 -0.013504
-0.203192 0.0894278 0.0518292
-0.193402 0.0953738 0.129839
-0.195553 0.0825543 -0.101464
-0.197071 0.0831636 -0.0909552
-0.198814 0.0837512 -0.0805072
-0.200295 0.0843911 -0.0695968
-0.195139 0.0980229 0.121704
-0.15716 0.083428 -0.171396
-0.165557 0.0827567 -0.171374
-0.183397 0.0825251 -0.154624
-0.18749 0.0827165 -0.147362
-0.194145 0.0844392 -0.115817
-0.202093 0.0878765 -0.0588471
-0.202868 0.0883684 -0.0510997
-0.203984 0.089127 -0.0392418
-0.204616 0.0896601 -0.0310794
-0.20654 0.0926538 0.0129377
-0.20608 0.0934239 0.023191
-0.205329 0.0942558 0.0339812
-0.203148 0.0964444 0.0621415
-0.201061 0.0979367 0.0806699
-0.19914 0.0990457 0.0940258
-0.197159 0.100183 0.107711
-0.19195 0.102741 0.137644
-0.172735 0.0852109 -0.166842
-0.206257 0.0933222 -0.0194613
-0.206765 0.0939132 -0.010889
-0.207164 0.0945319 -0.00206441
-0.205293 0.0980899 0.0440117
-0.202962 0.100023 0.0675776
-0.194284 0.105247 0.128575
-0.191019 0.0887235 -0.135758
-0.192995 0.0892777 -0.126271
-0.200803 0.0925684 -0.07434
-0.204147 0.102582 0.0608068
-0.196394 0.107748 0.119917
-0.194859 0.0926259 -0.116528
-0.196097 0.0933444 -0.105995
-0.197786 0.0940009 -0.0957454
-0.199526 0.0946619 -0.0853799
-0.205288 0.0976608 -0.040745
-0.206374 0.0985148 -0.0286561
-0.207449 0.102739 0.0263295
-0.20671 0.103655 0.0371611
-0.201742 0.107855 0.085062
-0.199808 0.109083 0.0985261
-0.197829 0.110339 0.1123
-0.193006 0.112634 0.13612
-0.191014 0.113489 0.144775
-0.156214 0.0945195 -0.170601
-0.164549 0.0937709 -0.170515
-0.172503 0.0933634 -0.166641
-0.182299 0.0932333 -0.157274
-0.187825 0.0935091 -0.147673
-0.202964 0.0988993 -0.0640768
-0.203974 0.0994078 -0.0566598
-0.208227 0.102582 -0.0126584
-0.208622 0.103258 -0.00385451
-0.208739 0.103998 0.00541979
-0.208602 0.104797 0.0151495
-0.206475 0.107607 0.0475051
-0.203784 0.109808 0.0716934
-0.194265 0.0976162 -0.123677
-0.196124 0.11822 0.125937
-0.190029 0.0991772 -0.142314
-0.19991 0.102718 -0.089869
-0.201639 0.103448 -0.0793983
-0.208574 0.112552 0.0347395
-0.206337 0.114747 0.0578811
-0.202783 0.117749 0.088984
-0.20092 0.119079 0.102431
-0.199973 0.119755 0.109269
-0.192784 0.123263 0.142201
-0.155502 0.102861 -0.170003
-0.19581 0.103509 -0.117474
-0.197349 0.104255 -0.107268
-0.20447 0.107578 -0.0614938
-0.206001 0.10841 -0.0503114
-0.207389 0.109289 -0.0387613
-0.208185 0.109912 -0.0307882
-0.210433 0.112689 0.0033105
-0.210354 0.113543 0.012938
-0.209979 0.114472 0.0230893
-0.205694 0.118941 0.0691054
-0.204385 0.120153 0.0814292
-0.163521 0.104826 -0.169639
-0.174615 0.104132 -0.164897
-0.182506 0.104005 -0.15746
-0.203795 0.109818 -0.0692186
-0.209994 0.11369 -0.0193778
-0.210554 0.114401 -0.0108693
-0.209194 0.119485 0.0439234
-0.198335 0.127701 0.122766
-0.191914 0.107661 -0.136613
-0.194189 0.108275 -0.127434
-0.208249 0.123743 0.0553271
-0.203966 0.127651 0.0927299
-0.202111 0.129096 0.106248
-0.200666 0.129949 0.113835
-0.194543 0.132974 0.139643
-0.188438 0.134972 0.154373
-0.189745 0.109749 -0.145763
-0.198951 0.112646 -0.104942
-0.200711 0.113425 -0.0947614
-0.202496 0.114215 -0.0844388
-0.209018 0.11768 -0.0406516
-0.210314 0.118666 -0.0288165
-0.212357 0.122629 0.0152088
-0.211867 0.123663 0.0255492
-0.211209 0.124751 0.036274
-0.207625 0.128002 0.0664891
-0.206986 0.128649 0.0725847
-0.205572 0.12999 0.085125
-0.158774 0.113556 -0.169183
-0.169574 0.112525 -0.167682
-0.197626 0.114554 -0.115397
-0.204546 0.117805 -0.0742319
-0.205573 0.118401 -0.0669614
-0.207134 0.119305 -0.0559167
-0.212166 0.122502 -0.017429
-0.21287 0.123691 -0.00441551
-0.213092 0.124556 0.0047214
-0.210702 0.128928 0.0469742
-0.19812 0.138256 0.128736
-0.179261 0.114741 -0.161797
-0.205154 0.137589 0.0964891
-0.203971 0.138431 0.103618
-0.201097 0.140265 0.118806
-0.194327 0.143706 0.145748
-0.18747 0.117601 -0.151027
-0.192021 0.118159 -0.140463
-0.194322 0.118823 -0.131371
-0.212896 0.127767 -0.0228675
-0.213755 0.132858 0.0280102
-0.210494 0.136233 0.0574443
-0.208915 0.137689 0.0699522
-0.207643 0.13909 0.0822591
-0.198609 0.122617 -0.116383
-0.200601 0.123402 -0.106632
-0.202368 0.124253 -0.0964934
-0.204159 0.125116 -0.0862141
-0.208425 0.127627 -0.0573741
-0.21041 0.128513 -0.0466515
-0.212129 0.129483 -0.035433
-0.21496 0.132606 -0.00232792
-0.215056 0.134066 0.0117753
-0.214793 0.135141 0.0217755
-0.21311 0.137633 0.04378
-0.20047 0.147621 0.125342
-0.197902 0.148904 0.134758
-0.15825 0.124611 -0.16874
-0.1698 0.123323 -0.167876
-0.179461 0.122797 -0.161976
-0.206252 0.128757 -0.0760922
-0.207805 0.129733 -0.0652072
-0.214875 0.134123 -0.0161374
-0.211205 0.142859 0.0616386
-0.205818 0.147703 0.101007
-0.204408 0.148672 0.108508
-0.196089 0.153364 0.143166
-0.197628 0.127511 -0.123143
-0.215065 0.142753 0.0361894
-0.209582 0.148153 0.0795748
-0.188313 0.128223 -0.151804
-0.193034 0.12879 -0.141423
-0.2042 0.132636 -0.0943855
-0.206004 0.133557 -0.0840909
-0.213698 0.137811 -0.0372797
-0.215196 0.138921 -0.0256326
-0.217062 0.14257 0.00922489
-0.216966 0.143668 0.0189719
-0.210999 0.150356 0.0723406
-0.208424 0.152856 0.0918992
-0.200264 0.158265 0.131323
-0.200564 0.133609 -0.114452
-0.202695 0.134433 -0.104823
-0.208562 0.137615 -0.0702655
-0.210349 0.138607 -0.0595459
-0.211702 0.139237 -0.0524822
-0.216945 0.142937 -0.0140742
-0.217424 0.143863 -0.00539565
-0.215413 0.149936 0.0457563
-0.20626 0.157939 0.105872
-0.204848 0.158978 0.113429
-0.198662 0.16272 0.139399
-0.161772 0.135177 -0.168148
-0.169622 0.134205 -0.167723
-0.179768 0.133521 -0.162248
-0.214442 0.154488 0.0572531
-0.193076 0.16843 0.15343
-0.197025 0.137724 -0.130199
-0.217338 0.147641 -0.0236908
-0.218838 0.152782 0.021408
-0.217928 0.154206 0.0324174
-0.214353 0.158246 0.0625327
-0.212539 0.16002 0.0754824
-0.209036 0.162969 0.0964577
-0.187638 0.138746 -0.154841
-0.193281 0.139125 -0.145374
-0.203632 0.142505 -0.105788
-0.205792 0.143387 -0.0960619
-0.207651 0.144367 -0.0858619
-0.213853 0.147784 -0.0506214
-0.215775 0.14884 -0.0397253
-0.219503 0.152731 -0.00331777
-0.219709 0.153812 0.005858
-0.21772 0.158526 0.0426741
-0.207166 0.168097 0.110106
-0.205816 0.169187 0.117622
-0.199054 0.173361 0.144613
-0.161499 0.143436 -0.167916
-0.200324 0.143737 -0.121967
-0.209732 0.14813 -0.0757377
-0.211627 0.149161 -0.065241
-0.21937 0.154025 -0.0170528
-0.216914 0.163098 0.0539029
-0.212006 0.167833 0.086872
-0.202707 0.174853 0.133474
-0.169151 0.145167 -0.167316
-0.177601 0.144405 -0.163929
-0.220111 0.162699 0.0295428
-0.21606 0.167765 0.0653869
-0.210058 0.173009 0.100464
-0.195563 0.147577 -0.140096
-0.198216 0.148314 -0.13136
-0.20949 0.152784 -0.0837454
-0.218364 0.157881 -0.033918
-0.219416 0.158716 -0.0262079
-0.221726 0.162762 0.00804448
-0.221759 0.16398 0.0176142
-0.219472 0.167854 0.0453658
-0.215039 0.172569 0.0772976
-0.208195 0.178263 0.114186
-0.188311 0.149344 -0.155457
-0.203448 0.152601 -0.113468
-0.204875 0.153225 -0.10707
-0.207038 0.154172 -0.097374
-0.213757 0.157614 -0.0633937
-0.215117 0.158327 -0.0563921
-0.21718 0.159408 -0.0457699
-0.22147 0.162781 -0.0150491
-0.221989 0.163826 -0.00643528
-0.218649 0.172525 0.0566705
-0.213232 0.177721 0.0905262
-0.205702 0.183837 0.129087
-0.203143 0.185445 0.138581
-0.165004 0.153922 -0.167328
-0.172713 0.152844 -0.166823
-0.212221 0.159236 -0.0743117
-0.211085 0.183091 0.104486
-0.223668 0.173037 0.0199773
-0.222733 0.174666 0.0310138
-0.218679 0.180128 0.0669857
-0.20923 0.188472 0.118284
-0.202175 0.193249 0.145811
-0.193374 0.157503 -0.149154
-0.196726 0.158078 -0.141205
-0.2003 0.159121 -0.1296
-0.208781 0.162537 -0.0951927
-0.211017 0.163536 -0.0853989
-0.21875 0.167532 -0.0476055
-0.220027 0.168333 -0.0403337
-0.221633 0.169656 -0.0288914
-0.224184 0.172606 -0.00452828
-0.224509 0.173791 0.00448036
-0.222653 0.179098 0.0410859
-0.218386 0.184081 0.0726332
-0.214463 0.187641 0.0941927
-0.20617 0.194392 0.134116
-0.183029 0.160083 -0.161551
-0.203352 0.162544 -0.121137
-0.205516 0.163528 -0.111664
-0.21445 0.16758 -0.0726056
-0.215813 0.168328 -0.0657156
-0.223314 0.173269 -0.021896
-0.22207 0.183774 0.0520036
-0.216908 0.18923 0.08533
-0.21228 0.193156 0.108289
-0.164643 0.16492 -0.167018
-0.175669 0.163337 -0.165822
-0.225055 0.182973 0.0279341
-0.221152 0.188648 0.0635631
-0.210268 0.198724 0.122399
-0.223298 0.177796 -0.0309084
-0.226612 0.18266 0.00653195
-0.226679 0.18402 0.0160387
-0.219753 0.193785 0.0759969
-0.215698 0.197594 0.0978715
-0.209164 0.20324 0.129699
-0.206235 0.205167 0.13978
-0.183506 0.168013 -0.161979
-0.192843 0.167894 -0.152329
-0.199087 0.168715 -0.139733
-0.201801 0.169538 -0.131074
-0.209639 0.172789 -0.100112
-0.211967 0.173815 -0.090502
-0.220142 0.177885 -0.0535679
-0.221545 0.178687 -0.0465192
-0.226466 0.182931 -0.0120498
-0.223798 0.193159 0.054754
-0.218137 0.199101 0.0889629
-0.213526 0.20324 0.112036
-0.204383 0.210064 0.148358
-0.168366 0.172533 -0.166638
-0.205658 0.173317 -0.119595
-0.207834 0.174364 -0.11012
-0.215613 0.177839 -0.0780622
-0.217117 0.178581 -0.0713964
-0.226202 0.184584 -0.0209008
-0.226456 0.193009 0.0359706
-0.225446 0.194879 0.0473961
-0.222511 0.19827 0.0668839
-0.212893 0.207568 0.118555
-0.228759 0.192964 0.0181516
-0.221125 0.203516 0.07937
-0.216938 0.207581 0.101563
-0.209653 0.213827 0.134701
-0.203857 0.177594 -0.129301
-0.224418 0.187595 -0.0411466
-0.226102 0.189044 -0.0298274
-0.229205 0.192855 -0.00153321
-0.229398 0.194239 0.00769281
-0.208093 0.218656 0.142806
-0.179199 0.178994 -0.165341
-0.189228 0.178087 -0.159921
-0.195517 0.178355 -0.151156
-0.200542 0.17904 -0.141132
-0.209753 0.182571 -0.10817
-0.211253 0.1833 -0.101811
-0.213737 0.184333 -0.0924057
-0.220762 0.187713 -0.062856
-0.222215 0.188532 -0.0559758
-0.228516 0.193164 -0.0192083
-0.229271 0.194319 -0.0109526
-0.227922 0.203126 0.0440182
-0.226025 0.205454 0.0568197
-0.223874 0.207918 0.0702137
-0.220338 0.211811 0.0912196
-0.214308 0.217681 0.12211
-0.168258 0.183436 -0.166543
-0.207236 0.183702 -0.121188
-0.217426 0.188403 -0.0800664
-0.230162 0.20294 0.0260525
-0.229179 0.204892 0.0372852
-0.218337 0.217538 0.105039
-0.2284 0.19756 -0.0281405
-0.231494 0.203087 0.00974101
-0.223443 0.216047 0.0814095
-0.220785 0.21887 0.0960072
-0.211753 0.227132 0.137329
-0.20898 0.229233 0.147303
-0.204467 0.187613 -0.133691
-0.215892 0.192537 -0.090677
-0.225879 0.197786 -0.0472732
-0.231441 0.202997 -0.00906277
-0.232023 0.204295 -0.000446916
-0.228508 0.213709 0.0533839
-0.215741 0.227818 0.125657
-0.179786 0.189566 -0.165859
-0.187521 0.188774 -0.161984
-0.196721 0.188674 -0.152281
-0.210595 0.192603 -0.112967
-0.212187 0.193335 -0.10676
-0.221044 0.197503 -0.0716223
-0.22334 0.198741 -0.0615593
-0.23076 0.203905 -0.0220031
-0.231441 0.213073 0.0342205
-0.230334 0.215188 0.0457723
-0.227283 0.219002 0.0654275
-0.224099 0.222964 0.0858273
-0.219755 0.227517 0.108504
-0.214396 0.232621 0.133374
-0.17198 0.193667 -0.166185
-0.207965 0.193685 -0.125761
-0.219226 0.198896 -0.0820569
-0.233536 0.212762 0.0166841
-0.222193 0.228765 0.099431
-0.202612 0.194462 -0.143121
-0.23001 0.207693 -0.0345929
-0.234023 0.213095 0.0016852
-0.233371 0.217466 0.0266664
-0.229989 0.223175 0.0564617
-0.226892 0.227171 0.0764984
-0.211099 0.242667 0.149959
-0.179732 0.197652 -0.165811
-0.205856 0.197908 -0.135054
-0.216808 0.202574 -0.0957073
-0.226237 0.207534 -0.0563605
-0.228588 0.208844 -0.0461259
-0.233531 0.213024 -0.0163317
-0.232581 0.223379 0.0426844
-0.225533 0.232747 0.0891504
-0.221175 0.237524 0.111982
-0.219681 0.23916 0.119803
-0.215351 0.243081 0.137702
-0.188187 0.19925 -0.162585
-0.196301 0.198893 -0.155538
-0.211481 0.202519 -0.117771
-0.213113 0.203267 -0.111658
-0.222079 0.207573 -0.0769598
-0.224373 0.208866 -0.0669901
-0.23285 0.21461 -0.0246062
-0.234783 0.222857 0.0247672
-0.233791 0.225015 0.0360093
-0.229634 0.231301 0.0673404
-0.2286 0.232679 0.0740669
-0.171872 0.20454 -0.166091
-0.2202 0.208914 -0.0872308
-0.235919 0.222782 0.00871933
-0.224559 0.241454 0.101467
-0.203023 0.204374 -0.147215
-0.231397 0.217774 -0.0407153
-0.236042 0.223134 -0.0056318
-0.234212 0.232672 0.0454901
-0.222598 0.247558 0.115469
-0.221112 0.249266 0.123325
-0.216311 0.253589 0.14205
-0.21328 0.256077 0.152524
-0.179632 0.208445 -0.165722
-0.207224 0.208156 -0.136398
-0.218589 0.212888 -0.0976218
-0.227335 0.217595 -0.06192
-0.229681 0.21896 -0.0517805
-0.234335 0.222615 -0.0264543
-0.236025 0.224372 -0.0148917
-0.235922 0.233114 0.0331019
-0.233089 0.238084 0.0572789
-0.232109 0.239476 0.0638417
-0.229076 0.243763 0.0840349
-0.22502 0.248636 0.106309
-0.188761 0.209734 -0.163102
-0.197497 0.20912 -0.156648
-0.213254 0.212693 -0.119585
-0.215718 0.213866 -0.110451
-0.223186 0.217501 -0.0823318
-0.225481 0.218845 -0.0724597
-0.23783 0.232545 0.0158093
-0.237105 0.234671 0.0265466
-0.230947 0.245045 0.0760081
-0.227401 0.249696 0.0973057
-0.206101 0.212574 -0.142773
-0.221184 0.218818 -0.0923724
-0.238256 0.232638 0.000895619
-0.224082 0.257592 0.118881
-0.217488 0.264042 0.146091
-0.232636 0.227788 -0.0466032
-0.23458 0.229429 -0.0357302
-0.237964 0.233051 -0.0127519
-0.237096 0.243474 0.0414991
-0.234557 0.247575 0.0603817
-0.2306 0.253475 0.0872054
-0.226513 0.258576 0.109653
-0.221789 0.264121 0.133734
-0.175643 0.220043 -0.165798
-0.183522 0.218396 -0.165586
-0.209883 0.218548 -0.135258
-0.219574 0.2227 -0.102672
-0.228428 0.227539 -0.067426
-0.230756 0.228964 -0.0573651
-0.236922 0.233797 -0.0251628
-0.239197 0.24265 0.0237118
-0.233425 0.2532 0.0724549
-0.230272 0.257821 0.0931004
-0.21713 0.271989 0.152519
-0.194703 0.219481 -0.161305
-0.21507 0.222777 -0.121445
-0.225047 0.22778 -0.0844043
-0.227345 0.229182 -0.0745798
-0.240229 0.243254 0.0126036
-0.237125 0.251474 0.0516143
-0.225695 0.267589 0.122114
-0.202579 0.221819 -0.154124
-0.207785 0.222581 -0.144402
-0.222157 0.228619 -0.09746
-0.236664 0.237892 -0.0338387
-0.240196 0.242503 -0.00633305
-0.240756 0.245011 0.00710595
-0.222987 0.274474 0.137684
-0.233696 0.237757 -0.0522256
-0.239646 0.242921 -0.0194976
-0.240375 0.252957 0.0319745
-0.239919 0.254172 0.0375924
-0.237682 0.258308 0.0559649
-0.234681 0.262932 0.0759413
-0.233763 0.264456 0.0826048
-0.231704 0.267656 0.0964487
-0.230462 0.269386 0.103786
-0.179716 0.229928 -0.165797
-0.187534 0.228214 -0.165586
-0.21156 0.228565 -0.136916
-0.221383 0.232836 -0.104603
-0.230278 0.237864 -0.0695593
-0.232595 0.239354 -0.05953
-0.241963 0.253186 0.0199643
-0.22731 0.277606 0.125354
-0.21955 0.285231 0.154695
-0.198256 0.229384 -0.160965
-0.216875 0.232794 -0.123292
-0.218516 0.233643 -0.117267
-0.226052 0.237541 -0.0896034
-0.228427 0.238958 -0.0799575
-0.242527 0.252935 0.00475651
-0.237171 0.266794 0.0670846
-0.229718 0.278419 0.116051
-0.22412 0.284904 0.141757
-0.209458 0.232526 -0.146022
-0.237997 0.247733 -0.0399264
-0.239856 0.24958 -0.0288415
-0.242382 0.253035 -0.00917149
-0.241351 0.263489 0.0406264
-0.236133 0.272593 0.0791583
-0.233124 0.277527 0.099831
-0.179679 0.238011 -0.165764
-0.234745 0.247615 -0.057785
-0.236313 0.248653 -0.0510252
-0.241598 0.253451 -0.0219794
-0.242933 0.263607 0.028459
-0.240583 0.26901 0.0518631
-0.237723 0.27376 0.0715479
-0.235217 0.278435 0.0912678
-0.228929 0.287644 0.1286
-0.223746 0.292913 0.148189
-0.18765 0.238841 -0.165691
-0.214319 0.238822 -0.1359
-0.223181 0.242904 -0.106523
-0.231334 0.24761 -0.0749602
-0.244225 0.262841 0.0120639
-0.243984 0.265005 0.0221021
-0.231177 0.288452 0.119484
-0.199107 0.239622 -0.161749
-0.218667 0.242743 -0.125127
-0.221134 0.244069 -0.116114
-0.227848 0.247677 -0.0915892
-0.244418 0.262647 -0.00247556
-0.23332 0.289285 0.110623
-0.208742 0.241902 -0.152673
-0.212101 0.242763 -0.144894
-0.239213 0.257502 -0.0458148
-0.241085 0.259402 -0.034861
-0.244035 0.262753 -0.0159401
-0.244348 0.272848 0.0314631
-0.241789 0.278575 0.0552903
-0.239259 0.283328 0.0746118
-0.236631 0.288252 0.0946204
-0.230302 0.297844 0.132238
-0.22401 0.303957 0.153681
-0.183695 0.247798 -0.16574
-0.236505 0.257926 -0.0598719
-0.243375 0.263985 -0.0242395
-0.245747 0.272937 0.0196955
-0.244047 0.278166 0.0418988
-0.240818 0.284412 0.0670791
-0.238443 0.289203 0.0865088
-0.228533 0.303379 0.140765
-0.194357 0.248112 -0.164581
-0.217069 0.249042 -0.134889
-0.224967 0.252903 -0.10843
-0.226646 0.25383 -0.10232
-0.233087 0.257806 -0.0769677
-0.246287 0.273474 0.00929064
-0.234465 0.299442 0.114494
-0.202649 0.249405 -0.161428
-0.220447 0.252626 -0.12695
-0.230504 0.25821 -0.0904802
-0.24301 0.267887 -0.0327966
-0.24632 0.273228 -0.00498128
-0.237843 0.298216 0.0982903
-0.213817 0.252571 -0.146566
-0.240855 0.267899 -0.0478169
-0.245241 0.272564 -0.0220713
-0.246719 0.283445 0.0281812
-0.245476 0.287512 0.0449469
-0.243873 0.290719 0.0574747
-0.242348 0.293933 0.07012
-0.239763 0.299026 0.0899669
-0.233325 0.309064 0.127583
-0.228601 0.314488 0.14651
-0.187679 0.257508 -0.165717
-0.237368 0.267666 -0.06515
-0.247956 0.283498 0.016682
-0.241273 0.300047 0.0823331
-0.236561 0.307798 0.111312
-0.235244 0.30986 0.118947
-0.226376 0.320472 0.155913
-0.197892 0.257903 -0.164222
-0.218814 0.25885 -0.136638
-0.226823 0.262794 -0.110411
-0.22936 0.26423 -0.101287
-0.234791 0.267953 -0.0789185
-0.248261 0.282972 0.00187421
-0.244486 0.297635 0.0617831
-0.207594 0.25928 -0.158843
-0.223119 0.262875 -0.125879
-0.232265 0.268231 -0.0924406
-0.244129 0.277584 -0.0386511
-0.245339 0.278982 -0.0312444
-0.247907 0.282825 -0.0117278
-0.248092 0.292699 0.0312316
-0.240576 0.309187 0.0942014
-0.234399 0.319439 0.131668
-0.216614 0.26264 -0.145614
-0.2417 0.277645 -0.0531903
-0.247527 0.283762 -0.0204436
-0.24944 0.292585 0.0195174
-0.247732 0.29822 0.0417585
-0.247249 0.29969 0.0475173
-0.243108 0.308264 0.0796275
-0.237463 0.318122 0.115555
-0.233113 0.324836 0.139463
-0.22981 0.328277 0.150509
-0.187685 0.26818 -0.165722
-0.239044 0.277853 -0.0671245
-0.249927 0.292959 0.00917399
-0.244579 0.309211 0.0721451
-0.23933 0.318836 0.10711
-0.198851 0.268019 -0.165099
-0.221631 0.268936 -0.13572
-0.22868 0.272608 -0.112394
-0.231951 0.274654 -0.100132
-0.236594 0.277973 -0.0809834
-0.250221 0.293436 -0.0007447
-0.246776 0.308448 0.0584759
-0.236643 0.327741 0.128187
-0.208963 0.26913 -0.160132
-0.225799 0.273081 -0.124829
-0.234832 0.278717 -0.0912582
-0.245852 0.287877 -0.0407966
-0.247607 0.29009 -0.0296221
-0.249772 0.293222 -0.014167
-0.249974 0.303448 0.028608
-0.248681 0.30785 0.0454782
-0.244065 0.31825 0.0835758
-0.238532 0.328389 0.119566
-0.229415 0.339858 0.157072
-0.21941 0.272666 -0.144675
-0.24335 0.287874 -0.0551881
-0.251214 0.303273 0.0170803
-0.245533 0.319129 0.0760499
-0.242677 0.324873 0.0965199
-0.240391 0.329027 0.111077
-0.233805 0.338862 0.144224
-0.191797 0.277696 -0.165841
-0.234068 0.282599 -0.0984669
-0.240844 0.287899 -0.069243
-0.251539 0.303642 0.00699002
-0.247549 0.318353 0.0625565
-0.237417 0.338331 0.132741
-0.199706 0.278151 -0.165881
-0.224437 0.278983 -0.134806
-0.231271 0.282914 -0.111257
-0.238385 0.287924 -0.0830339
-0.248748 0.297906 -0.0310726
-0.251421 0.303109 -0.00704163
-0.250826 0.313027 0.032383
-0.249513 0.317598 0.0493892
-0.239271 0.33892 0.124112
-0.232225 0.347925 0.152619
-0.208118 0.27917 -0.162931
-0.215722 0.278843 -0.155721
-0.227639 0.282746 -0.126739
-0.247392 0.298202 -0.0427141
-0.250749 0.302925 -0.020039
-0.252151 0.312696 0.0206636
-0.246319 0.329202 0.0802274
-0.244711 0.332955 0.0934546
-0.241098 0.3395 0.115615
-0.222173 0.282665 -0.143717
-0.245033 0.29801 -0.0572269
-0.252693 0.312847 0.0102188
-0.250959 0.321407 0.0422357
-0.248326 0.328306 0.0666574
-0.242896 0.340071 0.107248
-0.23738 0.349531 0.1386
-0.236615 0.292991 -0.097284
-0.242522 0.297938 -0.0712186
-0.25303 0.313117 0.000218213
-0.239795 0.349659 0.129026
-0.195898 0.289767 -0.165981
-0.203327 0.287718 -0.165637
-0.226187 0.2886 -0.136586
-0.232996 0.292668 -0.113113
-0.234607 0.293772 -0.107008
-0.240057 0.297868 -0.0849483
-0.249425 0.307637 -0.0364039
-0.25253 0.312711 -0.0131612
-0.252615 0.323735 0.0298712
-0.251483 0.328347 0.0465639
-0.250782 0.330122 0.0526911
-0.247575 0.337635 0.0783609
-0.242728 0.34795 0.113105
-0.235359 0.35894 0.147653
-0.21343 0.288678 -0.160753
-0.23024 0.292897 -0.125634
-0.248074 0.307847 -0.0479486
-0.251418 0.312703 -0.0254624
-0.253864 0.32333 0.018294
-0.248778 0.33853 0.0712634
-0.246517 0.344231 0.0907338
-0.244358 0.348558 0.105014
-0.239443 0.357846 0.135354
-0.224924 0.292627 -0.142763
-0.245704 0.307571 -0.0623168
-0.254213 0.3235 0.00814486
-0.240924 0.358535 0.127263
-0.19597 0.297667 -0.166046
-0.238033 0.302957 -0.0988634
-0.243907 0.308083 -0.0728495
-0.254128 0.322705 -0.00596368
-0.253545 0.333298 0.0335404
-0.25195 0.338376 0.0510049
-0.204162 0.297774 -0.166406
-0.228822 0.29864 -0.135524
-0.234424 0.302525 -0.114647
-0.241436 0.307918 -0.086527
-0.250727 0.318049 -0.0380489
-0.253897 0.323248 -0.0149617
-0.25474 0.332824 0.021966
-0.249211 0.348834 0.0759305
-0.247805 0.352677 0.0887931
-0.24392 0.359816 0.111269
-0.212622 0.298613 -0.163574
-0.220333 0.29818 -0.156547
-0.231687 0.302658 -0.127146
-0.24931 0.318209 -0.049477
-0.25267 0.323212 -0.0270776
-0.255362 0.332727 0.0113798
-0.251013 0.347819 0.0627213
-0.246954 0.317819 -0.0638193
-0.25569 0.332821 0.00136554
-0.254032 0.343208 0.0378606
-0.252176 0.348637 0.0558273
-0.225683 0.304301 -0.147212
-0.239361 0.312918 -0.100342
-0.245284 0.318172 -0.0744716
-0.255476 0.333274 -0.00776476
-0.255196 0.342651 0.0262486
-0.249176 0.359541 0.0813323
-0.246533 0.364404 0.0961757
